ply
format ascii 1.0
comment VCGLIB generated
element vertex 793
property float x
property float y
property float z
property float nx
property float ny
property float nz
property uchar red
property uchar green
property uchar blue
property uchar alpha
element face 0
property list uchar int vertex_indices
end_header
43.25 -2.69637 -33.4008 0.5 -0.499696 -0.0174495  255 0 0 255
43.25 -2.63158 -35.2564 0.571429 -0.42831 -0.0149567  255 0 0 255
43.25 -2.56678 -37.112 0.428571 -0.571081 -0.0199423  255 0 0 255
43.25 -2.50198 -38.9676 0.5 -0.499696 -0.0174495  255 0 0 255
43.25 -2.43718 -40.8232 0.5 -0.499696 -0.0174495  255 0 0 255
43.25 -2.37238 -42.6788 0.5 -0.499696 -0.0174495  255 0 0 255
43.25 -2.30758 -44.5344 0.428571 -0.571081 -0.0199423  255 0 0 255
43.25 -2.24278 -46.39 0.5 -0.499696 -0.0174495  255 0 0 255
43.25 -2.17798 -48.2456 0.428571 -0.571081 -0.0199423  255 0 0 255
43.25 -2.11318 -50.1012 0.6 -0.399756 -0.0139596  255 0 0 255
43.25 -2.04838 -51.9568 0.5 -0.499696 -0.0174495  255 0 0 255
82.75 -3.79796 -1.8556 -0.5 -0.499696 -0.0174495  255 0 0 255
82.75 -3.73316 -3.7112 -0.571429 -0.42831 -0.0149567  255 0 0 255
82.75 -3.66836 -5.5668 -0.5 -0.499696 -0.0174495  255 255 255 255
82.75 -3.60356 -7.4224 -0.5 -0.499696 -0.0174495  255 255 255 255
82.75 -3.53876 -9.278 -0.5 -0.499696 -0.0174495  255 255 255 255
82.75 -3.47396 -11.1336 -0.5 -0.499696 -0.0174495  255 255 255 255
82.75 -3.40916 -12.9892 -0.5 -0.499696 -0.0174495  255 255 255 255
82.75 -3.34436 -14.8448 -0.5 -0.499696 -0.0174495  255 255 255 255
82.75 -3.27956 -16.7004 -0.5 -0.499696 -0.0174495  255 255 255 255
82.75 -3.21477 -18.556 -0.5 -0.499696 -0.0174495  255 255 255 255
82.75 -3.14997 -20.4116 -0.428571 -0.571081 -0.0199423  255 0 0 255
82.75 -3.08517 -22.2672 -0.5 -0.499696 -0.0174495  255 0 0 255
82.75 -3.02037 -24.1228 -0.5 -0.499696 -0.0174495  255 0 0 255
82.75 -2.95557 -25.9784 -0.5 -0.499696 -0.0174495  255 0 0 255
82.75 -2.89077 -27.834 -0.5 -0.499696 -0.0174495  255 0 0 255
82.75 -2.82597 -29.6896 -0.5 -0.499696 -0.0174495  255 0 0 255
82.75 -2.76117 -31.5452 -0.5 -0.499696 -0.0174495  255 0 0 255
82.75 -2.69637 -33.4008 -0.5 -0.499696 -0.0174495  255 0 0 255
82.75 -2.63158 -35.2564 -0.5 -0.499696 -0.0174495  255 0 0 255
82.75 -2.56678 -37.112 -0.5 -0.499696 -0.0174495  255 0 0 255
82.75 -2.50198 -38.9676 -0.428571 -0.571081 -0.0199423  255 0 0 255
82.75 -2.43718 -40.8232 -0.5 -0.499696 -0.0174495  255 0 0 255
82.75 -2.37238 -42.6788 -0.428571 -0.571081 -0.0199423  255 0 0 255
82.75 -2.30758 -44.5344 -0.5 -0.499696 -0.0174495  255 0 0 255
82.75 -2.24278 -46.39 -0.5 -0.499696 -0.0174495  255 0 0 255
82.75 -2.17798 -48.2456 -0.428571 -0.571081 -0.0199423  255 0 0 255
82.75 -2.11318 -50.1012 -0.6 -0.399756 -0.0139596  255 0 0 255
82.75 -2.04838 -51.9568 -0.428571 -0.571081 -0.0199423  255 0 0 255
124.75 -3.79796 -1.8556 -0.5 -0.499696 -0.0174495  255 0 0 255
124.75 -3.73316 -3.7112 -0.571429 -0.42831 -0.0149567  255 0 0 255
124.75 -3.66836 -5.5668 -0.5 -0.499696 -0.0174495  255 0 0 255
124.75 -3.60356 -7.4224 -0.5 -0.499696 -0.0174495  255 255 255 255
124.75 -3.53876 -9.278 -0.5 -0.499696 -0.0174495  255 255 255 255
124.75 -3.47396 -11.1336 -0.5 -0.499696 -0.0174495  255 255 255 255
124.75 -3.40916 -12.9892 -0.5 -0.499696 -0.0174495  255 255 255 255
124.75 -3.34436 -14.8448 -0.5 -0.499696 -0.0174495  255 255 255 255
124.75 -3.27956 -16.7004 -0.5 -0.499696 -0.0174495  255 255 255 255
124.75 -3.21477 -18.556 -0.5 -0.499696 -0.0174495  255 255 255 255
124.75 -3.14997 -20.4116 -0.428571 -0.571081 -0.0199423  255 255 255 255
124.75 -3.08517 -22.2672 -0.5 -0.499696 -0.0174495  255 255 255 255
124.75 -3.02037 -24.1228 -0.5 -0.499696 -0.0174495  255 255 255 255
124.75 -2.95557 -25.9784 -0.5 -0.499696 -0.0174495  255 255 255 255
124.75 -2.89077 -27.834 -0.5 -0.499696 -0.0174495  255 255 255 255
124.75 -2.82597 -29.6896 -0.5 -0.499696 -0.0174495  255 255 255 255
124.75 -2.76117 -31.5452 -0.5 -0.499696 -0.0174495  255 0 0 255
124.75 -2.69637 -33.4008 -0.5 -0.499696 -0.0174495  255 0 0 255
124.75 -2.63158 -35.2564 -0.5 -0.499696 -0.0174495  255 0 0 255
124.75 -2.56678 -37.112 -0.5 -0.499696 -0.0174495  255 0 0 255
124.75 -2.50198 -38.9676 -0.428571 -0.571081 -0.0199423  255 0 0 255
124.75 -2.43718 -40.8232 -0.5 -0.499696 -0.0174495  255 0 0 255
124.75 -2.37238 -42.6788 -0.428571 -0.571081 -0.0199423  255 0 0 255
124.75 -2.30758 -44.5344 -0.5 -0.499696 -0.0174495  255 0 0 255
124.75 -2.24278 -46.39 -0.5 -0.499696 -0.0174495  255 0 0 255
124.75 -2.17798 -48.2456 -0.428571 -0.571081 -0.0199423  255 0 0 255
124.75 -2.11318 -50.1012 -0.6 -0.399756 -0.0139596  255 0 0 255
124.75 -2.04838 -51.9568 -0.428571 -0.571081 -0.0199423  255 0 0 255
23.03 -3.39392 -13.4257 -0.328305 -0.561466 -0.295255  255 0 0 255
21.4602 -3.42555 -12.5199 -0.0771769 -0.539942 -0.456814  255 0 0 255
19.675 -3.41457 -12.8345 0.25 -0.484583 -0.450199  255 0 0 255
18.5098 -3.3661 -14.2222 0.536967 -0.42149 -0.210278  255 0 0 255
18.5098 -3.30284 -16.0338 0.417641 -0.560522 0.132528  255 0 0 255
19.675 -3.25438 -17.4216 0.285714 -0.445581 0.479614  255 0 0 255
21.4602 -3.24339 -17.7362 -0.086824 -0.51688 0.474654  255 0 0 255
23.03 -3.27503 -16.8304 -0.383022 -0.510912 0.303748  255 0 0 255
23.65 -2.00195 -15.0815 -1 0 0  255 0 0 255
23.65 -0.669431 -15.035 -1 0 0  255 0 0 255
60.35 -2.00195 -15.0815 1 0 0  255 0 0 255
60.35 -0.669431 -15.035 1 0 0  255 0 0 255
60.97 -3.27503 -16.8304 0.383022 -0.510912 0.303748  255 0 0 255
62.5398 -3.24339 -17.7362 0.0992274 -0.44795 0.547448  255 0 0 255
64.325 -3.25438 -17.4216 -0.25 -0.514808 0.4153  255 0 0 255
65.4902 -3.30284 -16.0338 -0.469846 -0.505664 0.153457  255 0 0 255
65.4902 -3.3661 -14.2222 -0.417641 -0.549912 -0.171305  255 255 255 255
64.325 -3.41457 -12.8345 -0.285714 -0.41104 -0.509527  255 255 255 255
62.5398 -3.42555 -12.5199 0.086824 -0.482511 -0.509554  255 255 255 255
60.97 -3.39392 -13.4257 0.383022 -0.488479 -0.338647  255 255 255 255
102.35 -2.00195 -15.0815 1 0 0  255 255 255 255
102.35 -0.669431 -15.035 1 0 0  255 255 255 255
102.97 -3.27503 -16.8304 0.383022 -0.510912 0.303748  255 255 255 255
104.54 -3.24339 -17.7362 0.0992274 -0.44795 0.547448  255 255 255 255
106.325 -3.25438 -17.4216 -0.25 -0.514808 0.4153  255 255 255 255
107.49 -3.30284 -16.0338 -0.469846 -0.505664 0.153457  255 255 255 255
107.49 -3.3661 -14.2222 -0.417641 -0.549912 -0.171305  255 255 255 255
106.325 -3.41457 -12.8345 -0.285714 -0.41104 -0.509527  255 255 255 255
104.54 -3.42555 -12.5199 0.086824 -0.482511 -0.509554  255 255 255 255
102.97 -3.39392 -13.4257 0.383022 -0.488479 -0.338647  255 255 255 255
149.65 -2.00195 -15.0815 -1 0 0  255 255 255 255
149.65 -0.669431 -15.035 -1 0 0  255 255 255 255
42.231 0.914812 -22.1968 0 0.999391 0.034899  255 0 0 255
125.839 1.18945 -30.0613 0 0.999391 0.034899  255 255 255 255
83.7089 1.2057 -30.5267 0 0.999391 0.034899  255 0 0 255
28.2315 1.35694 -34.8578 0 0.999391 0.034899  255 0 0 255
55.5854 1.3691 -35.2059 0 0.999391 0.034899  255 0 0 255
85.6496 0.596389 -13.0784 0 0.999391 0.034899  255 255 255 255
144.686 1.37995 -35.5165 0 0.999391 0.034899  255 255 255 255
107.842 1.37885 -35.485 0 0.999391 0.034899  255 0 0 255
126.997 0.596265 -13.0748 0 0.999391 0.034899  255 255 255 255
35.8945 0.523808 -10.9999 0 0.999391 0.034899  255 0 0 255
70.882 1.46625 -37.988 0 0.999391 0.034899  255 0 0 255
48.3834 0.525657 -11.0528 0 0.999391 0.034899  255 255 255 255
14.4494 1.21456 -30.7805 0 0.999391 0.034899  255 0 0 255
42.304 1.50766 -39.1738 0 0.999391 0.034899  255 0 0 255
94.1028 1.52988 -39.8101 0 0.999391 0.034899  255 0 0 255
155.234 1.11432 -27.9098 0 0.999391 0.034899  255 255 255 255
96.1651 1.0939 -27.3251 0 0.999391 0.034899  255 0 0 255
118.787 1.56781 -40.8961 0 0.999391 0.034899  255 0 0 255
133.252 1.5665 -40.8588 0 0.999391 0.034899  255 0 0 255
72.8018 1.06065 -26.3732 0 0.999391 0.034899  255 0 0 255
114.539 1.04258 -25.8557 0 0.999391 0.034899  255 255 255 255
137.269 1.04395 -25.8947 0 0.999391 0.034899  255 255 255 255
155.463 1.57823 -41.1947 0 0.999391 0.034899  255 0 0 255
155.919 0.355518 -6.1807 0 0.999391 0.034899  255 0 0 255
96.1972 0.355512 -6.18053 0 0.999391 0.034899  255 255 255 255
116.886 0.405146 -7.60186 0 0.999391 0.034899  255 255 255 255
19.1153 1.58933 -41.5126 0 0.999391 0.034899  255 0 0 255
74.8309 0.401158 -7.48767 0 0.999391 0.034899  255 255 255 255
82.056 1.59662 -41.7213 0 0.999391 0.034899  255 0 0 255
31.0899 0.987851 -24.2883 0 0.999391 0.034899  255 0 0 255
52.9101 0.987851 -24.2883 0 0.999391 0.034899  255 0 0 255
136.343 0.389434 -7.15193 0 0.999391 0.034899  255 255 255 255
56.1944 0.324845 -5.30236 0 0.999391 0.034899  255 255 255 255
10.6215 0.372873 -6.67768 0 0.999391 0.034899  255 0 0 255
158.341 0.801583 -18.9543 0 0.999391 0.034899  255 255 255 255
93.3438 0.782498 -18.4078 0 0.999391 0.034899  255 255 255 255
28.1749 0.334275 -5.57238 0 0.999391 0.034899  255 255 255 255
62.4489 1.09781 -27.4373 0 0.999391 0.034899  255 0 0 255
61.8266 1.66052 -43.551 0 0.999391 0.034899  255 0 0 255
10.1153 0.895274 -21.6373 0 0.999391 0.034899  255 0 0 255
50.9207 1.66505 -43.6807 0 0.999391 0.034899  255 0 0 255
33.0664 1.67121 -43.8573 0 0.999391 0.034899  255 0 0 255
76.2024 0.733359 -17.0006 0 0.999391 0.034899  255 255 255 255
118.254 0.72961 -16.8933 0 0.999391 0.034899  255 255 255 255
46.204 1.22088 -30.9613 0 0.999391 0.034899  255 0 0 255
102.837 1.67393 -43.935 0 0.999391 0.034899  255 0 0 255
9.53752 1.49994 -38.9526 0 0.999391 0.034899  255 0 0 255
37.0834 1.23916 -31.485 0 0.999391 0.034899  255 0 0 255
66.6708 0.304063 -4.70722 0 0.999391 0.034899  255 255 255 255
42.3808 0.312505 -4.94897 0 0.999391 0.034899  255 255 255 255
108.566 0.299594 -4.57925 0 0.999391 0.034899  255 0 0 255
105.34 1.06955 -26.6278 0 0.999391 0.034899  255 255 255 255
135.598 0.738137 -17.1375 0 0.999391 0.034899  255 255 255 255
142.003 1.68848 -44.3516 0 0.999391 0.034899  255 0 0 255
146.198 1.06625 -26.5333 0 0.999391 0.034899  255 255 255 255
22.2802 1.06306 -26.4421 0 0.999391 0.034899  255 0 0 255
147.942 0.28601 -4.19025 0 0.999391 0.034899  255 0 0 255
20.1999 0.285868 -4.18619 0 0.999391 0.034899  255 255 255 255
87.2523 0.309503 -4.863 0 0.999391 0.034899  255 255 255 255
85.2298 0.896465 -21.6714 0 0.999391 0.034899  255 255 255 255
128.271 0.903152 -21.8629 0 0.999391 0.034899  255 255 255 255
125.13 0.302192 -4.65365 0 0.999391 0.034899  255 0 0 255
53.0065 0.728138 -16.8511 0 0.999391 0.034899  255 0 0 255
111.345 1.71027 -44.9758 0 0.999391 0.034899  255 0 0 255
31.2518 0.723432 -16.7164 0 0.999391 0.034899  255 0 0 255
125.953 1.73512 -45.6872 0 0.999391 0.034899  255 0 0 255
156.027 0.590298 -12.9039 0 0.999391 0.034899  255 255 255 255
74.2434 1.71042 -44.98 0 0.999391 0.034899  255 0 0 255
133.368 1.28851 -32.898 0 0.999391 0.034899  255 255 255 255
118.558 1.29074 -32.962 0 0.999391 0.034899  255 0 0 255
42.3048 0.670662 -15.2052 0 0.999391 0.034899  255 0 0 255
159.888 1.35034 -34.6688 0 0.999391 0.034899  255 255 255 255
76.6283 1.28425 -32.776 0 0.999391 0.034899  255 0 0 255
63.5271 1.37473 -35.3671 0 0.999391 0.034899  255 0 0 255
7.88499 0.630644 -14.0593 0 0.999391 0.034899  255 0 0 255
88.7056 1.73566 -45.7029 0 0.999391 0.034899  255 0 0 255
99.6335 1.33953 -34.3592 0 0.999391 0.034899  255 0 0 255
96.3707 0.584946 -12.7507 0 0.999391 0.034899  255 255 255 255
25.6651 1.7231 -45.343 0 0.999391 0.034899  255 0 0 255
149.654 1.74583 -45.9939 0 0.999391 0.034899  255 0 0 255
91.2318 1.29166 -32.9882 0 0.999391 0.034899  255 0 0 255
49.0116 0.28896 -4.27474 0 0.999391 0.034899  255 255 255 255
35.2358 0.280491 -4.03221 0 0.999391 0.034899  255 255 255 255
125.873 1.45317 -37.6133 0 0.999391 0.034899  255 0 0 255
12.1816 1.7546 -46.2453 0 0.999391 0.034899  255 0 0 255
102.735 0.368017 -6.53862 0 0.999391 0.034899  255 255 255 255
20.8189 1.3542 -34.7792 0 0.999391 0.034899  255 0 0 255
152.1 1.35324 -34.7517 0 0.999391 0.034899  255 255 255 255
7.36873 1.13995 -28.644 0 0.999391 0.034899  255 0 0 255
39.9244 1.75887 -46.3674 0 0.999391 0.034899  255 0 0 255
121.71 0.999707 -24.6279 0 0.999391 0.034899  255 255 255 255
160.763 1.76534 -46.5527 0 0.999391 0.034899  255 0 0 255
55.2462 0.537619 -11.3954 0 0.999391 0.034899  255 255 255 255
80.5695 0.2441 -2.9901 0 0.999391 0.034899  255 0 0 255
79.3634 1.01648 -25.1082 0 0.999391 0.034899  255 0 0 255
96.6408 1.76755 -46.6161 0 0.999391 0.034899  255 0 0 255
161.924 0.479928 -9.74333 0 0.999391 0.034899  255 255 255 255
49.1451 1.43323 -37.0423 0 0.999391 0.034899  255 0 0 255
161.268 1.0146 -25.0544 0 0.999391 0.034899  255 255 255 255
141.064 0.251768 -3.2097 0 0.999391 0.034899  255 0 0 255
28.7015 0.527538 -11.1067 0 0.999391 0.034899  255 0 0 255
67.7832 1.76983 -46.6813 0 0.999391 0.034899  255 0 0 255
47.1648 0.788835 -18.5893 0 0.999391 0.034899  255 0 0 255
61.0334 0.399017 -7.42635 0 0.999391 0.034899  255 255 255 255
16.6001 0.949673 -23.1951 0 0.999391 0.034899  255 0 0 255
152.788 0.904067 -21.8891 0 0.999391 0.034899  255 255 255 255
36.9666 0.79116 -18.6558 0 0.999391 0.034899  255 0 0 255
161.724 0.218281 -2.25074 0 0.999391 0.034899  255 0 0 255
98.8324 0.891541 -21.5304 0 0.999391 0.034899  255 255 255 255
69.5372 1.25507 -31.9405 0 0.999391 0.034899  255 0 0 255
70.4821 0.840217 -20.0607 0 0.999391 0.034899  255 0 0 255
87.8032 1.48638 -38.5645 0 0.999391 0.034899  255 0 0 255
90.9093 0.47129 -9.49598 0 0.999391 0.034899  255 255 255 255
112.645 0.832666 -19.8444 0 0.999391 0.034899  255 255 255 255
136.004 1.791 -47.2876 0 0.999391 0.034899  255 0 0 255
89.8873 1.06137 -26.3936 0 0.999391 0.034899  255 0 0 255
113.96 1.43029 -36.9582 0 0.999391 0.034899  255 0 0 255
138.602 1.43524 -37.1 0 0.999391 0.034899  255 0 0 255
131.094 0.225967 -2.47084 0 0.999391 0.034899  255 0 0 255
34.0375 1.44149 -37.279 0 0.999391 0.034899  255 0 0 255
56.4749 1.78999 -47.2587 0 0.999391 0.034899  255 0 0 255
71.756 0.593595 -12.9983 0 0.999391 0.034899  255 255 255 255
113.698 0.586084 -12.7832 0 0.999391 0.034899  255 255 255 255
117.366 1.79 -47.259 0 0.999391 0.034899  255 0 0 255
59.0009 0.929972 -22.6309 0 0.999391 0.034899  255 0 0 255
141.008 0.874623 -21.0459 0 0.999391 0.034899  255 255 255 255
131.288 1.08956 -27.2008 0 0.999391 0.034899  255 255 255 255
14.5229 0.212708 -2.09115 0 0.999391 0.034899  255 255 255 255
110.071 1.18759 -30.008 0 0.999391 0.034899  255 0 0 255
140.347 1.22799 -31.165 0 0.999391 0.034899  255 255 255 255
6.31938 0.216264 -2.193 0 0.999391 0.034899  255 0 0 255
79.3102 0.560397 -12.0477 0 0.999391 0.034899  255 255 255 255
151.202 0.426343 -8.20887 0 0.999391 0.034899  255 255 255 255
56.6466 1.15418 -29.0513 0 0.999391 0.034899  255 0 0 255
6.26562 1.68644 -44.2934 0 0.999391 0.034899  255 0 0 255
121.189 0.556365 -11.9322 0 0.999391 0.034899  255 255 255 255
36.9458 1.03167 -25.5431 0 0.999391 0.034899  255 0 0 255
24.3438 1.51099 -39.269 0 0.999391 0.034899  255 0 0 255
46.0179 1.79879 -47.5107 0 0.999391 0.034899  255 0 0 255
60.0326 0.205476 -1.88408 0 0.999391 0.034899  255 0 0 255
161.743 1.53618 -39.9906 0 0.999391 0.034899  255 255 255 255
72.1376 0.211059 -2.04394 0 0.999391 0.034899  255 0 0 255
114.187 0.211951 -2.06947 0 0.999391 0.034899  255 0 0 255
81.7205 1.39415 -35.9231 0 0.999391 0.034899  255 0 0 255
149.214 1.53801 -40.0429 0 0.999391 0.034899  255 0 0 255
138.943 0.564446 -12.1636 0 0.999391 0.034899  255 255 255 255
99.8822 0.200034 -1.72824 0 0.999391 0.034899  255 0 0 255
27.689 1.15669 -29.1232 0 0.999391 0.034899  255 0 0 255
25.7844 0.899303 -21.7527 0 0.999391 0.034899  255 0 0 255
16.3059 0.429407 -8.29659 0 0.999391 0.034899  255 0 0 255
15.2228 1.42048 -36.6772 0 0.999391 0.034899  255 0 0 255
56.0268 1.57176 -41.0093 0 0.999391 0.034899  255 0 0 255
23.981 0.415236 -7.89082 0 0.999391 0.034899  255 0 0 255
77.0201 1.49508 -38.8135 0 0.999391 0.034899  255 0 0 255
47.1119 1.00837 -24.876 0 0.999391 0.034899  255 0 0 255
80.0122 1.81234 -47.8986 0 0.999391 0.034899  255 0 0 255
19.8779 1.81215 -47.8932 0 0.999391 0.034899  255 0 0 255
92.3224 0.198618 -1.68768 0 0.999391 0.034899  255 0 0 255
133.015 0.551382 -11.7895 0 0.999391 0.034899  255 255 255 255
152.574 0.183901 -1.26625 0 0.999391 0.034899  255 0 0 255
162.402 0.67434 -15.3106 0 0.999391 0.034899  255 255 255 255
5.74806 1.33527 -34.237 0 0.999391 0.034899  255 0 0 255
65.509 0.934013 -22.7466 0 0.999391 0.034899  255 0 0 255
143.731 0.413729 -7.84765 0 0.999391 0.034899  255 255 255 255
154.945 1.80518 -47.6935 0 0.999391 0.034899  255 0 0 255
12.9675 0.72229 -16.6837 0 0.999391 0.034899  255 0 0 255
120.201 0.201702 -1.77598 0 0.999391 0.034899  255 0 0 255
124.076 0.764957 -17.9055 0 0.999391 0.034899  255 255 255 255
43.3625 0.484977 -9.88792 0 0.999391 0.034899  255 255 255 255
24.7736 0.180819 -1.17799 0 0.999391 0.034899  255 255 255 255
153.896 0.737218 -17.1112 0 0.999391 0.034899  255 255 255 255
51.4505 1.25023 -31.8018 0 0.999391 0.034899  255 0 0 255
81.6847 0.758936 -17.7331 0 0.999391 0.034899  255 255 255 255
5.52751 0.453573 -8.98862 0 0.999391 0.034899  255 0 0 255
107.591 1.57158 -41.0042 0 0.999391 0.034899  255 0 0 255
106.626 1.81895 -48.0878 0 0.999391 0.034899  255 0 0 255
100.126 0.489837 -10.0271 0 0.999391 0.034899  255 255 255 255
133.635 0.908263 -22.0093 0 0.999391 0.034899  255 255 255 255
41.6839 1.32559 -33.96 0 0.999391 0.034899  255 0 0 255
41.9348 1.10813 -27.7327 0 0.999391 0.034899  255 0 0 255
83.0397 0.416236 -7.91943 0 0.999391 0.034899  255 255 255 255
5.21538 0.798219 -18.858 0 0.999391 0.034899  255 0 0 255
99.3718 1.53274 -39.8919 0 0.999391 0.034899  255 0 0 255
53.0734 0.176596 -1.05705 0 0.999391 0.034899  255 0 0 255
88.3055 0.750018 -17.4777 0 0.999391 0.034899  255 255 255 255
108.025 0.912549 -22.132 0 0.999391 0.034899  255 255 255 255
98.0959 0.736816 -17.0997 0 0.999391 0.034899  255 255 255 255
31.0049 0.176897 -1.06566 0 0.999391 0.034899  255 0 0 255
30.2519 1.82857 -48.3635 0 0.999391 0.034899  255 0 0 255
148.18 1.23596 -31.3932 0 0.999391 0.034899  255 255 255 255
51.9332 0.417565 -7.9575 0 0.999391 0.034899  255 255 255 255
129.781 0.403621 -7.55818 0 0.999391 0.034899  255 255 255 255
130.513 1.82536 -48.2715 0 0.999391 0.034899  255 0 0 255
100.805 1.17081 -29.5277 0 0.999391 0.034899  255 0 0 255
65.8622 1.5411 -40.1313 0 0.999391 0.034899  255 0 0 255
136.554 0.184076 -1.27124 0 0.999391 0.034899  255 0 0 255
162.787 1.18982 -30.0719 0 0.999391 0.034899  255 255 255 255
12.37 0.545397 -11.6181 0 0.999391 0.034899  255 0 0 255
32.1537 0.423728 -8.13398 0 0.999391 0.034899  255 255 255 255
104.841 0.178942 -1.12423 0 0.999391 0.034899  255 0 0 255
130.43 0.74494 -17.3323 0 0.999391 0.034899  255 255 255 255
62.677 1.83635 -48.5861 0 0.999391 0.034899  255 0 0 255
29.7167 1.52422 -39.6481 0 0.999391 0.034899  255 0 0 255
93.5388 0.950357 -23.2147 0 0.999391 0.034899  255 255 255 255
68.174 0.461635 -9.21949 0 0.999391 0.034899  255 255 255 255
45.1082 0.177838 -1.09261 0 0.999391 0.034899  255 0 0 255
110.247 0.467298 -9.38165 0 0.999391 0.034899  255 255 255 255
144.878 1.83658 -48.5927 0 0.999391 0.034899  255 0 0 255
12.4665 1.05187 -26.1217 0 0.999391 0.034899  255 0 0 255
75.3534 0.912112 -22.1195 0 0.999391 0.034899  255 0 0 255
39.2258 0.172142 -0.929512 0 0.999391 0.034899  255 0 0 255
163.059 0.853623 -20.4446 0 0.999391 0.034899  255 255 255 255
46.0195 1.62145 -42.4323 0 0.999391 0.034899  255 0 0 255
32.9828 1.14604 -28.8184 0 0.999391 0.034899  255 0 0 255
117.588 0.908911 -22.0278 0 0.999391 0.034899  255 255 255 255
5.09429 0.971934 -23.8326 0 0.999391 0.034899  255 0 0 255
35.3225 1.83592 -48.5738 0 0.999391 0.034899  255 0 0 255
37.4942 1.58257 -41.3188 0 0.999391 0.034899  255 0 0 255
67.731 1.0904 -27.2249 0 0.999391 0.034899  255 0 0 255
100.717 1.82311 -48.2072 0 0.999391 0.034899  255 0 0 255
122.252 1.841 -48.7195 0 0.999391 0.034899  255 0 0 255
51.5619 1.83967 -48.6813 0 0.999391 0.034899  255 0 0 255
10.8383 1.33303 -34.173 0 0.999391 0.034899  255 0 0 255
130.704 1.42884 -36.9165 0 0.999391 0.034899  255 0 0 255
85.0852 1.84296 -48.7755 0 0.999391 0.034899  255 0 0 255
92.0239 0.620199 -13.7602 0 0.999391 0.034899  255 255 255 255
19.3477 1.18752 -30.0061 0 0.999391 0.034899  255 0 0 255
13.7636 1.5867 -41.4373 0 0.999391 0.034899  255 0 0 255
8.32104 1.8434 -48.7882 0 0.999391 0.034899  255 0 0 255
38.3772 0.391748 -7.21819 0 0.999391 0.034899  255 255 255 255
103.358 0.922379 -22.4135 0 0.999391 0.034899  255 255 255 255
60.3319 1.25093 -31.8218 0 0.999391 0.034899  255 0 0 255
156.969 0.952543 -23.2773 0 0.999391 0.034899  255 255 255 255
118.875 1.12973 -28.3512 0 0.999391 0.034899  255 255 255 255
84.6531 0.172073 -0.927538 0 0.999391 0.034899  255 0 0 255
148.023 0.914254 -22.1808 0 0.999391 0.034899  255 255 255 255
105.194 1.24614 -31.6847 0 0.999391 0.034899  255 0 0 255
4.51401 1.52085 -39.5514 0 0.999391 0.034899  255 0 0 255
144.139 1.54488 -40.2396 0 0.999391 0.034899  255 0 0 255
123.189 1.32534 -33.9529 0 0.999391 0.034899  255 0 0 255
49.4365 0.667579 -15.117 0 0.999391 0.034899  255 0 0 255
137.898 1.61061 -42.1218 0 0.999391 0.034899  255 0 0 255
140.111 1.84523 -48.8405 0 0.999391 0.034899  255 0 0 255
95.7104 1.25671 -31.9875 0 0.999391 0.034899  255 0 0 255
21.0663 0.912458 -22.1294 0 0.999391 0.034899  255 0 0 255
140.093 0.717228 -16.5387 0 0.999391 0.034899  255 255 255 255
157.298 0.161036 -0.61147 0 0.999391 0.034899  255 0 0 255
70.8101 1.64267 -43.0399 0 0.999391 0.034899  255 0 0 255
145.403 0.155784 -0.46106 0 0.999391 0.034899  255 0 0 255
150.884 1.05457 -26.1989 0 0.999391 0.034899  255 255 255 255
60.567 1.48575 -38.5464 0 0.999391 0.034899  255 0 0 255
141.55 1.02399 -25.3231 0 0.999391 0.034899  255 255 255 255
57.1438 0.797192 -18.8286 0 0.999391 0.034899  255 0 0 255
86.6479 1.32799 -34.0288 0 0.999391 0.034899  255 0 0 255
33.1418 0.855168 -20.4888 0 0.999391 0.034899  255 0 0 255
64.5828 0.157133 -0.499714 0 0.999391 0.034899  255 0 0 255
51.2279 0.853184 -20.432 0 0.999391 0.034899  255 0 0 255
128.377 1.58886 -41.499 0 0.999391 0.034899  255 0 0 255
91.994 1.85949 -49.2487 0 0.999391 0.034899  255 0 0 255
27.8362 0.675946 -15.3566 0 0.999391 0.034899  255 0 0 255
126.106 1.03826 -25.732 0 0.999391 0.034899  255 255 255 255
76.4656 1.13323 -28.4515 0 0.999391 0.034899  255 0 0 255
23.595 1.23358 -31.3252 0 0.999391 0.034899  255 0 0 255
76.509 0.164258 -0.703725 0 0.999391 0.034899  255 0 0 255
114.694 1.20431 -30.487 0 0.999391 0.034899  255 0 0 255
105.787 0.443381 -8.69678 0 0.999391 0.034899  255 255 255 255
114.471 1.59944 -41.8018 0 0.999391 0.034899  255 0 0 255
71.62 1.85024 -48.984 0 0.999391 0.034899  255 0 0 255
20.0101 0.440093 -8.6026 0 0.999391 0.034899  255 0 0 255
103.825 1.48083 -38.4053 0 0.999391 0.034899  255 0 0 255
127.019 0.162743 -0.660347 0 0.999391 0.034899  255 0 0 255
123.477 1.59426 -41.6537 0 0.999391 0.034899  255 0 0 255
34.7885 0.66407 -15.0165 0 0.999391 0.034899  255 0 0 255
83.9732 1.04256 -25.8549 0 0.999391 0.034899  255 0 0 255
56.403 0.652122 -14.6743 0 0.999391 0.034899  255 255 255 255
121.367 0.390461 -7.18133 0 0.999391 0.034899  255 255 255 255
155.981 1.26912 -32.343 0 0.999391 0.034899  255 255 255 255
46.7995 0.388442 -7.12351 0 0.999391 0.034899  255 255 255 255
113.336 1.85023 -48.9837 0 0.999391 0.034899  255 0 0 255
10.1655 0.148087 -0.240652 0 0.999391 0.034899  255 0 0 255
58.7379 0.514346 -10.7289 0 0.999391 0.034899  255 255 255 255
32.3973 1.30588 -33.3954 0 0.999391 0.034899  255 0 0 255
147.399 0.438543 -8.55823 0 0.999391 0.034899  255 255 255 255
156.195 1.42857 -36.9089 0 0.999391 0.034899  255 255 255 255
110.514 1.04141 -25.8221 0 0.999391 0.034899  255 255 255 255
18.7244 0.152519 -0.367579 0 0.999391 0.034899  255 0 0 255
125.418 0.46573 -9.33676 0 0.999391 0.034899  255 255 255 255
15.3544 1.85517 -49.1252 0 0.999391 0.034899  255 0 0 255
64.8586 1.23138 -31.262 0 0.999391 0.034899  255 0 0 255
110.215 0.155109 -0.441746 0 0.999391 0.034899  255 0 0 255
64.3852 0.449978 -8.88569 0 0.999391 0.034899  255 255 255 255
89.7048 0.886794 -21.3945 0 0.999391 0.034899  255 255 255 255
152.435 0.543702 -11.5696 0 0.999391 0.034899  255 255 255 255
38.4254 1.42028 -36.6716 0 0.999391 0.034899  255 0 0 255
72.578 1.34836 -34.6119 0 0.999391 0.034899  255 0 0 255
39.8172 0.548589 -11.7095 0 0.999391 0.034899  255 0 0 255
92.0311 0.339488 -5.72166 0 0.999391 0.034899  255 255 255 255
45.5415 0.630487 -14.0548 0 0.999391 0.034899  255 0 0 255
92.5464 1.67149 -43.8651 0 0.999391 0.034899  255 0 0 255
164.175 0.347853 -5.96121 0 0.999391 0.034899  255 0 0 255
25.032 0.52053 -10.906 0 0.999391 0.034899  255 0 0 255
70.9674 0.358214 -6.2579 0 0.999391 0.034899  255 255 255 255
112.892 0.352676 -6.09932 0 0.999391 0.034899  255 255 255 255
79.5846 0.875624 -21.0746 0 0.999391 0.034899  255 0 0 255
100.463 1.02357 -25.3114 0 0.999391 0.034899  255 255 255 255
87.1868 0.477106 -9.66251 0 0.999391 0.034899  255 255 255 255
85.9747 1.62989 -42.674 0 0.999391 0.034899  255 0 0 255
163.724 1.41421 -36.4976 0 0.999391 0.034899  255 255 255 255
120.059 1.43048 -36.9635 0 0.999391 0.034899  255 0 0 255
129.353 1.28472 -32.7895 0 0.999391 0.034899  255 255 255 255
76.4484 1.86443 -49.3904 0 0.999391 0.034899  255 0 0 255
51.8025 0.575955 -12.4932 0 0.999391 0.034899  255 255 255 255
143.673 1.18932 -30.0578 0 0.999391 0.034899  255 255 255 255
136.246 1.17679 -29.6989 0 0.999391 0.034899  255 255 255 255
53.2137 1.4781 -38.3271 0 0.999391 0.034899  255 0 0 255
44.6884 1.41389 -36.4884 0 0.999391 0.034899  255 0 0 255
163.735 1.85838 -49.2172 0 0.999391 0.034899  255 0 0 255
95.7904 1.40017 -36.0956 0 0.999391 0.034899  255 0 0 255
78.9867 0.384322 -7.00555 0 0.999391 0.034899  255 255 255 255
79.8924 1.20747 -30.5773 0 0.999391 0.034899  255 0 0 255
43.0096 0.778417 -18.291 0 0.999391 0.034899  255 0 0 255
78.2935 1.64889 -43.2179 0 0.999391 0.034899  255 0 0 255
157.204 0.475749 -9.62366 0 0.999391 0.034899  255 255 255 255
88.0064 1.19051 -30.0917 0 0.999391 0.034899  255 0 0 255
50.3812 1.09821 -27.4487 0 0.999391 0.034899  255 0 0 255
152.045 1.20979 -30.644 0 0.999391 0.034899  255 255 255 255
67.6075 1.38595 -35.6884 0 0.999391 0.034899  255 0 0 255
158.558 0.680008 -15.4729 0 0.999391 0.034899  255 255 255 255
96.0451 0.138105 0.045182 0 0.999391 0.034899  255 0 0 255
69.4795 0.699074 -16.0189 0 0.999391 0.034899  255 255 255 255
126.216 1.87211 -49.6102 0 0.999391 0.034899  255 0 0 255
23.6116 1.86987 -49.5462 0 0.999391 0.034899  255 0 0 255
34.8461 0.143861 -0.119646 0 0.999391 0.034899  255 0 0 255
49.2159 0.150906 -0.321383 0 0.999391 0.034899  255 0 0 255
27.9087 0.81063 -19.2134 0 0.999391 0.034899  255 0 0 255
16.0545 0.81385 -19.3056 0 0.999391 0.034899  255 0 0 255
159.688 0.345746 -5.90086 0 0.999391 0.034899  255 0 0 255
72.8196 1.20401 -30.4782 0 0.999391 0.034899  255 0 0 255
32.3438 0.565151 -12.1838 0 0.999391 0.034899  255 0 0 255
16.491 1.08027 -26.935 0 0.999391 0.034899  255 0 0 255
112.079 0.706853 -16.2416 0 0.999391 0.034899  255 255 255 255
4.09766 1.81918 -48.0946 0 0.999391 0.034899  255 0 0 255
120.836 1.71104 -44.9978 0 0.999391 0.034899  255 0 0 255
68.7635 0.136511 0.090823 0 0.999391 0.034899  255 0 0 255
91.8063 1.42175 -36.7135 0 0.999391 0.034899  255 0 0 255
42.4731 1.87142 -49.5905 0 0.999391 0.034899  255 0 0 255
88.6357 0.137509 0.062247 0 0.999391 0.034899  255 0 0 255
151.302 1.87831 -49.7877 0 0.999391 0.034899  255 0 0 255
145.758 1.66943 -43.8063 0 0.999391 0.034899  255 0 0 255
92.8518 1.15815 -29.165 0 0.999391 0.034899  255 0 0 255
110.789 1.32575 -33.9644 0 0.999391 0.034899  255 0 0 255
16.4318 1.71451 -45.0971 0 0.999391 0.034899  255 0 0 255
149.124 0.161109 -0.613566 0 0.999391 0.034899  255 0 0 255
163.938 1.67123 -43.8579 0 0.999391 0.034899  255 0 0 255
117.565 0.597857 -13.1204 0 0.999391 0.034899  255 255 255 255
99.5434 0.612969 -13.5531 0 0.999391 0.034899  255 255 255 255
151.543 1.63928 -42.9429 0 0.999391 0.034899  255 0 0 255
159.129 1.13282 -28.4397 0 0.999391 0.034899  255 255 255 255
4.00493 0.585617 -12.7699 0 0.999391 0.034899  255 0 0 255
94.8387 0.466911 -9.37059 0 0.999391 0.034899  255 255 255 255
29.0523 1.67659 -44.0113 0 0.999391 0.034899  255 0 0 255
75.6253 0.605596 -13.342 0 0.999391 0.034899  255 255 255 255
134.461 1.4094 -36.3598 0 0.999391 0.034899  255 0 0 255
139.85 0.431811 -8.36545 0 0.999391 0.034899  255 255 255 255
121.323 0.863324 -20.7224 0 0.999391 0.034899  255 255 255 255
22.4207 1.64921 -43.2271 0 0.999391 0.034899  255 0 0 255
56.79 0.136517 0.090666 0 0.999391 0.034899  255 0 0 255
38.3358 0.673522 -15.2871 0 0.999391 0.034899  255 0 0 255
3.98395 1.21251 -30.7219 0 0.999391 0.034899  255 0 0 255
62.5494 0.28426 -4.14015 0 0.999391 0.034899  255 255 255 255
96.9151 1.62904 -42.6497 0 0.999391 0.034899  255 0 0 255
69.6449 0.984076 -24.1802 0 0.999391 0.034899  255 0 0 255
151.427 0.306624 -4.78056 0 0.999391 0.034899  255 0 0 255
131.385 1.69448 -44.5237 0 0.999391 0.034899  255 0 0 255
9.18688 0.759029 -17.7358 0 0.999391 0.034899  255 0 0 255
122.64 1.13087 -28.384 0 0.999391 0.034899  255 255 255 255
27.3984 1.02422 -25.3298 0 0.999391 0.034899  255 0 0 255
137.153 0.854785 -20.4778 0 0.999391 0.034899  255 255 255 255
158.509 1.87248 -49.6207 0 0.999391 0.034899  255 0 0 255
38.282 0.919573 -22.3331 0 0.999391 0.034899  255 0 0 255
152.68 1.49039 -38.679 0 0.999391 0.034899  255 255 255 255
9.96286 1.63987 -42.9597 0 0.999391 0.034899  255 0 0 255
42.2041 1.64868 -43.212 0 0.999391 0.034899  255 0 0 255
4.3663 0.333804 -5.55889 0 0.999391 0.034899  255 0 0 255
24.698 1.3941 -35.9219 0 0.999391 0.034899  255 0 0 255
154.32 0.456566 -9.07433 0 0.999391 0.034899  255 255 255 255
144.31 0.932276 -22.6969 0 0.999391 0.034899  255 255 255 255
20.6548 1.48623 -38.5602 0 0.999391 0.034899  255 0 0 255
148.498 1.40129 -36.1278 0 0.999391 0.034899  255 255 255 255
103.301 1.34763 -34.591 0 0.999391 0.034899  255 0 0 255
17.1866 1.30214 -33.2885 0 0.999391 0.034899  255 0 0 255
164.364 0.550964 -11.7775 0 0.999391 0.034899  255 255 255 255
137.286 1.30185 -33.28 0 0.999391 0.034899  255 255 255 255
62.2775 0.881603 -21.2458 0 0.999391 0.034899  255 0 0 255
52.4354 0.302294 -4.65658 0 0.999391 0.034899  255 255 255 255
31.619 0.296064 -4.47815 0 0.999391 0.034899  255 255 255 255
99.4799 0.320613 -5.18116 0 0.999391 0.034899  255 255 255 255
123.369 0.134686 0.143091 0 0.999391 0.034899  255 0 0 255
164.363 0.124906 0.423159 0 0.999391 0.034899  255 0 0 255
59.2576 1.88038 -49.847 0 0.999391 0.034899  255 0 0 255
89.3137 0.571607 -12.3687 0 0.999391 0.034899  255 255 255 255
110.045 1.47132 -38.1329 0 0.999391 0.034899  255 0 0 255
158.899 1.64336 -43.0597 0 0.999391 0.034899  255 0 0 255
10.7054 1.20697 -30.5631 0 0.999391 0.034899  255 0 0 255
54.4483 0.877492 -21.1281 0 0.999391 0.034899  255 0 0 255
56.3277 1.0363 -25.6758 0 0.999391 0.034899  255 0 0 255
89.4466 1.58847 -41.488 0 0.999391 0.034899  255 0 0 255
83.6472 1.72161 -45.3005 0 0.999391 0.034899  255 0 0 255
23.4999 0.292464 -4.37508 0 0.999391 0.034899  255 255 255 255
65.4329 1.6694 -43.8053 0 0.999391 0.034899  255 0 0 255
124.475 0.931059 -22.6621 0 0.999391 0.034899  255 255 255 255
45.6501 0.905784 -21.9383 0 0.999391 0.034899  255 0 0 255
8.98687 1.01118 -24.9565 0 0.999391 0.034899  255 0 0 255
74.2609 1.58665 -41.4358 0 0.999391 0.034899  255 0 0 255
59.2928 1.37331 -35.3264 0 0.999391 0.034899  255 0 0 255
15.9805 0.550426 -11.7621 0 0.999391 0.034899  255 0 0 255
16.8401 0.302691 -4.66793 0 0.999391 0.034899  255 0 0 255
11.9391 1.8813 -49.8735 0 0.999391 0.034899  255 0 0 255
142.336 0.518002 -10.8336 0 0.999391 0.034899  255 255 255 255
48.7479 1.30819 -33.4616 0 0.999391 0.034899  255 0 0 255
66.9492 0.824089 -19.5988 0 0.999391 0.034899  255 0 0 255
114.697 0.736225 -17.0827 0 0.999391 0.034899  255 255 255 255
26.7209 0.43863 -8.56072 0 0.999391 0.034899  255 0 0 255
9.127 0.484381 -9.87085 0 0.999391 0.034899  255 0 0 255
88.5686 1.88655 -50.0237 0 0.999391 0.034899  255 0 0 255
144.468 0.292789 -4.38437 0 0.999391 0.034899  255 0 0 255
83.9532 1.49147 -38.71 0 0.999391 0.034899  255 0 0 255
103.163 0.472687 -9.53598 0 0.999391 0.034899  255 255 255 255
117.024 0.128068 0.332604 0 0.999391 0.034899  255 0 0 255
76.5218 0.289703 -4.29602 0 0.999391 0.034899  255 255 255 255
121.526 0.671714 -15.2354 0 0.999391 0.034899  255 255 255 255
36.554 1.70481 -44.8193 0 0.999391 0.034899  255 0 0 255
39.2312 1.89429 -50.2454 0 0.999391 0.034899  255 0 0 255
56.5344 0.444093 -8.71715 0 0.999391 0.034899  255 255 255 255
141.271 1.34851 -34.6163 0 0.999391 0.034899  255 255 255 255
72.7759 0.744511 -17.32 0 0.999391 0.034899  255 255 255 255
66.1828 1.89066 -50.1414 0 0.999391 0.034899  255 0 0 255
164.77 1.06489 -26.4943 0 0.999391 0.034899  255 255 255 255
52.0135 1.36011 -34.9485 0 0.999391 0.034899  255 0 0 255
81.4846 0.117293 0.641155 0 0.999391 0.034899  255 0 0 255
109.884 1.89221 -50.1858 0 0.999391 0.034899  255 0 0 255
27.8114 0.124458 0.435976 0 0.999391 0.034899  255 0 0 255
139.803 0.134334 0.153166 0 0.999391 0.034899  255 0 0 255
155.092 0.834093 -19.8853 0 0.999391 0.034899  255 255 255 255
115.227 1.31603 -33.6861 0 0.999391 0.034899  255 0 0 255
83.8713 0.294087 -4.42154 0 0.999391 0.034899  255 255 255 255
133.662 1.88902 -50.0946 0 0.999391 0.034899  255 0 0 255
132.652 0.342 -5.79361 0 0.999391 0.034899  255 0 0 255
3.65541 0.127565 0.347015 0 0.999391 0.034899  255 0 0 255
58.2402 1.67648 -44.0081 0 0.999391 0.034899  255 0 0 255
54.8188 1.6815 -44.1518 0 0.999391 0.034899  255 0 0 255
97.4675 1.89342 -50.2204 0 0.999391 0.034899  255 0 0 255
106.333 1.69316 -44.4857 0 0.999391 0.034899  255 0 0 255
49.1226 1.55887 -40.6403 0 0.999391 0.034899  255 0 0 255
59.0174 0.303583 -4.69348 0 0.999391 0.034899  255 255 255 255
152.491 0.648873 -14.5813 0 0.999391 0.034899  255 255 255 255
21.8527 0.117919 0.623252 0 0.999391 0.034899  255 0 0 255
109.229 0.792496 -18.6941 0 0.999391 0.034899  255 255 255 255
71.8314 0.46892 -9.42813 0 0.999391 0.034899  255 255 255 255
26.9518 1.89277 -50.2019 0 0.999391 0.034899  255 0 0 255
151.383 0.802029 -18.9671 0 0.999391 0.034899  255 255 255 255
117.12 0.278244 -3.96785 0 0.999391 0.034899  255 0 0 255
95.1318 0.682041 -15.5311 0 0.999391 0.034899  255 255 255 255
133.215 0.121961 0.507497 0 0.999391 0.034899  255 0 0 255
45.7257 0.288291 -4.25556 0 0.999391 0.034899  255 255 255 255
113.856 0.47377 -9.567 0 0.999391 0.034899  255 255 255 255
40.2679 1.21127 -30.6863 0 0.999391 0.034899  255 0 0 255
99.4044 1.71691 -45.166 0 0.999391 0.034899  255 0 0 255
79.2993 0.676648 -15.3767 0 0.999391 0.034899  255 255 255 255
159.271 0.561821 -12.0884 0 0.999391 0.034899  255 255 255 255
3.36019 1.09191 -27.2681 0 0.999391 0.034899  255 0 0 255
140.674 1.53171 -39.8626 0 0.999391 0.034899  255 0 0 255
78.3404 1.40116 -36.124 0 0.999391 0.034899  255 0 0 255
160.022 0.90243 -21.8422 0 0.999391 0.034899  255 255 255 255
112.535 0.963029 -23.5776 0 0.999391 0.034899  255 255 255 255
42.0596 0.12624 0.384948 0 0.999391 0.034899  255 0 0 255
48.4443 1.88975 -50.1152 0 0.999391 0.034899  255 0 0 255
138.27 0.283881 -4.1293 0 0.999391 0.034899  255 0 0 255
13.6455 0.891509 -21.5295 0 0.999391 0.034899  255 0 0 255
95.634 0.863168 -20.7179 0 0.999391 0.034899  255 255 255 255
30.0998 0.881527 -21.2436 0 0.999391 0.034899  255 0 0 255
82.1304 0.944169 -23.0374 0 0.999391 0.034899  255 0 0 255
135.834 0.614278 -13.5906 0 0.999391 0.034899  255 255 255 255
110.85 1.58873 -41.4953 0 0.999391 0.034899  255 0 0 255
80.2249 1.49605 -38.8412 0 0.999391 0.034899  255 0 0 255
61.6494 0.487176 -9.95089 0 0.999391 0.034899  255 255 255 255
40.0142 0.752704 -17.5546 0 0.999391 0.034899  255 0 0 255
7.43907 0.328252 -5.3999 0 0.999391 0.034899  255 0 0 255
158.448 1.51559 -39.4009 0 0.999391 0.034899  255 255 255 255
164.75 0.753824 -17.5867 0 0.999391 0.034899  255 255 255 255
105.013 0.288653 -4.26594 0 0.999391 0.034899  255 0 0 255
54.7491 1.8922 -50.1854 0 0.999391 0.034899  255 0 0 255
164.895 1.30851 -33.4708 0 0.999391 0.034899  255 255 255 255
103.768 1.90099 -50.4371 0 0.999391 0.034899  255 0 0 255
101.49 0.834188 -19.888 0 0.999391 0.034899  255 255 255 255
86.94 1.00962 -24.9117 0 0.999391 0.034899  255 0 0 255
117.184 1.46848 -38.0519 0 0.999391 0.034899  255 0 0 255
96.8617 0.986437 -24.2479 0 0.999391 0.034899  255 255 255 255
19.2421 1.01832 -25.161 0 0.999391 0.034899  255 0 0 255
126.141 1.33848 -34.3289 0 0.999391 0.034899  255 0 0 255
34.5429 0.958355 -23.4437 0 0.999391 0.034899  255 0 0 255
59.5752 1.04345 -25.8805 0 0.999391 0.034899  255 0 0 255
68.3646 0.588483 -12.852 0 0.999391 0.034899  255 255 255 255
119.138 1.89373 -50.2292 0 0.999391 0.034899  255 0 0 255
22.3025 0.488429 -9.98677 0 0.999391 0.034899  255 0 0 255
116.877 1.66922 -43.8003 0 0.999391 0.034899  255 0 0 255
85.0822 0.785602 -18.4967 0 0.999391 0.034899  255 255 255 255
110.241 0.586593 -12.7978 0 0.999391 0.034899  255 255 255 255
147.89 1.89399 -50.2369 0 0.999391 0.034899  255 0 0 255
164.638 0.958436 -23.446 0 0.999391 0.034899  255 255 255 255
3.30356 0.698941 -16.0151 0 0.999391 0.034899  255 0 0 255
134.024 1.02354 -25.3102 0 0.999391 0.034899  255 255 255 255
136.409 0.503385 -10.4151 0 0.999391 0.034899  255 255 255 255
53.7881 1.09426 -27.3354 0 0.999391 0.034899  255 0 0 255
127.474 0.786707 -18.5284 0 0.999391 0.034899  255 255 255 255
34.9331 0.385608 -7.04236 0 0.999391 0.034899  255 255 255 255
131.08 0.972442 -23.8471 0 0.999391 0.034899  255 255 255 255
160.483 0.108912 0.881169 0 0.999391 0.034899  255 0 0 255
43.8264 1.0139 -25.0342 0 0.999391 0.034899  255 0 0 255
134.917 1.6669 -43.7337 0 0.999391 0.034899  255 0 0 255
102.003 0.114222 0.729115 0 0.999391 0.034899  255 0 0 255
128.506 0.29312 -4.39385 0 0.999391 0.034899  255 0 0 255
139.869 1.12749 -28.287 0 0.999391 0.034899  255 255 255 255
138.346 1.70731 -44.8911 0 0.999391 0.034899  255 0 0 255
54.9742 1.25504 -31.9396 0 0.999391 0.034899  255 0 0 255
30.7711 1.43758 -37.167 0 0.999391 0.034899  255 0 0 255
82.8875 0.532533 -11.2498 0 0.999391 0.034899  255 255 255 255
136.621 1.89727 -50.3308 0 0.999391 0.034899  255 0 0 255
3.18271 1.42123 -36.6987 0 0.999391 0.034899  255 0 0 255
29.2884 1.25714 -31.9999 0 0.999391 0.034899  255 0 0 255
129.72 0.520817 -10.9142 0 0.999391 0.034899  255 255 255 255
32.9309 1.5467 -40.2917 0 0.999391 0.034899  255 0 0 255
132.959 0.676119 -15.3615 0 0.999391 0.034899  255 255 255 255
13.7853 0.321584 -5.20897 0 0.999391 0.034899  255 0 0 255
38.185 0.283656 -4.12283 0 0.999391 0.034899  255 255 255 255
117.746 1.02612 -25.3842 0 0.999391 0.034899  255 255 255 255
97.111 0.24171 -2.92168 0 0.999391 0.034899  255 0 0 255
102.314 0.25814 -3.39217 0 0.999391 0.034899  255 0 0 255
49.9371 0.945727 -23.0821 0 0.999391 0.034899  255 0 0 255
25.8236 1.62516 -42.5384 0 0.999391 0.034899  255 0 0 255
62.8013 0.990287 -24.3581 0 0.999391 0.034899  255 0 0 255
40.2984 1.01313 -25.0122 0 0.999391 0.034899  255 0 0 255
156.113 1.69881 -44.6476 0 0.999391 0.034899  255 0 0 255
154.165 1.00812 -24.8689 0 0.999391 0.034899  255 255 255 255
75.8208 1.02403 -25.3245 0 0.999391 0.034899  255 0 0 255
57.3367 1.45793 -37.7497 0 0.999391 0.034899  255 0 0 255
36.0395 1.34993 -34.657 0 0.999391 0.034899  255 0 0 255
97.5102 0.436524 -8.5004 0 0.999391 0.034899  255 255 255 255
73.9191 1.4449 -37.3764 0 0.999391 0.034899  255 0 0 255
157.723 0.26386 -3.55598 0 0.999391 0.034899  255 0 0 255
121.16 1.23235 -31.2899 0 0.999391 0.034899  255 255 255 255
49.1972 1.76443 -46.5266 0 0.999391 0.034899  255 0 0 255
3.35878 1.633 -42.7631 0 0.999391 0.034899  255 0 0 255
131.565 1.20212 -30.4243 0 0.999391 0.034899  255 255 255 255
161.209 0.763538 -17.8649 0 0.999391 0.034899  255 255 255 255
150.1 0.521942 -10.9465 0 0.999391 0.034899  255 255 255 255
35.7372 1.13274 -28.4374 0 0.999391 0.034899  255 0 0 255
82.1574 1.90251 -50.4807 0 0.999391 0.034899  255 0 0 255
32.6845 1.91132 -50.733 0 0.999391 0.034899  255 0 0 255
3.1936 0.883983 -21.314 0 0.999391 0.034899  255 0 0 255
60.1071 1.7579 -46.3396 0 0.999391 0.034899  255 0 0 255
74.0309 0.116178 0.673085 0 0.999391 0.034899  255 0 0 255
114.23 1.73608 -45.7147 0 0.999391 0.034899  255 0 0 255
45.1262 1.10295 -27.5845 0 0.999391 0.034899  255 0 0 255
82.3956 0.648655 -14.575 0 0.999391 0.034899  255 255 255 255
128.222 1.11868 -28.0349 0 0.999391 0.034899  255 255 255 255
143.656 0.826809 -19.6767 0 0.999391 0.034899  255 255 255 255
30.1105 0.627335 -13.9645 0 0.999391 0.034899  255 0 0 255
27.0427 1.46515 -37.9565 0 0.999391 0.034899  255 0 0 255
76.5165 0.502032 -10.3763 0 0.999391 0.034899  255 255 255 255
107.403 1.15237 -28.9995 0 0.999391 0.034899  255 0 0 255
81.0993 1.1121 -27.8464 0 0.999391 0.034899  255 0 0 255
165.145 0.250265 -3.16666 0 0.999391 0.034899  255 0 0 255
123.912 0.606989 -13.3819 0 0.999391 0.034899  255 255 255 255
41.3416 0.419456 -8.01164 0 0.999391 0.034899  255 255 255 255
133.362 0.795639 -18.7841 0 0.999391 0.034899  255 255 255 255
138.865 0.949007 -23.176 0 0.999391 0.034899  255 255 255 255
108.077 1.26696 -32.281 0 0.999391 0.034899  255 0 0 255
7.33567 0.112048 0.791373 0 0.999391 0.034899  255 0 0 255
9.93055 0.264459 -3.57312 0 0.999391 0.034899  255 0 0 255
15.5139 0.661637 -14.9468 0 0.999391 0.034899  255 0 0 255
122.637 1.49299 -38.7537 0 0.999391 0.034899  255 0 0 255
89.3757 0.394908 -7.30868 0 0.999391 0.034899  255 255 255 255
13.1267 0.434602 -8.44538 0 0.999391 0.034899  255 0 0 255
15.578 0.101897 1.08205 0 0.999391 0.034899  255 0 0 255
130.273 0.114371 0.724847 0 0.999391 0.034899  255 0 0 255
118.686 0.488359 -9.98478 0 0.999391 0.034899  255 255 255 255
7.68345 1.24288 -31.5913 0 0.999391 0.034899  255 0 0 255
81.8858 1.28096 -32.6819 0 0.999391 0.034899  255 0 0 255
113.116 0.107867 0.911104 0 0.999391 0.034899  255 0 0 255
27.4576 0.229484 -2.57157 0 0.999391 0.034899  255 255 255 255
50.4086 0.761213 -17.7983 0 0.999391 0.034899  255 0 0 255
17.5014 1.49755 -38.8843 0 0.999391 0.034899  255 0 0 255
30.107 1.08987 -27.2099 0 0.999391 0.034899  255 0 0 255
42.8952 1.75971 -46.3915 0 0.999391 0.034899  255 0 0 255
105.597 0.854218 -20.4616 0 0.999391 0.034899  255 255 255 255
72.3179 0.930847 -22.656 0 0.999391 0.034899  255 0 0 255
107.489 0.102042 1.07791 0 0.999391 0.034899  255 0 0 255
97.9601 1.18512 -29.9374 0 0.999391 0.034899  255 0 0 255
23.458 0.838514 -20.0119 0 0.999391 0.034899  255 0 0 255
93.4137 1.05681 -26.263 0 0.999391 0.034899  255 0 0 255
46.3336 1.51205 -39.2994 0 0.999391 0.034899  255 0 0 255
164.91 1.50581 -39.1207 0 0.999391 0.034899  255 255 255 255
141.363 0.339588 -5.72453 0 0.999391 0.034899  255 0 0 255
149.08 1.12879 -28.3242 0 0.999391 0.034899  255 255 255 255
103.62 1.78389 -47.0839 0 0.999391 0.034899  255 0 0 255
112.499 1.11914 -28.0479 0 0.999391 0.034899  255 255 255 255
152.495 1.74 -45.8271 0 0.999391 0.034899  255 0 0 255
26.0136 1.27475 -32.5041 0 0.999391 0.034899  255 0 0 255
154.832 0.106747 0.94317 0 0.999391 0.034899  255 0 0 255
6.61603 1.44787 -37.4615 0 0.999391 0.034899  255 0 0 255
53.0605 1.58116 -41.2785 0 0.999391 0.034899  255 0 0 255
57.0778 0.233463 -2.68549 0 0.999391 0.034899  255 255 255 255
38.7049 1.1168 -27.9809 0 0.999391 0.034899  255 0 0 255
141.562 0.630166 -14.0456 0 0.999391 0.034899  255 255 255 255
61.8443 0.1074 0.924477 0 0.999391 0.034899  255 0 0 255
11.0548 0.639668 -14.3177 0 0.999391 0.034899  255 0 0 255
13.9253 1.31988 -33.7964 0 0.999391 0.034899  255 0 0 255
45.0503 0.72018 -16.6232 0 0.999391 0.034899  255 0 0 255
71.5182 1.74612 -46.0022 0 0.999391 0.034899  255 0 0 255
33.6752 0.764983 -17.9062 0 0.999391 0.034899  255 0 0 255
86.1236 1.1103 -27.7948 0 0.999391 0.034899  255 0 0 255
142.764 0.105845 0.968983 0 0.999391 0.034899  255 0 0 255
49.091 0.438436 -8.55516 0 0.999391 0.034899  255 255 255 255
59.9478 0.818088 -19.427 0 0.999391 0.034899  255 0 0 255
54.1107 0.635533 -14.1993 0 0.999391 0.034899  255 0 0 255
12.061 1.43752 -37.1651 0 0.999391 0.034899  255 0 0 255
158.924 1.24097 -31.5368 0 0.999391 0.034899  255 255 255 255
101.149 1.44157 -37.2811 0 0.999391 0.034899  255 0 0 255
7.01633 0.892357 -21.5538 0 0.999391 0.034899  255 0 0 255
59.7746 1.15726 -29.1397 0 0.999391 0.034899  255 0 0 255
18.3639 1.90465 -50.5421 0 0.999391 0.034899  255 0 0 255
25.7935 0.602082 -13.2414 0 0.999391 0.034899  255 0 0 255
145.168 0.501132 -10.3505 0 0.999391 0.034899  255 255 255 255
164.869 0.451578 -8.93151 0 0.999391 0.034899  255 255 255 255
122.085 0.285089 -4.16389 0 0.999391 0.034899  255 0 0 255
104.697 1.58738 -41.4566 0 0.999391 0.034899  255 0 0 255
153.24 0.371454 -6.63704 0 0.999391 0.034899  255 0 0 255
154.183 0.282331 -4.08489 0 0.999391 0.034899  255 0 0 255
23.5619 0.970128 -23.7808 0 0.999391 0.034899  255 0 0 255
149.172 0.368798 -6.56099 0 0.999391 0.034899  255 0 0 255
24.7677 1.13028 -28.3669 0 0.999391 0.034899  255 0 0 255
69.3247 0.255369 -3.3128 0 0.999391 0.034899  255 255 255 255
133.553 0.446172 -8.77669 0 0.999391 0.034899  255 255 255 255
142.524 1.90601 -50.5809 0 0.999391 0.034899  255 0 0 255
18.9591 0.84725 -20.2621 0 0.999391 0.034899  255 0 0 255
111.368 0.258409 -3.39986 0 0.999391 0.034899  255 0 0 255
135.343 0.281458 -4.05989 0 0.999391 0.034899  255 0 0 255
91.4776 0.715911 -16.501 0 0.999391 0.034899  255 255 255 255
9.17798 1.7418 -45.8786 0 0.999391 0.034899  255 0 0 255
44.6652 1.30839 -33.4673 0 0.999391 0.034899  255 0 0 255
135.66 1.52366 -39.6319 0 0.999391 0.034899  255 0 0 255
45.3532 1.90663 -50.5986 0 0.999391 0.034899  255 0 0 255
80.5705 1.69715 -44.6001 0 0.999391 0.034899  255 0 0 255
148.699 1.63886 -42.9308 0 0.999391 0.034899  255 0 0 255
5.63887 1.90583 -50.5759 0 0.999391 0.034899  255 0 0 255
116.079 1.90558 -50.5685 0 0.999391 0.034899  255 0 0 255
77.6279 1.74823 -46.0629 0 0.999391 0.034899  255 0 0 255
70.4645 1.13009 -28.3617 0 0.999391 0.034899  255 0 0 255
146.23 1.46986 -38.0914 0 0.999391 0.034899  255 0 0 255
155.947 0.669786 -15.1802 0 0.999391 0.034899  255 255 255 255
21.5986 0.374238 -6.71678 0 0.999391 0.034899  255 0 0 255
94.2114 0.276791 -3.92626 0 0.999391 0.034899  255 0 0 255
142.366 1.44414 -37.3547 0 0.999391 0.034899  255 0 0 255
43.2014 1.2004 -30.375 0 0.999391 0.034899  255 0 0 255
45.7299 0.52717 -11.0962 0 0.999391 0.034899  255 255 255 255
19.7302 1.69806 -44.6259 0 0.999391 0.034899  255 0 0 255
32.8626 1.77302 -46.7728 0 0.999391 0.034899  255 0 0 255
68.8998 1.56195 -40.7283 0 0.999391 0.034899  255 0 0 255
153.84 1.91581 -50.8616 0 0.999391 0.034899  255 0 0 255
22.4273 1.75359 -46.2162 0 0.999391 0.034899  255 0 0 255
48.6924 1.19746 -30.2909 0 0.999391 0.034899  255 0 0 255
58.2836 0.599207 -13.159 0 0.999391 0.034899  255 255 255 255
7.43255 1.57711 -41.1624 0 0.999391 0.034899  255 0 0 255
63.3929 1.47908 -38.3554 0 0.999391 0.034899  255 0 0 255
160.682 1.44736 -37.4471 0 0.999391 0.034899  255 255 255 255
73.5711 0.304903 -4.73127 0 0.999391 0.034899  255 255 255 255
29.5704 0.445714 -8.76357 0 0.999391 0.034899  255 0 0 255
25.7077 0.355895 -6.19149 0 0.999391 0.034899  255 255 255 255
143.265 1.29062 -32.9587 0 0.999391 0.034899  255 255 255 255
130.174 0.635046 -14.1853 0 0.999391 0.034899  255 255 255 255
79.0768 1.90864 -50.6562 0 0.999391 0.034899  255 0 0 255
57.7125 1.28712 -32.8583 0 0.999391 0.034899  255 0 0 255
151.658 0.096912 1.22481 0 0.999391 0.034899  255 0 0 255
115.381 0.830866 -19.7929 0 0.999391 0.034899  255 255 255 255
101.751 1.2664 -32.265 0 0.999391 0.034899  255 0 0 255
90.0952 0.26381 -3.55454 0 0.999391 0.034899  255 0 0 255
25.8703 0.724726 -16.7534 0 0.999391 0.034899  255 0 0 255
68.8961 1.92068 -51.0009 0 0.999391 0.034899  255 0 0 255
22.0521 0.215591 -2.17372 0 0.999391 0.034899  255 255 255 255
2.88106 0.227774 -2.5226 0 0.999391 0.034899  255 0 0 255
164.976 1.76623 -46.5781 0 0.999391 0.034899  255 0 0 255
126.168 0.698137 -15.992 0 0.999391 0.034899  255 255 255 255
98.7436 0.101831 1.08394 0 0.999391 0.034899  255 0 0 255
