ply
format ascii 1.0
comment VCGLIB generated
element vertex 964
property float x
property float y
property float z
property float nx
property float ny
property float nz
property uchar red
property uchar green
property uchar blue
property uchar alpha
element face 0
property list uchar int vertex_indices
end_header
2.63366 0 2.5408 0 1 0  255 0 0 255
-2.63366 0 2.5408 0 1 0  255 0 0 255
19.3242 0 1.49337 0 1 0  255 0 0 255
-19.3242 0 1.49337 0 1 0  255 0 0 255
24.1218 0 1.53711 0 1 0  255 0 0 255
-24.1218 0 1.53711 0 1 0  255 0 0 255
-21.0594 0 1.52595 0 1 0  255 0 0 255
21.0594 0 1.52595 0 1 0  255 0 0 255
21.4455 0 2.55227 0 1 0  255 0 0 255
-21.4455 0 2.55227 0 1 0  255 0 0 255
-3.12264 0 1.54013 0 1 0  255 255 255 255
3.12264 0 1.54013 0 1 0  255 0 0 255
-5.36959 0 1.53889 0 1 0  255 255 255 255
5.36959 0 1.53889 0 1 0  255 0 0 255
22.587 0 0.476659 0 1 0  255 0 0 255
-22.587 0 0.476659 0 1 0  255 0 0 255
-7.54599 0 1.59529 0 1 0  255 255 255 255
7.54599 0 1.59529 0 1 0  255 0 0 255
23.6945 0 2.53989 0 1 0  255 0 0 255
-23.6945 0 2.53989 0 1 0  255 0 0 255
-18.1482 0 1.476 0 1 0  255 0 0 255
18.1482 0 1.476 0 1 0  255 0 0 255
16.3612 0 1.53095 0 1 0  255 0 0 255
-16.3612 0 1.53095 0 1 0  255 0 0 255
-26.2747 0 1.51986 0 1 0  255 0 0 255
26.2747 0 1.51986 0 1 0  255 0 0 255
-0.705606 0 1.46939 0 1 0  255 0 0 255
0.705606 0 1.46939 0 1 0  255 0 0 255
-17.5693 0 1.46064 0 1 0  255 0 0 255
17.5693 0 1.46064 0 1 0  255 0 0 255
17.6721 0 2.50012 0 1 0  255 0 0 255
-17.6721 0 2.50012 0 1 0  255 0 0 255
9.40594 0 2.56525 0 1 0  255 0 0 255
-9.40594 0 2.56525 0 1 0  255 255 255 255
16.035 0 0.552815 0 1 0  255 0 0 255
-16.035 0 0.552815 0 1 0  255 0 0 255
12.5016 0 0.419754 0 1 0  255 0 0 255
-12.5016 0 0.419754 0 1 0  255 0 0 255
-19.7252 0 0.422589 0 1 0  255 0 0 255
19.7252 0 0.422589 0 1 0  255 0 0 255
-17.776 0 0.459534 0 1 0  255 0 0 255
17.776 0 0.459534 0 1 0  255 0 0 255
14.1506 0 1.53306 0 1 0  255 0 0 255
-14.1506 0 1.53306 0 1 0  255 0 0 255
-27.4469 0 1.50834 0 1 0  255 0 0 255
27.4469 0 1.50834 0 1 0  255 0 0 255
-27.4653 0 2.57866 0 1 0  255 0 0 255
27.4653 0 2.57866 0 1 0  255 0 0 255
10.4841 0 0.419509 0 1 0  255 0 0 255
-10.4841 0 0.419509 0 1 0  255 0 0 255
-9.51451 0 1.50542 0 1 0  255 255 255 255
9.51451 0 1.50542 0 1 0  255 0 0 255
-29.5949 0 0.479596 0 1 0  255 0 0 255
29.5949 0 0.479596 0 1 0  255 0 0 255
-27.628 0 0.467427 0 1 0  255 0 0 255
27.628 0 0.467427 0 1 0  255 0 0 255
19.8829 0 1.45295 0 1 0  255 0 0 255
-19.8829 0 1.45295 0 1 0  255 0 0 255
-29.578 0 2.56448 0 1 0  255 0 0 255
29.578 0 2.56448 0 1 0  255 0 0 255
25.14 0 1.10414 0 1 0  255 0 0 255
-25.14 0 1.10414 0 1 0  255 0 0 255
-11.0306 0 0.476562 0 1 0  255 0 0 255
11.0306 0 0.476562 0 1 0  255 0 0 255
29.0259 0 0.416967 0 1 0  255 0 0 255
-29.0259 0 0.416967 0 1 0  255 0 0 255
28.1093 0 1.51273 0 1 0  255 0 0 255
-28.1093 0 1.51273 0 1 0  255 0 0 255
28.9948 0 2.61476 0 1 0  255 0 0 255
-28.9948 0 2.61476 0 1 0  255 0 0 255
-24.0712 0 0.518497 0 1 0  255 0 0 255
24.0712 0 0.518497 0 1 0  255 0 0 255
21.1561 0 0.424946 0 1 0  255 0 0 255
-21.1561 0 0.424946 0 1 0  255 0 0 255
-11.9604 0 -0.347884 0 1 0  255 0 0 255
11.9604 0 -0.347884 0 1 0  255 0 0 255
18.2656 0 -0.347884 0 1 0  255 0 0 255
-18.2656 0 -0.347884 0 1 0  255 0 0 255
8.98635 0 0.426576 0 1 0  255 0 0 255
-8.98635 0 0.426576 0 1 0  255 0 0 255
8.79633 0 1.51769 0 1 0  255 0 0 255
-8.79633 0 1.51769 0 1 0  255 255 255 255
12.4057 0 2.59532 0 1 0  255 0 0 255
-12.4057 0 2.59532 0 1 0  255 255 255 255
12.0006 0 0.489299 0 1 0  255 0 0 255
-12.0006 0 0.489299 0 1 0  255 0 0 255
10.8696 0 2.5843 0 1 0  255 0 0 255
-10.8696 0 2.5843 0 1 0  255 255 255 255
25.7523 0 2.55757 0 1 0  255 0 0 255
-25.7523 0 2.55757 0 1 0  255 0 0 255
-13.491 0 1.53904 0 1 0  255 0 0 255
13.491 0 1.53904 0 1 0  255 0 0 255
-19.0633 0 1.0379 0 1 0  255 0 0 255
19.0633 0 1.0379 0 1 0  255 0 0 255
-13.8982 0 0.491522 0 1 0  255 0 0 255
13.8982 0 0.491522 0 1 0  255 0 0 255
2.51867 0 0.522331 0 1 0  255 0 0 255
-2.51867 0 0.522331 0 1 0  255 0 0 255
4.76585 0 0.522972 0 1 0  255 0 0 255
-4.76585 0 0.522972 0 1 0  255 0 0 255
-7.02558 0 0.529409 0 1 0  255 0 0 255
7.02558 0 0.529409 0 1 0  255 0 0 255
13.9208 0 2.63916 0 1 0  255 0 0 255
-13.9208 0 2.63916 0 1 0  255 255 255 255
15.769 0 2.49452 0 1 0  255 0 0 255
-15.769 0 2.49452 0 1 0  255 255 255 255
-28.0145 0 2.54074 0 1 0  255 0 0 255
28.0145 0 2.54074 0 1 0  255 0 0 255
-11.224 0 1.02439 0 1 0  255 0 0 255
11.224 0 1.02439 0 1 0  255 0 0 255
-23.5005 0 0.474489 0 1 0  255 0 0 255
23.5005 0 0.474489 0 1 0  255 0 0 255
21.6732 0 0.480027 0 1 0  255 0 0 255
-21.6732 0 0.480027 0 1 0  255 0 0 255
0.473806 0 2.57235 0 1 0  255 255 255 255
-0.473806 0 2.57235 0 1 0  255 0 0 255
-11.7752 0 1.01396 0 1 0  255 0 0 255
11.7752 0 1.01396 0 1 0  255 0 0 255
-29.722 0 2.10523 0 1 0  255 0 0 255
29.722 0 2.10523 0 1 0  255 0 0 255
19.0581 0 1.94957 0 1 0  255 0 0 255
-19.0581 0 1.94957 0 1 0  255 0 0 255
15.5659 0 0.46339 0 1 0  255 0 0 255
-15.5659 0 0.46339 0 1 0  255 0 0 255
29.7128 0 0.953642 0 1 0  255 0 0 255
-29.7128 0 0.953642 0 1 0  255 0 0 255
7.5361 0 0.443832 0 1 0  255 0 0 255
-7.5361 0 0.443832 0 1 0  255 0 0 255
-2.9999 0 0.442507 0 1 0  255 0 0 255
2.9999 0 0.442507 0 1 0  255 0 0 255
-5.2469 0 0.442178 0 1 0  255 0 0 255
5.2469 0 0.442178 0 1 0  255 0 0 255
-26.4815 0 1.04466 0 1 0  255 0 0 255
26.4815 0 1.04466 0 1 0  255 0 0 255
-17.4058 0 1.95038 0 1 0  255 0 0 255
17.4058 0 1.95038 0 1 0  255 0 0 255
-24.4215 0 1.06104 0 1 0  255 0 0 255
24.4215 0 1.06104 0 1 0  255 0 0 255
22.5825 0 1.12239 0 1 0  255 0 0 255
-22.5825 0 1.12239 0 1 0  255 0 0 255
30.099 -30.4077 1.52893 1 0 0  255 0 0 255
30.099 -1.49332 1.524 1 0 0  255 0 0 255
30.099 -20.0327 1.524 1 0 0  255 0 0 255
30.099 -10.962 1.55622 1 0 0  255 0 0 255
30.099 -17.2353 1.63413 1 0 0  255 0 0 255
30.099 -22.251 1.60622 1 0 0  255 0 0 255
30.099 -4.15774 1.524 1 0 0  255 0 0 255
30.099 -13.3351 1.52899 1 0 0  255 0 0 255
30.099 -7.1939 1.52258 1 0 0  255 0 0 255
30.099 -24.5188 1.44178 1 0 0  255 0 0 255
30.099 -26.8363 1.524 1 0 0  255 0 0 255
30.099 -8.74096 1.524 1 0 0  255 0 0 255
30.099 -14.7886 1.524 1 0 0  255 0 0 255
30.099 -28.0772 1.52457 1 0 0  255 0 0 255
30.099 -18.5292 1.47841 1 0 0  255 0 0 255
30.099 -5.66964 1.48419 1 0 0  255 0 0 255
30.099 -2.81691 1.26631 1 0 0  255 0 0 255
30.099 -23.4345 1.86415 1 0 0  255 0 0 255
30.099 -12.0952 1.86415 1 0 0  255 0 0 255
30.099 -25.7024 1.18385 1 0 0  255 0 0 255
30.099 -21.1667 1.18385 1 0 0  255 0 0 255
30.099 -9.82996 1.99421 1 0 0  255 0 0 255
30.099 -15.8798 1.99352 1 0 0  255 0 0 255
30.099 -29.3255 1.01007 1 0 0  255 0 0 255
30.099 -0.933577 2.11312 1 0 0  255 0 0 255
30.099 -0.868575 0.990248 1 0 0  255 0 0 255
30.099 -30.8522 0.932618 1 0 0  255 0 0 255
30.099 -30.7918 2.09845 1 0 0  255 0 0 255
30.099 -29.2646 2.05387 1 0 0  255 0 0 255
30.099 -10.1593 0.936873 1 0 0  255 0 0 255
30.099 -16.2069 0.936873 1 0 0  255 0 0 255
30.099 -23.0961 0.932076 1 0 0  255 0 0 255
30.099 -20.8283 2.11592 1 0 0  255 0 0 255
30.099 -11.7569 0.932076 1 0 0  255 0 0 255
30.099 -25.364 2.11592 1 0 0  255 0 0 255
30.099 -19.2521 2.12704 1 0 0  255 0 0 255
30.099 -17.7895 2.12704 1 0 0  255 0 0 255
30.099 -4.93834 2.12704 1 0 0  255 0 0 255
30.099 -6.40095 2.12704 1 0 0  255 0 0 255
30.099 -7.96126 2.12771 1 0 0  255 0 0 255
30.099 -7.96126 0.920292 1 0 0  255 0 0 255
30.099 -27.616 0.920292 1 0 0  255 0 0 255
30.099 -14.0089 0.920292 1 0 0  255 0 0 255
30.099 -27.6359 2.11621 1 0 0  255 0 0 255
30.099 -14.0089 2.12771 1 0 0  255 0 0 255
30.099 -3.44603 2.21927 1 0 0  255 0 0 255
30.099 -19.3001 0.896839 1 0 0  255 0 0 255
30.099 -4.89474 0.880737 1 0 0  255 0 0 255
30.099 -6.44906 0.877616 1 0 0  255 0 0 255
30.099 -17.8111 0.860098 1 0 0  255 0 0 255
30.099 -2.20089 2.06493 1 0 0  255 0 0 255
30.099 -23.9798 0.86112 1 0 0  255 0 0 255
30.099 -12.6495 0.861361 1 0 0  255 0 0 255
30.099 -21.712 2.18688 1 0 0  255 0 0 255
30.099 -26.2538 2.18685 1 0 0  255 0 0 255
30.099 -3.51473 0.826303 1 0 0  255 0 0 255
30.099 -2.11318 0.896106 1 0 0  255 0 0 255
30.099 -15.3335 0.854383 1 0 0  255 0 0 255
30.099 -9.28592 0.854383 1 0 0  255 0 0 255
30.099 -22.7285 2.21624 1 0 0  255 0 0 255
30.099 -24.1451 2.20307 1 0 0  255 0 0 255
30.099 -11.3668 2.2323 1 0 0  255 0 0 255
30.099 -12.811 2.19959 1 0 0  255 0 0 255
30.099 -25.0235 0.844676 1 0 0  255 0 0 255
30.099 -20.4595 0.838503 1 0 0  255 0 0 255
30.099 -21.8772 0.844927 1 0 0  255 0 0 255
30.099 -26.4308 0.815701 1 0 0  255 0 0 255
30.099 -15.1709 2.23893 1 0 0  255 0 0 255
30.099 -9.12329 2.23893 1 0 0  255 0 0 255
30.099 -16.5989 2.20982 1 0 0  255 0 0 255
30.099 -10.9611 0.924311 1 0 0  255 0 0 255
30.099 -20.0206 2.30437 1 0 0  255 0 0 255
30.099 -7.18158 2.36655 1 0 0  255 0 0 255
30.099 -10.5652 2.24645 1 0 0  255 0 0 255
30.099 -4.258 2.40963 1 0 0  255 0 0 255
30.099 -28.4057 2.32354 1 0 0  255 0 0 255
30.099 -28.3997 0.726339 1 0 0  255 0 0 255
30.099 -29.9585 2.30501 1 0 0  255 0 0 255
30.099 -16.9444 0.82535 1 0 0  255 0 0 255
30.099 -30.1387 0.796927 1 0 0  255 0 0 255
30.099 -7.28627 0.641201 1 0 0  255 0 0 255
30.099 -18.5288 0.665051 1 0 0  255 0 0 255
30.099 -5.66964 0.683783 1 0 0  255 0 0 255
30.099 -0.570892 1.53191 1 0 0  255 0 0 255
30.099 -31.193 1.52228 1 0 0  255 0 0 255
30.099 -18.5213 2.40258 1 0 0  255 0 0 255
30.099 -5.66964 2.41414 1 0 0  255 0 0 255
30.099 -1.54275 2.32383 1 0 0  255 0 0 255
30.099 -27.0644 2.30175 1 0 0  255 0 0 255
30.099 -13.3605 0.648196 1 0 0  255 0 0 255
30.099 -14.6601 0.642628 1 0 0  255 0 0 255
30.099 -8.61247 0.642628 1 0 0  255 0 0 255
30.099 -4.20706 0.641189 1 0 0  255 0 0 255
30.099 -2.73937 0.638092 1 0 0  255 0 0 255
30.099 -1.40453 0.60599 1 0 0  255 0 0 255
30.099 -24.7429 2.28352 1 0 0  255 0 0 255
30.099 -22.475 0.764478 1 0 0  255 0 0 255
30.099 -2.64197 2.47305 1 0 0  255 0 0 255
30.099 -3.42828 1.50661 1 0 0  255 0 0 255
30.099 -13.4331 2.43624 1 0 0  255 0 0 255
30.099 -27.0247 0.607138 1 0 0  255 0 0 255
30.099 -8.52499 2.44197 1 0 0  255 0 0 255
30.099 -14.5726 2.44197 1 0 0  255 0 0 255
30.099 -17.2317 2.43165 1 0 0  255 0 0 255
30.099 -9.52098 1.50026 1 0 0  255 0 0 255
30.099 -15.5689 1.50018 1 0 0  255 0 0 255
30.099 -21.6722 1.55877 1 0 0  255 0 0 255
30.099 -12.6008 1.48924 1 0 0  255 0 0 255
30.099 -23.94 1.48924 1 0 0  255 0 0 255
30.099 -26.2079 1.55877 1 0 0  255 0 0 255
30.099 -17.8935 1.50696 1 0 0  255 0 0 255
30.099 -4.91512 1.50399 1 0 0  255 0 0 255
30.099 -6.42839 1.50286 1 0 0  255 0 0 255
30.099 -19.2785 1.50657 1 0 0  255 0 0 255
30.099 -19.8947 0.616366 1 0 0  255 0 0 255
30.099 -2.11713 1.48588 1 0 0  255 0 0 255
30.099 -14.165 1.524 1 0 0  255 0 0 255
30.099 -8.11739 1.524 1 0 0  255 0 0 255
30.099 -27.446 1.67736 1 0 0  255 0 0 255
30.099 -25.0703 1.57395 1 0 0  255 0 0 255
30.099 -11.5023 1.51268 1 0 0  255 0 0 255
30.099 -22.797 1.47663 1 0 0  255 0 0 255
30.099 -20.6119 1.54205 1 0 0  255 0 0 255
30.099 -29.6808 1.53704 1 0 0  255 0 0 255
30.099 -10.3402 1.52375 1 0 0  255 0 0 255
30.099 -16.3952 1.52101 1 0 0  255 0 0 255
30.099 -23.2345 2.53443 1 0 0  255 0 0 255
30.099 -11.892 2.53672 1 0 0  255 0 0 255
30.099 -25.9056 0.511279 1 0 0  255 0 0 255
30.099 -20.9665 0.514537 1 0 0  255 0 0 255
30.099 -16.0748 2.51389 1 0 0  255 0 0 255
30.099 -29.1179 0.452586 1 0 0  255 0 0 255
30.099 -10.0146 2.50267 1 0 0  255 0 0 255
30.099 -28.8589 1.52924 1 0 0  255 0 0 255
30.099 -24.4978 0.57728 1 0 0  255 0 0 255
30.099 -22.2113 2.49804 1 0 0  255 0 0 255
30.099 -0.563239 0.52004 1 0 0  255 0 0 255
30.099 -0.521368 2.56538 1 0 0  255 0 0 255
30.099 -31.2286 2.56538 1 0 0  255 0 0 255
30.099 -31.2286 0.482618 1 0 0  255 0 0 255
30.099 -30.6422 2.61297 1 0 0  255 0 0 255
30.099 -30.6436 0.432241 1 0 0  255 0 0 255
30.099 -29.1206 2.59575 1 0 0  255 0 0 255
30.099 -1.09714 2.61829 1 0 0  255 0 0 255
30.099 -23.5106 0.555063 1 0 0  255 0 0 255
30.099 -12.1713 0.555063 1 0 0  255 0 0 255
30.099 -21.2427 2.49294 1 0 0  255 0 0 255
30.099 -25.7784 2.49294 1 0 0  255 0 0 255
30.099 -10.9728 2.62732 1 0 0  255 0 0 255
30.099 -2.7752 1.83601 1 0 0  255 0 0 255
30.099 -29.6573 0.5071 1 0 0  255 0 0 255
30.099 -15.8085 0.550801 1 0 0  255 0 0 255
30.099 -9.76088 0.550801 1 0 0  255 0 0 255
30.099 -31.3427 2.09066 1 0 0  255 0 0 255
30.099 -31.3548 0.953264 1 0 0  255 0 0 255
30.099 -0.405168 2.09552 1 0 0  255 0 0 255
30.099 -0.400541 0.9742 1 0 0  255 0 0 255
30.099 -12.4279 2.61121 1 0 0  255 0 0 255
30.099 -25.3916 0.452906 1 0 0  255 0 0 255
30.099 -23.7671 2.61129 1 0 0  255 0 0 255
30.099 -21.4992 0.436776 1 0 0  255 0 0 255
30.099 -2.01967 2.57465 1 0 0  255 0 0 255
30.099 -19.2768 2.66476 1 0 0  255 0 0 255
30.099 -4.91369 2.66476 1 0 0  255 0 0 255
30.099 -6.42559 2.66476 1 0 0  255 0 0 255
30.099 -17.7649 2.66476 1 0 0  255 0 0 255
30.099 -27.5923 0.382833 1 0 0  255 0 0 255
30.099 -27.6094 2.63974 1 0 0  255 0 0 255
30.099 -7.9375 2.66517 1 0 0  255 0 0 255
30.099 -7.9375 0.382833 1 0 0  255 0 0 255
30.099 -13.9851 0.382833 1 0 0  255 0 0 255
30.099 -13.9936 2.63318 1 0 0  255 0 0 255
30.099 -9.57334 2.56636 1 0 0  255 0 0 255
30.099 -15.6239 2.56847 1 0 0  255 0 0 255
-28.841 -31.75 1.52515 0 -1 0  255 0 0 255
-9.25567 -31.75 1.51786 0 -1 0  255 0 0 255
-10.9065 -31.75 1.55011 0 -1 0  255 0 0 255
-26.7984 -31.75 1.44663 0 -1 0  255 0 0 255
-24.6564 -31.75 1.53909 0 -1 0  255 0 0 255
-22.471 -31.75 1.49727 0 -1 0  255 0 0 255
-20.2682 -31.75 1.50815 0 -1 0  255 0 0 255
-18.0741 -31.75 1.5079 0 -1 0  255 0 0 255
-15.88 -31.75 1.50766 0 -1 0  255 0 0 255
-13.52 -31.75 1.51043 0 -1 0  255 0 0 255
-12.1241 -31.75 1.33748 0 -1 0  255 0 0 255
-8.53467 -31.75 0.89841 0 -1 0  255 0 0 255
-14.748 -31.75 1.96816 0 -1 0  255 0 0 255
-16.9421 -31.75 1.96805 0 -1 0  255 0 0 255
-19.1371 -31.75 1.96879 0 -1 0  255 0 0 255
-25.7012 -31.75 1.08197 0 -1 0  255 0 0 255
-21.3129 -31.75 1.9649 0 -1 0  255 0 0 255
-23.5319 -31.75 1.04607 0 -1 0  255 0 0 255
-8.33809 -31.75 2.00984 0 -1 0  255 0 0 255
-27.707 -31.75 1.01403 0 -1 0  255 0 0 255
-27.7005 -31.75 2.06607 0 -1 0  255 0 0 255
-10.0292 -31.75 0.921583 0 -1 0  255 0 0 255
-10.1461 -31.75 1.99857 0 -1 0  255 0 0 255
-29.2161 -31.75 0.931764 0 -1 0  255 0 0 255
-29.2157 -31.75 2.11647 0 -1 0  255 0 0 255
-23.7647 -31.75 2.11258 0 -1 0  255 0 0 255
-26.0041 -31.75 2.10416 0 -1 0  255 0 0 255
-21.6154 -31.75 0.945374 0 -1 0  255 0 0 255
-19.3766 -31.75 0.937389 0 -1 0  255 0 0 255
-17.1823 -31.75 0.937353 0 -1 0  255 0 0 255
-14.9881 -31.75 0.937328 0 -1 0  255 0 0 255
-12.8767 -31.75 2.06815 0 -1 0  255 0 0 255
-11.5975 -31.75 1.98887 0 -1 0  255 0 0 255
-11.4576 -31.75 0.85936 0 -1 0  255 0 0 255
-12.9016 -31.75 0.81862 0 -1 0  255 0 0 255
-9.26622 -31.75 0.620186 0 -1 0  255 0 0 255
-22.9511 -31.75 2.20364 0 -1 0  255 0 0 255
-25.1459 -31.75 2.20308 0 -1 0  255 0 0 255
-20.7598 -31.75 0.844919 0 -1 0  255 0 0 255
-18.5657 -31.75 0.844629 0 -1 0  255 0 0 255
-16.3717 -31.75 0.844341 0 -1 0  255 0 0 255
-14.1711 -31.75 0.842026 0 -1 0  255 0 0 255
-9.06619 -31.75 2.28902 0 -1 0  255 0 0 255
-8.00497 -31.75 0.497826 0 -1 0  255 0 0 255
-14.0293 -31.75 2.21685 0 -1 0  255 0 0 255
-16.2053 -31.75 2.24017 0 -1 0  255 0 0 255
-18.3997 -31.75 2.24025 0 -1 0  255 0 0 255
-20.5887 -31.75 2.19774 0 -1 0  255 0 0 255
-22.0833 -31.75 2.1801 0 -1 0  255 0 0 255
-26.4377 -31.75 0.806528 0 -1 0  255 0 0 255
-24.9788 -31.75 0.848486 0 -1 0  255 0 0 255
-22.8176 -31.75 0.827562 0 -1 0  255 0 0 255
-26.8134 -31.75 2.28617 0 -1 0  255 0 0 255
-10.9014 -31.75 2.29152 0 -1 0  255 0 0 255
-28.4991 -31.75 0.783764 0 -1 0  255 0 0 255
-28.4926 -31.75 2.20904 0 -1 0  255 0 0 255
-24.2555 -31.75 0.9067 0 -1 0  255 0 0 255
-19.8624 -31.75 2.1353 0 -1 0  255 0 0 255
-17.667 -31.75 2.13867 0 -1 0  255 0 0 255
-15.4728 -31.75 2.13872 0 -1 0  255 0 0 255
-10.5934 -31.75 0.720284 0 -1 0  255 0 0 255
-29.5685 -31.75 1.5242 0 -1 0  255 0 0 255
-8.01097 -31.75 1.36537 0 -1 0  255 0 0 255
-12.1749 -31.75 0.62479 0 -1 0  255 0 0 255
-12.2041 -31.75 2.45491 0 -1 0  255 0 0 255
-15.6353 -31.75 0.727739 0 -1 0  255 0 0 255
-17.8294 -31.75 0.727757 0 -1 0  255 0 0 255
-20.0235 -31.75 0.727783 0 -1 0  255 0 0 255
-24.4074 -31.75 2.32192 0 -1 0  255 0 0 255
-27.129 -31.75 0.73895 0 -1 0  255 0 0 255
-8.65736 -31.75 1.47594 0 -1 0  255 0 0 255
-9.80693 -31.75 1.47008 0 -1 0  255 0 0 255
-13.575 -31.75 0.58499 0 -1 0  255 0 0 255
-8.59913 -31.75 0.39168 0 -1 0  255 0 0 255
-22.1514 -31.75 0.678574 0 -1 0  255 0 0 255
-12.8499 -31.75 1.49535 0 -1 0  255 0 0 255
-11.4954 -31.75 1.44955 0 -1 0  255 0 0 255
-23.1972 -31.75 1.54814 0 -1 0  255 0 0 255
-25.3888 -31.75 1.55863 0 -1 0  255 0 0 255
-14.3974 -31.75 1.49055 0 -1 0  255 0 0 255
-16.5689 -31.75 1.48609 0 -1 0  255 0 0 255
-18.763 -31.75 1.48634 0 -1 0  255 0 0 255
-20.9588 -31.75 1.48324 0 -1 0  255 0 0 255
-13.4151 -31.75 2.42572 0 -1 0  255 0 0 255
-7.94882 -31.75 2.46521 0 -1 0  255 0 0 255
-8.45701 -31.75 2.57202 0 -1 0  255 0 0 255
-24.0033 -31.75 1.52577 0 -1 0  255 0 0 255
-26.1957 -31.75 1.53097 0 -1 0  255 0 0 255
-15.2277 -31.75 1.52326 0 -1 0  255 0 0 255
-17.4218 -31.75 1.52334 0 -1 0  255 0 0 255
-19.6158 -31.75 1.52344 0 -1 0  255 0 0 255
-21.8099 -31.75 1.52355 0 -1 0  255 0 0 255
-21.5163 -31.75 2.52362 0 -1 0  255 0 0 255
-25.8933 -31.75 0.547697 0 -1 0  255 0 0 255
-23.3333 -31.75 0.531051 0 -1 0  255 0 0 255
-18.9397 -31.75 2.49886 0 -1 0  255 0 0 255
-16.7437 -31.75 2.4977 0 -1 0  255 0 0 255
-14.5427 -31.75 2.50903 0 -1 0  255 0 0 255
-28.107 -31.75 1.52036 0 -1 0  255 0 0 255
-27.4022 -31.75 1.52411 0 -1 0  255 0 0 255
-9.8217 -31.75 2.48022 0 -1 0  255 0 0 255
-27.5261 -31.75 2.59945 0 -1 0  255 0 0 255
-29.5799 -31.75 0.488887 0 -1 0  255 0 0 255
-29.5797 -31.75 2.5596 0 -1 0  255 0 0 255
-29.0231 -31.75 0.427734 0 -1 0  255 0 0 255
-29.0287 -31.75 2.61147 0 -1 0  255 0 0 255
-7.79787 -31.75 1.94558 0 -1 0  255 0 0 255
-9.05219 -31.75 1.12167 0 -1 0  255 0 0 255
-9.61933 -31.75 1.95115 0 -1 0  255 0 0 255
-9.48205 -31.75 1.13027 0 -1 0  255 0 0 255
-22.5145 -31.75 2.5503 0 -1 0  255 0 0 255
-11.5003 -31.75 2.56626 0 -1 0  255 0 0 255
-21.2284 -31.75 0.547168 0 -1 0  255 0 0 255
-19.0265 -31.75 0.519878 0 -1 0  255 0 0 255
-16.8324 -31.75 0.519771 0 -1 0  255 0 0 255
-14.638 -31.75 0.519561 0 -1 0  255 0 0 255
-25.6176 -31.75 2.52243 0 -1 0  255 0 0 255
-23.4104 -31.75 2.52695 0 -1 0  255 0 0 255
-27.9958 -31.75 0.544063 0 -1 0  255 0 0 255
-24.6063 -31.75 0.412438 0 -1 0  255 0 0 255
-9.98702 -31.75 0.389211 0 -1 0  255 0 0 255
-25.362 -31.75 0.415964 0 -1 0  255 0 0 255
-20.2149 -31.75 2.6192 0 -1 0  255 0 0 255
-17.9648 -31.75 2.62793 0 -1 0  255 0 0 255
-15.7696 -31.75 2.62663 0 -1 0  255 0 0 255
-20.9744 -31.75 2.61995 0 -1 0  255 0 0 255
-12.3701 -31.75 1.88581 0 -1 0  255 0 0 255
-29.7243 -31.75 2.10495 0 -1 0  255 0 0 255
-29.7245 -31.75 0.943207 0 -1 0  255 0 0 255
-15.0873 -31.75 2.60632 0 -1 0  255 0 0 255
-12.8606 -31.75 2.64885 0 -1 0  255 0 0 255
-15.1287 -31.75 0.434302 0 -1 0  255 0 0 255
-17.3228 -31.75 0.4343 0 -1 0  255 0 0 255
-19.5168 -31.75 0.434294 0 -1 0  255 0 0 255
-17.2831 -31.75 2.60405 0 -1 0  255 0 0 255
-19.4906 -31.75 2.60848 0 -1 0  255 0 0 255
-26.2394 -31.75 2.55847 0 -1 0  255 0 0 255
-10.308 -31.75 1.32915 0 -1 0  255 0 0 255
-10.4402 -31.75 2.57326 0 -1 0  255 0 0 255
-23.8828 -31.75 2.61283 0 -1 0  255 0 0 255
-28.0514 -31.75 2.56076 0 -1 0  255 0 0 255
-23.8993 -31.75 0.427764 0 -1 0  255 0 0 255
-30.099 -1.3423 1.52893 -1 0 0  255 0 0 255
-30.099 -30.4077 1.52893 -1 0 0  255 0 0 255
-30.099 -19.8116 1.63224 -1 0 0  255 0 0 255
-30.099 -10.9613 1.524 -1 0 0  255 0 0 255
-30.099 -17.2369 1.39873 -1 0 0  255 0 0 255
-30.099 -22.2425 1.50906 -1 0 0  255 0 0 255
-30.099 -4.91369 1.524 -1 0 0  255 255 255 255
-30.099 -8.74686 1.44078 -1 0 0  255 255 255 255
-30.099 -13.3351 1.52899 -1 0 0  255 0 0 255
-30.099 -24.5188 1.44178 -1 0 0  255 0 0 255
-30.099 -26.8363 1.524 -1 0 0  255 0 0 255
-30.099 -3.67283 1.52457 -1 0 0  255 255 255 255
-30.099 -6.35832 1.52214 -1 0 0  255 255 255 255
-30.099 -14.7886 1.524 -1 0 0  255 0 0 255
-30.099 -28.0772 1.52457 -1 0 0  255 0 0 255
-30.099 -18.5208 1.48328 -1 0 0  255 0 0 255
-30.099 -23.4345 1.86415 -1 0 0  255 0 0 255
-30.099 -12.0952 1.86415 -1 0 0  255 0 0 255
-30.099 -25.7024 1.18385 -1 0 0  255 0 0 255
-30.099 -9.82738 1.86415 -1 0 0  255 0 0 255
-30.099 -21.1667 1.86415 -1 0 0  255 0 0 255
-30.099 -7.56436 1.05448 -1 0 0  255 255 255 255
-30.099 -15.8798 1.05448 -1 0 0  255 0 0 255
-30.099 -29.3255 1.01007 -1 0 0  255 0 0 255
-30.099 -2.42452 1.01007 -1 0 0  255 0 0 255
-30.099 -0.897771 0.932618 -1 0 0  255 0 0 255
-30.099 -0.958216 2.09845 -1 0 0  255 0 0 255
-30.099 -30.8522 0.932618 -1 0 0  255 0 0 255
-30.099 -30.7918 2.09845 -1 0 0  255 0 0 255
-30.099 -2.48543 2.05387 -1 0 0  255 255 255 255
-30.099 -29.2646 2.05387 -1 0 0  255 0 0 255
-30.099 -7.89146 2.11113 -1 0 0  255 255 255 255
-30.099 -16.2069 2.11113 -1 0 0  255 0 0 255
-30.099 -23.0961 0.932076 -1 0 0  255 0 0 255
-30.099 -11.7569 0.932076 -1 0 0  255 0 0 255
-30.099 -20.8283 0.932076 -1 0 0  255 0 0 255
-30.099 -10.1658 0.932076 -1 0 0  255 0 0 255
-30.099 -25.364 2.11592 -1 0 0  255 0 0 255
-30.099 -19.2521 2.12704 -1 0 0  255 0 0 255
-30.099 -17.7895 2.12704 -1 0 0  255 0 0 255
-30.099 -5.6934 0.920292 -1 0 0  255 255 255 255
-30.099 -4.13398 2.12771 -1 0 0  255 255 255 255
-30.099 -4.13398 0.920292 -1 0 0  255 255 255 255
-30.099 -5.6934 2.12771 -1 0 0  255 255 255 255
-30.099 -27.616 0.920292 -1 0 0  255 0 0 255
-30.099 -14.0089 0.920292 -1 0 0  255 0 0 255
-30.099 -27.6359 2.11621 -1 0 0  255 0 0 255
-30.099 -14.0089 2.12771 -1 0 0  255 0 0 255
-30.099 -19.232 0.859857 -1 0 0  255 0 0 255
-30.099 -17.8437 0.80907 -1 0 0  255 0 0 255
-30.099 -23.9798 0.86112 -1 0 0  255 0 0 255
-30.099 -12.6495 0.861361 -1 0 0  255 0 0 255
-30.099 -26.2538 2.18685 -1 0 0  255 0 0 255
-30.099 -21.7181 0.860673 -1 0 0  255 0 0 255
-30.099 -9.28209 0.86112 -1 0 0  255 255 255 255
-30.099 -15.3335 2.19362 -1 0 0  255 0 0 255
-30.099 -7.01067 2.19787 -1 0 0  255 255 255 255
-30.099 -24.1451 2.20307 -1 0 0  255 0 0 255
-30.099 -11.3668 2.2323 -1 0 0  255 0 0 255
-30.099 -22.7061 2.2323 -1 0 0  255 0 0 255
-30.099 -12.811 2.19959 -1 0 0  255 0 0 255
-30.099 -25.0235 0.844676 -1 0 0  255 0 0 255
-30.099 -9.12126 2.2027 -1 0 0  255 0 0 255
-30.099 -20.4382 2.2323 -1 0 0  255 0 0 255
-30.099 -26.4308 0.815701 -1 0 0  255 0 0 255
-30.099 -10.5942 2.11763 -1 0 0  255 0 0 255
-30.099 -21.9253 2.11171 -1 0 0  255 0 0 255
-30.099 -15.1709 0.809073 -1 0 0  255 0 0 255
-30.099 -6.85543 0.809073 -1 0 0  255 255 255 255
-30.099 -8.27448 0.825887 -1 0 0  255 255 255 255
-30.099 -16.5967 0.834711 -1 0 0  255 0 0 255
-30.099 -10.9613 0.91945 -1 0 0  255 0 0 255
-30.099 -17.0588 2.27495 -1 0 0  255 0 0 255
-30.099 -4.91369 0.668078 -1 0 0  255 255 255 255
-30.099 -4.91369 2.37992 -1 0 0  255 255 255 255
-30.099 -3.35031 0.726339 -1 0 0  255 255 255 255
-30.099 -3.3456 2.32427 -1 0 0  255 255 255 255
-30.099 -28.4057 2.32354 -1 0 0  255 0 0 255
-30.099 -28.3997 0.726339 -1 0 0  255 0 0 255
-30.099 -29.9585 2.30501 -1 0 0  255 0 0 255
-30.099 -1.79148 2.30501 -1 0 0  255 255 255 255
-30.099 -20.098 0.824696 -1 0 0  255 0 0 255
-30.099 -1.61126 0.796927 -1 0 0  255 0 0 255
-30.099 -30.1387 0.796927 -1 0 0  255 0 0 255
-30.099 -18.5276 0.630442 -1 0 0  255 0 0 255
-30.099 -0.557008 1.52228 -1 0 0  255 0 0 255
-30.099 -31.193 1.52228 -1 0 0  255 0 0 255
-30.099 -18.5208 2.41407 -1 0 0  255 0 0 255
-30.099 -22.4254 0.768081 -1 0 0  255 0 0 255
-30.099 -27.0644 2.30175 -1 0 0  255 0 0 255
-30.099 -13.3605 0.648196 -1 0 0  255 0 0 255
-30.099 -6.32359 2.41304 -1 0 0  255 255 255 255
-30.099 -14.6601 2.40537 -1 0 0  255 0 0 255
-30.099 -8.4409 2.36024 -1 0 0  255 0 0 255
-30.099 -24.7429 2.28352 -1 0 0  255 0 0 255
-30.099 -19.8175 2.4378 -1 0 0  255 0 0 255
-30.099 -13.4331 2.43624 -1 0 0  255 0 0 255
-30.099 -27.0247 0.607138 -1 0 0  255 0 0 255
-30.099 -6.24966 0.606082 -1 0 0  255 255 255 255
-30.099 -14.5726 0.606033 -1 0 0  255 0 0 255
-30.099 -15.5689 1.54782 -1 0 0  255 0 0 255
-30.099 -7.23884 1.54811 -1 0 0  255 255 255 255
-30.099 -9.32186 1.48924 -1 0 0  255 0 0 255
-30.099 -23.94 1.48924 -1 0 0  255 0 0 255
-30.099 -12.6008 1.48924 -1 0 0  255 0 0 255
-30.099 -21.6722 1.48924 -1 0 0  255 0 0 255
-30.099 -26.2079 1.55877 -1 0 0  255 0 0 255
-30.099 -19.1482 1.50696 -1 0 0  255 0 0 255
-30.099 -17.8608 1.46951 -1 0 0  255 0 0 255
-30.099 -14.165 1.524 -1 0 0  255 0 0 255
-30.099 -5.53726 1.524 -1 0 0  255 255 255 255
-30.099 -4.29012 1.524 -1 0 0  255 255 255 255
-30.099 -27.446 1.67736 -1 0 0  255 0 0 255
-30.099 -17.171 0.5998 -1 0 0  255 0 0 255
-30.099 -25.0703 1.57395 -1 0 0  255 0 0 255
-30.099 -11.5023 1.5089 -1 0 0  255 0 0 255
-30.099 -10.502 1.47146 -1 0 0  255 0 0 255
-30.099 -22.7809 1.46113 -1 0 0  255 0 0 255
-30.099 -20.4686 1.49709 -1 0 0  255 0 0 255
-30.099 -29.6808 1.53704 -1 0 0  255 0 0 255
-30.099 -2.06923 1.53704 -1 0 0  255 0 0 255
-30.099 -8.07973 1.52699 -1 0 0  255 255 255 255
-30.099 -16.4247 1.53697 -1 0 0  255 0 0 255
-30.099 -23.2313 2.53672 -1 0 0  255 0 0 255
-30.099 -25.9056 0.511279 -1 0 0  255 0 0 255
-30.099 -11.892 2.53672 -1 0 0  255 0 0 255
-30.099 -20.9634 2.53707 -1 0 0  255 0 0 255
-30.099 -9.62735 2.53284 -1 0 0  255 0 0 255
-30.099 -16.0747 0.533854 -1 0 0  255 0 0 255
-30.099 -7.75872 0.533211 -1 0 0  255 255 255 255
-30.099 -29.1179 0.452586 -1 0 0  255 0 0 255
-30.099 -2.63206 0.452586 -1 0 0  255 0 0 255
-30.099 -2.89132 1.52936 -1 0 0  255 255 255 255
-30.099 -28.8589 1.52924 -1 0 0  255 0 0 255
-30.099 -24.4978 0.57728 -1 0 0  255 0 0 255
-30.099 -0.521368 0.482618 -1 0 0  255 0 0 255
-30.099 -0.521368 2.56538 -1 0 0  255 0 0 255
-30.099 -31.2286 2.56538 -1 0 0  255 0 0 255
-30.099 -31.2286 0.482618 -1 0 0  255 0 0 255
-30.099 -30.6422 2.61297 -1 0 0  255 0 0 255
-30.099 -1.10778 2.61297 -1 0 0  255 0 0 255
-30.099 -30.6436 0.432241 -1 0 0  255 0 0 255
-30.099 -1.10637 0.432241 -1 0 0  255 0 0 255
-30.099 -8.78575 0.55817 -1 0 0  255 255 255 255
-30.099 -2.62943 2.59579 -1 0 0  255 255 255 255
-30.099 -29.1206 2.59575 -1 0 0  255 0 0 255
-30.099 -22.2624 2.62442 -1 0 0  255 0 0 255
-30.099 -10.9235 2.62473 -1 0 0  255 0 0 255
-30.099 -23.5106 0.555063 -1 0 0  255 0 0 255
-30.099 -12.1713 0.555063 -1 0 0  255 0 0 255
-30.099 -21.2427 0.555063 -1 0 0  255 0 0 255
-30.099 -9.75135 0.555063 -1 0 0  255 255 255 255
-30.099 -25.7784 2.49294 -1 0 0  255 0 0 255
-30.099 -29.6573 0.5071 -1 0 0  255 0 0 255
-30.099 -2.09267 0.5071 -1 0 0  255 0 0 255
-30.099 -15.8085 2.4972 -1 0 0  255 0 0 255
-30.099 -7.53916 2.53321 -1 0 0  255 255 255 255
-30.099 -31.3427 2.09066 -1 0 0  255 0 0 255
-30.099 -31.3548 0.953264 -1 0 0  255 0 0 255
-30.099 -0.407318 2.09066 -1 0 0  255 0 0 255
-30.099 -0.39523 0.953264 -1 0 0  255 0 0 255
-30.099 -12.4279 2.61121 -1 0 0  255 0 0 255
-30.099 -25.3916 0.452906 -1 0 0  255 0 0 255
-30.099 -23.7668 2.61146 -1 0 0  255 0 0 255
-30.099 -10.2145 2.61273 -1 0 0  255 0 0 255
-30.099 -21.5531 2.61261 -1 0 0  255 0 0 255
-30.099 -19.2768 2.66476 -1 0 0  255 0 0 255
-30.099 -17.7688 2.64332 -1 0 0  255 0 0 255
-30.099 -27.5923 0.382833 -1 0 0  255 0 0 255
-30.099 -27.6094 2.63974 -1 0 0  255 0 0 255
-30.099 -4.15774 0.382833 -1 0 0  255 255 255 255
-30.099 -5.66964 0.382833 -1 0 0  255 255 255 255
-30.099 -5.66964 2.66517 -1 0 0  255 255 255 255
-30.099 -4.15774 2.66517 -1 0 0  255 255 255 255
-30.099 -13.9851 0.382833 -1 0 0  255 0 0 255
-30.099 -13.9851 2.66517 -1 0 0  255 0 0 255
-30.099 -7.30832 0.479354 -1 0 0  255 255 255 255
-30.099 -15.6239 0.479482 -1 0 0  255 0 0 255
-13.0328 -2.83337 -2.10894 0.554964 -0.831875 0  255 0 0 255
-12.6784 -2.53315 -2.20026 0.72936 -0.68413 0  255 0 0 255
-12.4117 -2.1777 -2.32777 0.860646 -0.509204 0  255 0 0 255
-13.522 -3.07207 -1.94539 0.314233 -0.949346 0  255 0 0 255
-12.2161 -1.7331 -2.51677 0.956904 -0.290403 0  255 0 0 255
-12.1634 -1.51808 -1.9684 0.982817 -0.184585 0  255 0 0 255
-13.7512 -3.13335 -2.49803 0.201431 -0.979503 0  255 0 0 255
-12.152 -1.45108 -2.85169 0.98844 -0.151615 0  255 0 0 255
-12.1443 -1.39624 -1.60335 0.992204 -0.124627 0  255 0 0 255
-13.8399 -3.14954 -1.5976 0.15779 -0.987473 0  255 0 0 255
-13.8986 -3.15805 -2.84701 0.128885 -0.99166 0  255 0 0 255
-13.151 -2.90648 -1.66237 0.49682 -0.867854 0  255 0 0 255
-12.7766 -2.63089 -1.71751 0.681059 -0.732228 0  255 0 0 255
-12.4519 -2.24292 -1.79347 0.840831 -0.541297 0  255 0 0 255
-12.2736 -1.89697 -1.97528 0.928613 -0.37105 0  255 0 0 255
-12.3735 -2.11028 -2.77923 0.879433 -0.476023 0  255 0 0 255
-12.6185 -2.46637 -2.7016 0.75885 -0.651265 0  255 0 0 255
-12.8988 -2.73587 -2.55231 0.620896 -0.783893 0  255 0 0 255
-13.2696 -2.96929 -2.57578 0.438436 -0.898762 0  255 0 0 255
-17.7559 -2.27069 -2.10894 -0.831875 -0.554964 0  255 0 0 255
-17.4557 -2.62506 -2.20026 -0.68413 -0.72936 0  255 0 0 255
-17.1002 -2.89183 -2.32777 -0.509204 -0.860646 0  255 0 0 255
-17.9946 -1.78152 -1.94539 -0.949346 -0.314233 0  255 0 0 255
-16.6556 -3.08743 -2.51677 -0.290403 -0.956904 0  255 0 0 255
-16.4406 -3.14008 -1.9684 -0.184585 -0.982817 0  255 0 0 255
-18.0558 -1.55231 -2.49803 -0.979503 -0.201431 0  255 0 0 255
-16.3736 -3.15151 -2.85169 -0.151615 -0.98844 0  255 0 0 255
-16.3187 -3.15916 -1.60335 -0.124627 -0.992204 0  255 0 0 255
-18.072 -1.46363 -1.5976 -0.987473 -0.15779 0  255 0 0 255
-18.0806 -1.40489 -2.84701 -0.99166 -0.128885 0  255 0 0 255
-17.829 -2.15254 -1.66237 -0.867854 -0.49682 0  255 0 0 255
-17.5534 -2.52691 -1.71751 -0.732228 -0.681059 0  255 0 0 255
-17.1654 -2.85157 -1.79347 -0.541297 -0.840831 0  255 0 0 255
-16.8195 -3.02994 -1.97528 -0.37105 -0.928613 0  255 0 0 255
-17.0328 -2.93001 -2.77923 -0.476023 -0.879433 0  255 0 0 255
-17.3889 -2.68498 -2.7016 -0.651265 -0.75885 0  255 0 0 255
-17.6584 -2.40466 -2.55231 -0.783893 -0.620896 0  255 0 0 255
-17.8918 -2.0339 -2.57578 -0.898762 -0.438436 0  255 0 0 255
-11.8262 -0.5715 -0.447568 0.761994 0 -0.647584  255 0 0 255
-11.3478 -0.5715 -0.098051 0.385292 0 -0.922795  255 0 0 255
-11.1478 -0.28575 -0.03338 0.227764 0 -0.973716  255 0 0 255
-11.1478 -0.85725 -0.03338 0.227764 0 -0.973716  255 0 0 255
-12.0691 -0.381 -0.886203 0.953244 0 -0.302202  255 0 0 255
-12.0691 -0.762 -0.886203 0.953244 0 -0.302202  255 0 0 255
-13.3061 -3.39598 -0.366443 0.249175 -0.657064 -0.711462  255 255 255 255
-11.5471 -2.21327 -0.09337 0.348268 -0.142629 -0.926481  255 255 255 255
-12.582 -2.9944 -0.343889 0.443957 -0.52071 -0.729221  255 255 255 255
-11.9309 -2.77169 -0.120927 0.343896 -0.251207 -0.904782  255 255 255 255
-13.159 -3.84679 -0.070998 0.114513 -0.309144 -0.944096  255 255 255 255
-11.7708 -1.65458 -0.333835 0.66077 -0.141458 -0.737138  255 0 0 255
-13.664 -3.74822 -0.178882 0.095802 -0.50268 -0.859148  255 255 255 255
-13.6687 -3.1894 -0.846561 0.220298 -0.91668 -0.333417  255 255 255 255
-12.079 -1.57829 -0.789293 0.905998 -0.189469 -0.37851  255 0 0 255
-13.137 -3.00493 -0.793685 0.446556 -0.812357 -0.375051  255 255 255 255
-12.6916 -2.66123 -0.824957 0.651251 -0.673107 -0.350428  255 255 255 255
-12.196 -2.23089 -0.565 0.727652 -0.402946 -0.555118  255 255 255 255
-12.1679 -3.26779 -0.061072 0.209573 -0.223481 -0.951911  255 255 255 255
-12.6711 -3.57359 -0.082922 0.185697 -0.303049 -0.934707  255 255 255 255
-11.5445 -2.69481 -0.026967 0.176297 -0.104577 -0.978766  255 255 255 255
-11.3095 -1.61714 -0.068643 0.319917 -0.053205 -0.945951  255 255 255 255
-15.4415 -3.89948 -0.123131 0 -0.429544 -0.903046  255 255 255 255
-15.4415 -3.29813 -0.72448 0 -0.903046 -0.429544  255 255 255 255
-14.877 -4.03631 -0.067555 0 -0.321802 -0.946807  255 255 255 255
-14.877 -3.24255 -0.861312 0 -0.946807 -0.321802  255 255 255 255
-15.7507 -4.14078 -0.036976 0 -0.239544 -0.970885  255 255 255 255
-14.4984 -4.17677 -0.028649 0 -0.211205 -0.977442  255 255 255 255
-14.4984 -3.20365 -1.00177 0 -0.977442 -0.211205  255 255 255 255
-15.7507 -3.21198 -0.965779 0 -0.970885 -0.239544  255 255 255 255
-14.9354 -3.54697 -0.371974 0 -0.707107 -0.707107  255 255 255 255
-15.5899 -3.54697 -0.371974 0 -0.707107 -0.707107  255 255 255 255
-18.3185 -1.99739 -0.366443 -0.657064 -0.249175 -0.711462  255 0 0 255
-17.1358 -3.75638 -0.09337 -0.142629 -0.348268 -0.926481  255 255 255 255
-17.9169 -2.7215 -0.343889 -0.52071 -0.443957 -0.729221  255 255 255 255
-17.6942 -3.37263 -0.120927 -0.251207 -0.343896 -0.904782  255 255 255 255
-18.7693 -2.14453 -0.070998 -0.309144 -0.114513 -0.944096  255 0 0 255
-16.5771 -3.53266 -0.333835 -0.141458 -0.66077 -0.737138  255 255 255 255
-18.6707 -1.63951 -0.178882 -0.50268 -0.095802 -0.859148  255 0 0 255
-18.1119 -1.63479 -0.846561 -0.91668 -0.220298 -0.333417  255 0 0 255
-16.5008 -3.22446 -0.789293 -0.189469 -0.905998 -0.37851  255 255 255 255
-17.9274 -2.16651 -0.793685 -0.812357 -0.446556 -0.375051  255 0 0 255
-17.5837 -2.61193 -0.824957 -0.673107 -0.651251 -0.350428  255 0 0 255
-17.1534 -3.10754 -0.565 -0.402946 -0.727652 -0.555118  255 255 255 255
-18.1903 -3.13555 -0.061072 -0.223481 -0.209573 -0.951911  255 255 255 255
-18.4961 -2.63238 -0.082922 -0.303049 -0.185697 -0.934707  255 255 255 255
-17.6173 -3.75904 -0.026967 -0.104577 -0.176297 -0.978766  255 255 255 255
-16.5396 -3.99397 -0.068643 -0.053205 -0.319917 -0.945951  255 255 255 255
-18.5451 -0.5715 -0.302268 -0.647584 0 -0.761994  255 0 0 255
-18.1956 -0.5715 -0.780679 -0.922795 0 -0.385292  255 0 0 255
-18.9837 -0.381 -0.05938 -0.302202 0 -0.953244  255 0 0 255
-18.9837 -0.762 -0.05938 -0.302202 0 -0.953244  255 0 0 255
-18.1309 -0.28575 -0.98074 -0.973716 0 -0.227764  255 0 0 255
-18.1309 -0.85725 -0.98074 -0.973716 0 -0.227764  255 0 0 255
6.05118 -34.1351 -2.60397 0 0.986286 0.165048  255 0 0 255
-6.05118 -34.1351 -2.60397 0 0.986286 0.165048  255 0 0 255
4.10177 -36.1525 -2.86692 0 -0.580703 -0.814116  255 0 0 255
-4.57575 -36.1525 -2.86692 0 -0.580703 -0.814116  255 0 0 255
4.83912 -36.1525 -2.86692 0 -0.580703 -0.814116  255 0 0 255
3.3589 -36.1525 -2.86692 0 -0.580703 -0.814116  255 0 0 255
2.61357 -36.1525 -2.86692 0 -0.580703 -0.814116  255 0 0 255
1.86726 -36.1525 -2.86692 0 -0.580703 -0.814116  255 0 0 255
1.12062 -36.1525 -2.86692 0 -0.580703 -0.814116  255 0 0 255
0.373988 -36.1525 -2.86692 0 -0.580703 -0.814116  255 0 0 255
-0.372237 -36.1525 -2.86692 0 -0.580703 -0.814116  255 0 0 255
-1.11733 -36.1525 -2.86692 0 -0.580703 -0.814116  255 0 0 255
-1.85957 -36.1525 -2.86692 0 -0.580703 -0.814116  255 0 0 255
-2.59473 -36.1525 -2.86692 0 -0.580703 -0.814116  255 0 0 255
-3.31251 -36.1525 -2.86692 0 -0.580703 -0.814116  255 0 0 255
-3.98859 -36.1525 -2.86692 0 -0.580703 -0.814116  255 0 0 255
-5.09935 -36.1525 -2.86692 0 -0.580703 -0.814116  255 0 0 255
5.2077 -35.7044 -3.3054 0 -0.801254 -0.598325  255 0 0 255
5.2077 -36.713 -2.58593 0 -0.304864 -0.952396  255 0 0 255
-5.33494 -35.7183 -3.28692 0 -0.794379 -0.607423  255 0 0 255
-5.33494 -36.691 -2.59312 0 -0.315705 -0.948857  255 0 0 255
5.90495 -35.7044 -3.3054 0 -0.801254 -0.598325  255 0 0 255
5.90495 -36.713 -2.58593 0 -0.304864 -0.952396  255 0 0 255
-5.94254 -35.7067 -3.30231 0 -0.800115 -0.599846  255 0 0 255
-5.94254 -36.7093 -2.58711 0 -0.306674 -0.951815  255 0 0 255
-4.84153 -35.7888 -3.19987 0 -0.759709 -0.650263  255 0 0 255
-4.84153 -36.5858 -2.63139 0 -0.367499 -0.930024  255 0 0 255
4.47423 -35.7044 -3.3054 0 -0.801254 -0.598325  255 0 0 255
3.73207 -35.7044 -3.3054 0 -0.801254 -0.598325  255 0 0 255
2.98695 -35.7044 -3.3054 0 -0.801254 -0.598325  255 0 0 255
2.24069 -35.7044 -3.3054 0 -0.801254 -0.598325  255 0 0 255
1.494 -35.7044 -3.3054 0 -0.801254 -0.598325  255 0 0 255
0.747214 -35.7044 -3.3054 0 -0.801254 -0.598325  255 0 0 255
0.000561 -35.7044 -3.3054 0 -0.801254 -0.598325  255 0 0 255
-0.745601 -35.7044 -3.3054 0 -0.801253 -0.598326  255 0 0 255
-1.49049 -35.7044 -3.30539 0 -0.801248 -0.598333  255 0 0 255
-2.23218 -35.7044 -3.30531 0 -0.801219 -0.598371  255 0 0 255
-2.96597 -35.7048 -3.30486 0 -0.801053 -0.598594  255 0 0 255
-3.6799 -35.7067 -3.30222 0 -0.800081 -0.599893  255 0 0 255
-4.34175 -35.7183 -3.2869 0 -0.794373 -0.607431  255 0 0 255
4.47423 -36.713 -2.58593 0 -0.304864 -0.952396  255 0 0 255
3.73207 -36.713 -2.58593 0 -0.304864 -0.952396  255 0 0 255
2.98695 -36.713 -2.58593 0 -0.304864 -0.952396  255 0 0 255
2.24069 -36.713 -2.58593 0 -0.304864 -0.952396  255 0 0 255
1.494 -36.713 -2.58593 0 -0.304864 -0.952396  255 0 0 255
0.747214 -36.713 -2.58593 0 -0.304864 -0.952396  255 0 0 255
0.000561 -36.713 -2.58593 0 -0.304865 -0.952396  255 0 0 255
-0.745601 -36.713 -2.58593 0 -0.304866 -0.952395  255 0 0 255
-1.49049 -36.713 -2.58594 0 -0.304874 -0.952393  255 0 0 255
-2.23218 -36.7129 -2.58597 0 -0.304919 -0.952378  255 0 0 255
-2.96597 -36.7124 -2.58614 0 -0.305184 -0.952293  255 0 0 255
-3.6799 -36.7092 -2.58715 0 -0.306729 -0.951797  255 0 0 255
-4.34175 -36.691 -2.59313 0 -0.315714 -0.948854  255 0 0 255
5.56907 -36.1525 -2.86692 0 -0.580703 -0.814116  255 0 0 255
-5.66739 -36.1525 -2.86692 0 -0.580703 -0.814116  255 0 0 255
-5.5245 -28.448 1.60749 0 -0.984808 0.173648  255 0 0 255
4.0513 -28.448 1.60749 0 -0.984808 0.173648  255 0 0 255
-2.79414 -28.4298 1.71075 0 -0.984808 0.173648  255 0 0 255
1.90127 -28.4456 1.62084 0 -0.984808 0.173648  255 0 0 255
-0.3683 -28.448 1.60749 0 -0.984808 0.173648  255 0 0 255
5.24699 -28.448 1.60749 0 -0.984808 0.173648  255 0 0 255
-4.05997 -28.4528 1.58018 0 -0.984808 0.173648  255 0 0 255
-1.4732 -28.3935 1.91678 0 -0.984808 0.173648  255 0 0 255
0.7366 -28.5025 1.29821 0 -0.984808 0.173648  255 0 0 255
2.9464 -28.5025 1.29821 0 -0.984808 0.173648  255 0 0 255
-6.28881 -28.354 2.14082 0 -0.984808 0.173648  255 0 0 255
-6.29413 -28.5429 1.06929 0 -0.984808 0.173648  255 0 0 255
6.30132 -28.3534 2.14423 0 -0.984808 0.173648  255 0 0 255
6.30132 -28.5426 1.07076 0 -0.984808 0.173648  255 0 0 255
1.08116 -28.3483 2.1731 0 -0.984808 0.173648  255 0 0 255
3.29097 -28.3483 2.1731 0 -0.984808 0.173648  255 0 0 255
-1.81776 -28.5477 1.04189 0 -0.984808 0.173648  255 0 0 255
-4.8083 -28.337 2.23698 0 -0.984808 0.173648  255 0 0 255
-3.37503 -28.3366 2.23909 0 -0.984808 0.173648  255 0 0 255
4.87799 -28.58 0.859114 0 -0.984808 0.173648  255 0 0 255
4.73225 -28.337 2.23698 0 -0.984808 0.173648  255 0 0 255
-3.36278 -28.558 0.98358 0 -0.984808 0.173648  255 0 0 255
-4.80197 -28.5515 1.02074 0 -0.984808 0.173648  255 0 0 255
-0.957429 -28.5573 0.987662 0 -0.984808 0.173648  255 0 0 255
0.220829 -28.3387 2.22733 0 -0.984808 0.173648  255 0 0 255
2.42598 -28.3384 2.2289 0 -0.984808 0.173648  255 0 0 255
-2.17833 -28.3372 2.23605 0 -0.984808 0.173648  255 0 0 255
-0.815808 -28.3376 2.23387 0 -0.984808 0.173648  255 0 0 255
1.51253 -28.5381 1.09654 0 -0.984808 0.173648  255 0 0 255
0.079208 -28.5584 0.981114 0 -0.984808 0.173648  255 0 0 255
2.24396 -28.5619 0.961544 0 -0.984808 0.173648  255 0 0 255
3.62429 -28.5585 0.980651 0 -0.984808 0.173648  255 0 0 255
-5.71859 -28.3204 2.33088 0 -0.984808 0.173648  255 0 0 255
3.97035 -28.3239 2.31148 0 -0.984808 0.173648  255 0 0 255
5.69462 -28.5788 0.865852 0 -0.984808 0.173648  255 0 0 255
5.6738 -28.3202 2.33215 0 -0.984808 0.173648  255 0 0 255
-5.71852 -28.5749 0.887964 0 -0.984808 0.173648  255 0 0 255
-2.51865 -28.5646 0.946281 0 -0.984808 0.173648  255 0 0 255
-4.06142 -28.5913 0.794861 0 -0.984808 0.173648  255 0 0 255
-4.06918 -28.3029 2.43045 0 -0.984808 0.173648  255 0 0 255
1.7297 -28.3221 2.32158 0 -0.984808 0.173648  255 0 0 255
-2.73481 -28.2983 2.45655 0 -0.984808 0.173648  255 0 0 255
4.22523 -28.5801 0.858101 0 -0.984808 0.173648  255 0 0 255
-6.79925 -28.4481 1.60689 0 -0.984808 0.173648  255 0 0 255
6.80689 -28.448 1.60749 0 -0.984808 0.173648  255 0 0 255
2.44566 -28.4437 1.63202 0 -0.984808 0.173648  255 0 0 255
0.235864 -28.4437 1.63202 0 -0.984808 0.173648  255 0 0 255
-0.972464 -28.4523 1.58297 0 -0.984808 0.173648  255 0 0 255
-3.42259 -28.447 1.61308 0 -0.984808 0.173648  255 0 0 255
-4.83361 -28.4477 1.60911 0 -0.984808 0.173648  255 0 0 255
4.6519 -28.448 1.60749 0 -0.984808 0.173648  255 0 0 255
-2.15641 -28.4545 1.57035 0 -0.984808 0.173648  255 0 0 255
1.24442 -28.448 1.60749 0 -0.984808 0.173648  255 0 0 255
3.57666 -28.4362 1.67419 0 -0.984808 0.173648  255 0 0 255
-1.28479 -28.2809 2.55543 0 -0.984808 0.173648  255 0 0 255
0.548187 -28.6151 0.659559 0 -0.984808 0.173648  255 0 0 255
2.75155 -28.6156 0.656764 0 -0.984808 0.173648  255 0 0 255
-6.78598 -28.5999 0.745901 0 -0.984808 0.173648  255 0 0 255
-6.785 -28.2965 2.46668 0 -0.984808 0.173648  255 0 0 255
6.78845 -28.2963 2.46806 0 -0.984808 0.173648  255 0 0 255
6.78845 -28.5997 0.746932 0 -0.984808 0.173648  255 0 0 255
-0.434573 -28.6028 0.729443 0 -0.984808 0.173648  255 0 0 255
-0.302027 -28.2932 2.48555 0 -0.984808 0.173648  255 0 0 255
-6.09895 -28.4482 1.60624 0 -0.984808 0.173648  255 0 0 255
6.00416 -28.4485 1.60466 0 -0.984808 0.173648  255 0 0 255
-6.26054 -28.268 2.62861 0 -0.984808 0.173648  255 0 0 255
6.2611 -28.2672 2.63287 0 -0.984808 0.173648  255 0 0 255
6.2611 -28.6288 0.582118 0 -0.984808 0.173648  255 0 0 255
-6.2619 -28.6282 0.58566 0 -0.984808 0.173648  255 0 0 255
1.80698 -28.6299 0.57586 0 -0.984808 0.173648  255 0 0 255
-1.40838 -28.6089 0.695002 0 -0.984808 0.173648  255 0 0 255
0.671778 -28.2871 2.51999 0 -0.984808 0.173648  255 0 0 255
2.88158 -28.2871 2.51999 0 -0.984808 0.173648  255 0 0 255
1.12689 -28.6211 0.625757 0 -0.984808 0.173648  255 0 0 255
-1.81088 -28.2648 2.64645 0 -0.984808 0.173648  255 0 0 255
3.26938 -28.6291 0.580514 0 -0.984808 0.173648  255 0 0 255
5.1697 -26.7213 -1.18241 0 0.845178 -0.534486  255 0 0 255
-5.17044 -26.7219 -1.18344 0 0.845435 -0.534078  255 0 0 255
3.88142 -26.3861 -0.759633 0 0.713228 -0.700932  255 0 0 255
-3.8839 -26.3896 -0.763167 0 0.714593 -0.699541  255 0 0 255
-1.48827 -26.5398 -0.930845 0 0.773722 -0.633526  255 0 0 255
0.274978 -26.3344 -0.708487 0 0.692864 -0.721068  255 0 0 255
-0.304853 -26.126 -0.528937 0 0.610836 -0.791757  255 0 0 255
0.766819 -26.4882 -0.869826 0 0.753412 -0.657549  255 0 0 255
1.29695 -26.435 -0.810814 0 0.732486 -0.680782  255 0 0 255
-0.891081 -26.4582 -0.836127 0 0.741624 -0.670816  255 0 0 255
1.95593 -26.4206 -0.795461 0 0.726822 -0.686826  255 0 0 255
-2.00325 -26.4514 -0.828615 0 0.738938 -0.673774  255 0 0 255
2.61713 -26.4054 -0.77949 0 0.720828 -0.693114  255 0 0 255
-2.62933 -26.4178 -0.7925 0 0.725718 -0.687992  255 0 0 255
3.2465 -26.4092 -0.783397 0 0.722304 -0.691576  255 0 0 255
-3.25149 -26.4154 -0.789996 0 0.724782 -0.688978  255 0 0 255
4.55931 -26.3192 -0.694046 0 0.686898 -0.726753  255 0 0 255
-4.56061 -26.3212 -0.695941 0 0.687687 -0.726008  255 0 0 255
5.40293 -25.8054 -0.318203 0 0.484623 -0.874723  255 0 0 255
-5.40343 -25.8064 -0.318725 0 0.484994 -0.874518  255 0 0 255
6.07634 -25.8456 -0.34095 0 0.500446 -0.865768  255 0 0 255
-6.0766 -25.8461 -0.341202 0 0.500618 -0.865668  255 0 0 255
6.44335 -25.2604 -0.094372 0 0.270052 -0.962846  255 0 0 255
-6.44344 -25.2606 -0.094422 0 0.270123 -0.962826  255 0 0 255
5.77878 -26.933 -1.59712 0 0.928548 -0.371213  255 0 0 255
-5.77907 -26.9332 -1.59754 0 0.928614 -0.371048  255 0 0 255
7.01942 -25.5193 -0.182264 0 0.371975 -0.928243  255 0 0 255
-7.01947 -25.5194 -0.182297 0 0.372008 -0.928229  255 0 0 255
5.65087 -27.0764 -2.10171 0 0.985 -0.172557  255 0 0 255
-5.65098 -27.0764 -2.10188 0 0.985011 -0.17249  255 0 0 255
7.44628 -25.2971 -0.104944 0 0.284474 -0.958684  255 0 0 255
-7.44629 -25.2971 -0.104951 0 0.284484 -0.958681  255 0 0 255
6.0114 -27.0989 -2.2592 0 0.993871 -0.11055  255 0 0 255
-6.01143 -27.0989 -2.25924 0 0.993872 -0.110534  255 0 0 255
7.86554 -25.0156 -0.038599 0 0.173672 -0.984804  255 0 0 255
-7.86555 -25.0156 -0.0386 0 0.173674 -0.984803  255 0 0 255
4.77338 -25.802 -0.316279 0 0.483253 -0.875481  255 0 0 255
-4.7742 -25.8038 -0.317312 0 0.483989 -0.875074  255 0 0 255
-0.20472 -26.6282 -1.04538 0 0.808546 -0.588432  255 0 0 255
4.08851 -25.7827 -0.305773 0 0.475682 -0.879617  255 0 0 255
-4.08978 -25.7866 -0.30786 0 0.477199 -0.878795  255 0 0 255
-0.076502 -26.9955 -1.77151 0 0.953132 -0.302554  255 0 0 255
-0.648979 -26.8351 -1.38181 0 0.88999 -0.45598  255 0 0 255
-1.26237 -26.8553 -1.42212 0 0.897944 -0.440109  255 0 0 255
3.57332 -26.8149 -1.34327 0 0.882052 -0.471153  255 0 0 255
-3.57621 -26.8161 -1.34548 0 0.882515 -0.470284  255 0 0 255
3.51323 -25.992 -0.43233 0 0.558074 -0.829791  255 0 0 255
-3.51562 -25.9992 -0.437189 0 0.560908 -0.827878  255 0 0 255
2.94295 -25.9168 -0.383671 0 0.528476 -0.848948  255 0 0 255
-2.94546 -25.9318 -0.393045 0 0.534359 -0.845258  255 0 0 255
2.26123 -25.8987 -0.372501 0 0.521345 -0.853346  255 0 0 255
-2.25831 -25.9368 -0.396205 0 0.536321 -0.844014  255 0 0 255
1.55784 -25.9133 -0.381501 0 0.527101 -0.849803  255 0 0 255
-1.49522 -26.0242 -0.454336 0 0.570745 -0.821128  255 0 0 255
0.804802 -25.9762 -0.421815 0 0.551869 -0.833931  255 0 0 255
-0.832652 -25.8917 -0.368243 0 0.518591 -0.855023  255 0 0 255
0.169881 -25.8474 -0.341953 0 0.501129 -0.865373  255 0 0 255
2.95077 -26.7317 -1.19912 0 0.849304 -0.527905  255 0 0 255
-2.95785 -26.7333 -1.20163 0 0.849916 -0.526919  255 0 0 255
2.3452 -26.8258 -1.36381 0 0.886324 -0.463066  255 0 0 255
-2.35893 -26.8203 -1.35332 0 0.884154 -0.467196  255 0 0 255
1.65715 -26.7931 -1.30328 0 0.873459 -0.486897  255 0 0 255
-1.78875 -26.7574 -1.24129 0 0.859402 -0.511301  255 0 0 255
1.03918 -26.7939 -1.30475 0 0.873781 -0.486319  255 0 0 255
0.418313 -26.7537 -1.23521 0 0.857972 -0.513696  255 0 0 255
-5.77157 -26.3528 -0.726323 0 0.700099 -0.714046  255 0 0 255
5.77113 -26.3522 -0.725756 0 0.699871 -0.714269  255 0 0 255
4.30734 -26.755 -1.23734 0 0.858474 -0.512857  255 0 0 255
-4.3089 -26.7562 -1.23927 0 0.858926 -0.5121  255 0 0 255
4.61663 -27.0147 -1.83511 0 0.960721 -0.277515  255 0 0 255
-4.61729 -27.015 -1.83594 0 0.960815 -0.277191  255 0 0 255
5.67091 -25.2294 -0.085882 0 0.257838 -0.966188  255 0 0 255
-5.67111 -25.2298 -0.085999 0 0.25801 -0.966142  255 0 0 255
-5.97477 -26.725 -1.18841 0 0.846666 -0.532124  255 0 0 255
5.97446 -26.7248 -1.18796 0 0.846557 -0.532299  255 0 0 255
4.99031 -25.2305 -0.086164 0 0.258253 -0.966077  255 0 0 255
-4.99067 -25.2314 -0.08641 0 0.258615 -0.96598  255 0 0 255
-0.34511 -25.3977 -0.137105 0 0.324104 -0.946022  255 0 0 255
5.21437 -27.0157 -1.83862 0 0.961119 -0.276134  255 0 0 255
-5.21474 -27.0159 -1.83914 0 0.961178 -0.275929  255 0 0 255
-6.74568 -25.9228 -0.387389 0 0.53082 -0.847485  255 0 0 255
6.74558 -25.9226 -0.387291 0 0.530759 -0.847523  255 0 0 255
-6.42421 -26.3426 -0.716408 0 0.696095 -0.71795  255 0 0 255
6.42403 -26.3424 -0.716186 0 0.696005 -0.718037  255 0 0 255
5.13529 -26.23 -0.613637 0 0.651777 -0.758411  255 0 0 255
-5.13605 -26.2312 -0.61468 0 0.652255 -0.758  255 0 0 255
-6.22157 -26.8793 -1.47262 0 0.907418 -0.420228  255 0 0 255
6.22142 -26.8792 -1.4724 0 0.907378 -0.420315  255 0 0 255
6.99697 -25.0507 -0.045044 0 0.187492 -0.982266  255 0 0 255
-6.99701 -25.0508 -0.045055 0 0.187515 -0.982262  255 0 0 255
4.46377 -25.3159 -0.110613 0 0.291891 -0.956452  255 0 0 255
-4.46437 -25.3179 -0.11121 0 0.292661 -0.956216  255 0 0 255
4.04359 -26.9972 -1.77712 0 0.953831 -0.300345  255 0 0 255
-4.04485 -26.9976 -1.77822 0 0.953966 -0.299915  255 0 0 255
4.02163 -25.1281 -0.061055 0 0.217938 -0.975963  255 0 0 255
-4.02213 -25.1307 -0.061656 0 0.218995 -0.975726  255 0 0 255
-0.810058 -27.0418 -1.93667 0 0.97138 -0.23753  255 0 0 255
-6.21529 -26.565 -0.962158 0 0.783654 -0.621198  255 0 0 255
6.21506 -26.5647 -0.961835 0 0.783553 -0.621325  255 0 0 255
2.97164 -27.0162 -1.84021 0 0.961299 -0.275506  255 0 0 255
-2.97308 -27.0154 -1.83731 0 0.96097 -0.276651  255 0 0 255
2.34382 -27.0583 -2.00885 0 0.977892 -0.209112  255 0 0 255
-2.32906 -27.0552 -1.99429 0 0.976648 -0.214846  255 0 0 255
-1.37832 -27.0627 -2.02951 0 0.979595 -0.20098  255 0 0 255
0.419662 -25.2942 -0.104106 0 0.283361 -0.959013  255 0 0 255
1.14757 -25.2867 -0.101904 0 0.28041 -0.95988  255 0 0 255
1.88062 -25.2722 -0.097694 0 0.274673 -0.961538  255 0 0 255
