ply
format ascii 1.0
comment VCGLIB generated
element vertex 1129
property float x
property float y
property float z
property float nx
property float ny
property float nz
property uchar red
property uchar green
property uchar blue
property uchar alpha
element face 0
property list uchar int vertex_indices
end_header
-14.4542 -6.24296 -8.0672 0.870249 0 -0.492612  255 0 0 255
-14.4542 6.24296 -8.0672 0.870249 0 -0.492612  255 0 0 255
-13.9742 -8.53496 -7.21929 0.870249 0 -0.492612  255 0 0 255
-13.9742 8.53496 -7.21929 0.870249 0 -0.492612  255 0 0 255
-13.6345 -1.57292 -6.61925 0.870249 0 -0.492612  255 0 0 255
-13.6345 1.57292 -6.61925 0.870249 0 -0.492612  255 0 0 255
-13.6418 6.85192 -6.63209 0.870249 0 -0.492612  255 0 0 255
-13.6418 -6.85192 -6.63209 0.870249 0 -0.492612  255 0 0 255
-14.0667 -7.71753 -7.3827 0.870249 0 -0.492612  255 0 0 255
-14.0667 7.71753 -7.3827 0.870249 0 -0.492612  255 0 0 255
-15.0615 6.99354 -9.14021 0.870249 0 -0.492612  255 0 0 255
-15.0615 -6.99354 -9.14021 0.870249 0 -0.492612  255 0 0 255
-15.4531 6.61285 -9.83189 0.870249 0 -0.492612  255 0 0 255
-15.4531 -6.61285 -9.83189 0.870249 0 -0.492612  255 0 0 255
-13.8734 -3.8979 -7.04118 0.870249 0 -0.492612  255 0 0 255
-13.8734 3.8979 -7.04118 0.870249 0 -0.492612  255 0 0 255
-15.4211 0.950561 -9.77537 0.870249 0 -0.492612  255 0 0 255
-14.097 -4.98948 -7.43633 0.870249 0 -0.492612  255 0 0 255
-14.097 4.98948 -7.43633 0.870249 0 -0.492612  255 0 0 255
-14.7254 -7.98877 -8.5463 0.870249 0 -0.492612  255 0 0 255
-14.7254 7.98877 -8.5463 0.870249 0 -0.492612  255 0 0 255
-15.2188 1.56591 -9.4181 0.870249 0 -0.492612  255 0 0 255
-20 -0.329175 6.02095 -1 0 0  255 255 255 255
-20 5.12538 4.71729 -1 0 0  255 0 0 255
-20 -5.45164 4.43798 -1 0 0  255 0 0 255
-20 7.64634 0.667012 -1 0 0  255 0 0 255
-20 -7.68272 0.27858 -1 0 0  255 0 0 255
-20 7.3193 -3.64879 -1 0 0  255 0 0 255
-20 -7.2375 -3.95135 -1 0 0  255 0 0 255
-20 3.11923 8.05207 -1 0 0  255 255 255 255
-20 -3.6483 7.81683 -1 0 0  255 0 0 255
-20 1.9997 3.07447 -1 0 0  255 0 0 255
-20 -2.2797 2.99802 -1 0 0  255 255 255 255
-20 8.33825 3.89318 -1 0 0  255 0 0 255
-20 -8.5417 3.33863 -1 0 0  255 0 0 255
-20 6.23241 -6.80121 -1 0 0  255 0 0 255
-20 0.09968 9.2648 -1 0 0  255 0 0 255
-20 -6.14027 -7.00089 -1 0 0  255 0 0 255
-20 4.94682 1.89093 -1 0 0  255 0 0 255
-20 -5.12958 1.67886 -1 0 0  255 0 0 255
-20 5.96971 7.49061 -1 0 0  255 255 255 255
-20 9.44384 -1.65698 -1 0 0  255 0 0 255
-20 -6.44238 7.14543 -1 0 0  255 0 0 255
-20 -9.34066 -2.12364 -1 0 0  255 255 255 255
-20 5.74595 -1.22972 -1 0 0  255 0 0 255
-20 -5.74424 -1.64827 -1 0 0  255 255 255 255
-20 2.23678 5.67235 -1 0 0  255 255 255 255
-20 -2.69446 5.54422 -1 0 0  255 255 255 255
-20 9.76899 1.83728 -1 0 0  255 0 0 255
-20 -9.87348 1.30321 -1 0 0  255 0 0 255
-20 -0.171467 1.96074 -1 0 0  255 0 0 255
-20 -2.25828 9.84931 -1 0 0  255 0 0 255
-20 7.8686 6.22358 -1 0 0  255 0 0 255
-20 -8.33982 5.77503 -1 0 0  255 0 0 255
-20 8.36971 -5.76212 -1 0 0  255 0 0 255
-20 5.32345 -4.69937 -1 0 0  255 0 0 255
-20 -8.23674 -6.02581 -1 0 0  255 0 0 255
-20 5.26207 -8.78386 -1 0 0  255 0 0 255
-20 -5.27192 -4.93825 -1 0 0  255 0 0 255
-20 2.17167 10.0517 -1 0 0  255 0 0 255
-20 -5.18236 -8.91601 -1 0 0  255 0 0 255
-20 9.54386 -3.85997 -1 0 0  255 0 0 255
-20 -1.44424 7.83369 -1 0 0  255 0 0 255
-20 -9.47086 -4.1978 -1 0 0  255 255 255 255
-20 -0.033893 4.05983 -1 0 0  255 255 255 255
-20 4.78037 9.17425 -1 0 0  255 255 255 255
-20 6.82505 2.50348 -1 0 0  255 0 0 255
-20 -5.39232 8.94281 -1 0 0  255 0 0 255
-20 1.03807 7.52858 -1 0 0  255 255 255 255
-20 3.12005 1.51628 -1 0 0  255 0 0 255
-20 -7.04066 2.10612 -1 0 0  255 0 0 255
-20 10.5051 0.032471 -1 0 0  255 0 0 255
-20 3.80648 3.28709 -1 0 0  255 0 0 255
-20 4.35204 6.41068 -1 0 0  255 255 255 255
-20 -3.24448 1.47959 -1 0 0  255 255 255 255
-20 -4.71665 6.2608 -1 0 0  255 0 0 255
-20 -10.5417 -0.482512 -1 0 0  255 0 0 255
-20 -4.12923 3.15857 -1 0 0  255 255 255 255
-20 7.63162 -1.12611 -1 0 0  255 0 0 255
-20 -7.61849 -1.61444 -1 0 0  255 255 255 255
-20 4.77557 -2.92388 -1 0 0  255 0 0 255
-20 -4.76377 -0.16388 -1 0 0  255 255 255 255
-20 -4.6628 -3.20174 -1 0 0  255 0 0 255
-20 4.71558 0.035437 -1 0 0  255 0 0 255
-20 10.0856 3.66506 -1 0 0  255 0 0 255
-20 6.87945 4.85054 -1 0 0  255 0 0 255
-20 -10.2907 3.08934 -1 0 0  255 0 0 255
-20 -7.22769 4.55837 -1 0 0  255 0 0 255
-20 1.36664 1.27218 -1 0 0  255 0 0 255
-20 -3.97387 9.96972 -1 0 0  255 0 0 255
-20 9.46749 5.33584 -1 0 0  255 0 0 255
-20 -0.787913 10.748 -1 0 0  255 0 0 255
-20 -9.77557 4.79484 -1 0 0  255 0 0 255
-20 -1.61793 1.23672 -1 0 0  255 255 255 255
-20 7.87739 -7.4194 -1 0 0  255 0 0 255
-20 4.67389 -6.26464 -1 0 0  255 0 0 255
-20 -7.73922 -7.63787 -1 0 0  255 0 0 255
-20 -4.62896 -6.45569 -1 0 0  255 0 0 255
-20 6.84318 -5.19767 -1 0 0  255 0 0 255
-20 -1.39989 4.52587 -1 0 0  255 255 255 255
-20 7.56669 7.84474 -1 0 0  255 255 255 255
-20 -8.03797 7.36285 -1 0 0  255 0 0 255
-20 6.18031 0.856179 -1 0 0  255 0 0 255
-20 -6.76684 -5.52343 -1 0 0  255 0 0 255
-20 3.59706 4.85467 -1 0 0  255 0 0 255
-20 0.804368 10.878 -1 0 0  255 0 0 255
-20 -6.25934 0.563133 -1 0 0  255 255 255 255
-20 5.41205 3.25419 -1 0 0  255 0 0 255
-20 6.83138 -8.47223 -1 0 0  255 0 0 255
-20 -5.7429 2.97971 -1 0 0  255 0 0 255
-20 -3.95385 4.69089 -1 0 0  255 255 255 255
-20 10.614 -2.70801 -1 0 0  255 0 0 255
-20 8.92204 -0.306812 -1 0 0  255 0 0 255
-20 8.31209 2.04703 -1 0 0  255 0 0 255
-20 -9.00875 -0.580583 -1 0 0  255 255 255 255
-20 3.69074 10.3182 -1 0 0  255 255 255 255
-20 -10.5204 -3.11524 -1 0 0  255 255 255 255
-20 -8.44678 1.60795 -1 0 0  255 0 0 255
-20 6.31883 8.94962 -1 0 0  255 255 255 255
-20 -6.70998 -8.63928 -1 0 0  255 0 0 255
-20 5.83846 6.07298 -1 0 0  255 0 0 255
-20 4.48222 -10.0557 -1 0 0  255 0 0 255
-20 -6.24172 5.67227 -1 0 0  255 0 0 255
-20 -6.82605 8.56064 -1 0 0  255 0 0 255
-20 1.36979 4.52259 -1 0 0  255 255 255 255
-20 8.28078 -2.56301 -1 0 0  255 0 0 255
-20 -4.42472 -10.1784 -1 0 0  255 0 0 255
-20 -8.45237 -3.13942 -1 0 0  255 255 255 255
-20 6.24467 -2.70249 -1 0 0  255 0 0 255
-20 -6.20183 -2.99268 -1 0 0  255 255 255 255
-20 10.9852 -1.32314 -1 0 0  255 0 0 255
-20 4.46262 -7.66651 -1 0 0  255 0 0 255
-20 9.87679 -5.29104 -1 0 0  255 0 0 255
-20 -1.60244 6.3 -1 0 0  255 255 255 255
-20 4.34566 -1.4885 -1 0 0  255 0 0 255
-20 4.48794 7.87659 -1 0 0  255 255 255 255
-20 -4.39232 -1.74784 -1 0 0  255 255 255 255
-20 1.87507 8.6971 -1 0 0  255 255 255 255
-20 -5.01021 7.6101 -1 0 0  255 0 0 255
-20 -9.6207 -5.55379 -1 0 0  255 255 255 255
-20 -4.44436 -7.74229 -1 0 0  255 0 0 255
-20 -10.9542 -1.7967 -1 0 0  255 255 255 255
-20 -0.863823 3.19796 -1 0 0  255 255 255 255
-20 11.1012 1.28977 -1 0 0  255 0 0 255
-20 -0.207165 7.39476 -1 0 0  255 0 0 255
-20 -11.1498 0.736961 -1 0 0  255 0 0 255
-20 1.01776 6.20343 -1 0 0  255 255 255 255
-20 2.35398 7.0443 -1 0 0  255 255 255 255
-20 -2.85888 6.93845 -1 0 0  255 0 0 255
-20 -2.57091 8.56113 -1 0 0  255 0 0 255
-20 -1.22701 9.1311 -1 0 0  255 0 0 255
-20 8.36754 -4.42897 -1 0 0  255 0 0 255
-20 -2.78029 4.1983 -1 0 0  255 255 255 255
-20 0.660676 2.93313 -1 0 0  255 255 255 255
-20 -6.58888 -0.759999 -1 0 0  255 255 255 255
-20 10.7984 2.71474 -1 0 0  255 0 0 255
-20 6.64004 -0.517648 -1 0 0  255 0 0 255
-20 -8.2666 -4.71647 -1 0 0  255 0 0 255
-20 -10.9002 2.1035 -1 0 0  255 0 0 255
-20 0.230742 0.808872 -1 0 0  255 0 0 255
-20 -3.08695 10.8544 -1 0 0  255 0 0 255
-20 4.22866 -3.98827 -1 0 0  255 0 0 255
-20 9.24805 6.47571 -1 0 0  255 0 0 255
-20 2.54511 4.21346 -1 0 0  255 0 0 255
-20 -4.21642 -4.27049 -1 0 0  255 0 0 255
-20 -9.49813 5.94707 -1 0 0  255 0 0 255
-20 6.65943 3.77873 -1 0 0  255 0 0 255
-20 8.91955 -6.79511 -1 0 0  255 0 0 255
-20 9.03102 0.954825 -1 0 0  255 0 0 255
-20 3.64728 0.641474 -1 0 0  255 0 0 255
-20 3.14785 9.17214 -1 0 0  255 255 255 255
-20 9.0983 2.96624 -1 0 0  255 0 0 255
-20 -7.26647 3.41258 -1 0 0  255 0 0 255
-20 6.88671 6.69925 -1 0 0  255 0 0 255
-20 -9.28963 2.43575 -1 0 0  255 0 0 255
-20 -3.78545 0.51655 -1 0 0  255 255 255 255
-20 7.97968 5.06085 -1 0 0  255 0 0 255
-20 6.07482 -3.85156 -1 0 0  255 0 0 255
-20 -0.122441 -11.3484 -1 0 0  255 0 0 255
-20 -8.76022 -7.05387 -1 0 0  255 0 0 255
-20 -7.3724 6.29434 -1 0 0  255 0 0 255
-20 4.17021 -5.19445 -1 0 0  255 0 0 255
-20 -8.42023 4.68497 -1 0 0  255 0 0 255
-20 -7.3915 -2.73566 -1 0 0  255 255 255 255
-20 -9.06281 0.589063 -1 0 0  255 0 0 255
-20 -1.90069 11.1546 -1 0 0  255 0 0 255
-20 -6.09118 -4.19421 -1 0 0  255 0 0 255
-20 7.35566 -6.29228 -1 0 0  255 0 0 255
-20 6.14545 -9.57067 -1 0 0  255 0 0 255
-20 0.384276 5.09819 -1 0 0  255 255 255 255
-20 -4.11806 -5.45298 -1 0 0  255 0 0 255
-20 -5.1577 10.0895 -1 0 0  255 0 0 255
-20 4.12108 -8.93174 -1 0 0  255 0 0 255
-20 -4.20449 8.85888 -1 0 0  255 0 0 255
-20 1.28471 -11.4028 -1 0 0  255 0 0 255
-20 5.56847 -7.67078 -1 0 0  255 0 0 255
-20 2.31947 0.700447 -1 0 0  255 0 0 255
-20 5.72331 -5.76252 -1 0 0  255 0 0 255
-20 2.68894 2.67161 -1 0 0  255 0 0 255
-20 3.93839 2.20932 -1 0 0  255 0 0 255
-20 1.86041 11.1704 -1 0 0  255 0 0 255
-20 -7.23061 -6.49943 -1 0 0  255 0 0 255
-20 3.27834 6.37963 -1 0 0  255 255 255 255
-20 10.6872 -3.84823 -1 0 0  255 0 0 255
-20 -5.65823 -5.97897 -1 0 0  255 0 0 255
-20 -1.44311 -11.2768 -1 0 0  255 0 0 255
-20 -5.61092 -7.77516 -1 0 0  255 0 0 255
-20 -6.03999 -9.63941 -1 0 0  255 0 0 255
-20 -3.22423 2.57298 -1 0 0  255 255 255 255
-20 -4.23066 2.02699 -1 0 0  255 255 255 255
-20 -2.44111 0.602217 -1 0 0  255 255 255 255
-20 -4.07591 -8.93174 -1 0 0  255 0 0 255
-20 1.02413 9.819 -1 0 0  255 0 0 255
-20 9.35257 -2.76489 -1 0 0  255 0 0 255
-20 -3.61017 6.13565 -1 0 0  255 0 0 255
-20 8.59074 7.45936 -1 0 0  255 0 0 255
-20 -10.5909 -4.23066 -1 0 0  255 255 255 255
-20 6.04479 1.79877 -1 0 0  255 0 0 255
-20 -9.14631 6.96427 -1 0 0  255 0 0 255
-20 10.3351 4.69172 -1 0 0  255 0 0 255
-20 7.20918 -2.2076 -1 0 0  255 0 0 255
-20 4.79275 10.347 -1 0 0  255 255 255 255
-20 -10.6078 4.08222 -1 0 0  255 0 0 255
-20 1.86369 2.06842 -1 0 0  255 0 0 255
-20 -6.1042 1.49881 -1 0 0  255 0 0 255
-20 -2.31259 2.05937 -1 0 0  255 255 255 255
-20 -0.796311 0.607907 -1 0 0  255 0 0 255
-20 -6.30806 9.53449 -1 0 0  255 0 0 255
-20 -6.40141 3.85153 -1 0 0  255 0 0 255
-20 7.8969 2.99825 -1 0 0  255 0 0 255
-20 -1.11831 5.45602 -1 0 0  255 255 255 255
-20 6.85743 1.58448 -1 0 0  255 0 0 255
-20 2.28521 -11.2411 -1 0 0  255 0 0 255
-20 0.294039 8.19415 -1 0 0  255 0 0 255
-20 5.67708 10.0091 -1 0 0  255 255 255 255
-20 -7.11277 1.12911 -1 0 0  255 0 0 255
-20 4.40895 5.46147 -1 0 0  255 0 0 255
-20 5.39793 8.3895 -1 0 0  255 255 255 255
-20 3.97581 -0.654647 -1 0 0  255 0 0 255
-20 2.96055 11.0676 -1 0 0  255 0 0 255
-20 -2.36896 -11.2355 -1 0 0  255 0 0 255
-20 11.4559 -0.393636 -1 0 0  255 0 0 255
-20 3.79334 -10.8254 -1 0 0  255 0 0 255
-20 -4.80928 5.25553 -1 0 0  255 0 0 255
-20 -7.92933 2.62837 -1 0 0  255 0 0 255
-20 -9.4881 -3.09367 -1 0 0  255 255 255 255
-20 -5.93394 8.06639 -1 0 0  255 0 0 255
-20 7.38138 8.8378 -1 0 0  255 255 255 255
-20 5.57198 -0.376921 -1 0 0  255 0 0 255
-20 4.59707 3.80269 -1 0 0  255 0 0 255
-20 -0.045169 11.4671 -1 0 0  255 0 0 255
-20 -5.62976 -0.685265 -1 0 0  255 255 255 255
-20 -1.13438 2.09984 -1 0 0  255 255 255 255
-20 -3.18642 9.42799 -1 0 0  255 0 0 255
-20 -7.88373 8.35394 -1 0 0  255 0 0 255
-20 7.88354 -8.42055 -1 0 0  255 0 0 255
-20 9.9164 0.923572 -1 0 0  255 0 0 255
-20 5.20937 6.73927 -1 0 0  255 255 255 255
-20 9.78277 -0.767598 -1 0 0  255 0 0 255
-20 -3.75675 -10.8753 -1 0 0  255 0 0 255
-20 -6.63366 -2.13806 -1 0 0  255 255 255 255
-20 -3.98149 -0.773013 -1 0 0  255 255 255 255
-20 9.27125 4.26103 -1 0 0  255 0 0 255
-20 -5.65878 6.43558 -1 0 0  255 0 0 255
-20 -3.98237 -2.57903 -1 0 0  255 0 0 255
-20 -8.07608 -0.739742 -1 0 0  255 255 255 255
-20 -11.4244 -0.991978 -1 0 0  255 0 0 255
-20 -4.99186 3.60008 -1 0 0  255 0 0 255
-20 3.92932 8.71343 -1 0 0  255 255 255 255
-20 -9.48324 3.73457 -1 0 0  255 0 0 255
-20 8.05202 -0.338572 -1 0 0  255 0 0 255
-20 8.64435 -3.47363 -1 0 0  255 0 0 255
-20 -9.97215 0.403345 -1 0 0  255 0 0 255
-20 -8.64777 -1.46643 -1 0 0  255 255 255 255
-20 3.59803 7.21842 -1 0 0  255 255 255 255
-20 8.56631 -1.10577 -1 0 0  255 0 0 255
-20 6.9284 -7.49211 -1 0 0  255 0 0 255
-20 -9.76425 -1.21361 -1 0 0  255 255 255 255
-20 -0.624202 8.28556 -1 0 0  255 0 0 255
-20 -4.07382 6.97476 -1 0 0  255 0 0 255
-20 -7.65356 -8.54788 -1 0 0  255 0 0 255
-20 3.97113 -2.46903 -1 0 0  255 0 0 255
-20 0.004065 10.3376 -1 0 0  255 0 0 255
-20 5.39879 -10.2555 -1 0 0  255 0 0 255
-20 -6.73171 -7.71028 -1 0 0  255 0 0 255
-20 4.62264 2.73372 -1 0 0  255 0 0 255
-20 5.20161 0.902455 -1 0 0  255 0 0 255
-20 -5.29449 0.763415 -1 0 0  255 255 255 255
-20 0.809607 1.97819 -1 0 0  255 0 0 255
-20 -7.45478 5.4027 -1 0 0  255 0 0 255
-20 6.01459 4.44896 -1 0 0  255 0 0 255
-20 3.91946 -6.84139 -1 0 0  255 0 0 255
-20 7.15966 5.88394 -1 0 0  255 0 0 255
-20 -4.86808 2.62225 -1 0 0  255 0 0 255
-20 -0.512277 4.75417 -1 0 0  255 255 255 255
-20 6.74597 -1.39082 -1 0 0  255 0 0 255
-20 9.76373 -6.27242 -1 0 0  255 0 0 255
-20 -3.2733 3.42528 -1 0 0  255 255 255 255
-20 -5.07075 -2.29359 -1 0 0  255 255 255 255
-20 5.44212 -2.31815 -1 0 0  255 0 0 255
-20 5.20165 -3.8211 -1 0 0  255 0 0 255
-20 4.22473 1.3348 -1 0 0  255 0 0 255
-20 6.66801 8.12911 -1 0 0  255 255 255 255
-20 7.43162 4.13858 -1 0 0  255 0 0 255
-20 11.3972 -2.19371 -1 0 0  255 0 0 255
-20 -5.36083 -10.2662 -1 0 0  255 0 0 255
-20 -7.17871 7.729 -1 0 0  255 0 0 255
-20 11.0186 3.58184 -1 0 0  255 0 0 255
-20 10.5306 -4.77324 -1 0 0  255 0 0 255
-20 -1.38997 10.0028 -1 0 0  255 0 0 255
-20 -2.41516 7.67189 -1 0 0  255 0 0 255
-20 -5.15751 -4.0629 -1 0 0  255 0 0 255
-20 -4.33684 1.20687 -1 0 0  255 255 255 255
-20 -3.88457 -7.05026 -1 0 0  255 0 0 255
-20 -6.29382 4.78985 -1 0 0  255 0 0 255
-20 4.88225 -0.867055 -1 0 0  255 0 0 255
-20 -9.57776 -6.5889 -1 0 0  255 0 0 255
-20 11.6199 0.427329 -1 0 0  255 0 0 255
-20 -11.1823 2.92825 -1 0 0  255 0 0 255
-20 7.45473 -4.54082 -1 0 0  255 0 0 255
-20 -8.13827 -2.29692 -1 0 0  255 255 255 255
-20 -10.4497 -5.14896 -1 0 0  255 255 255 255
-20 1.1545 3.66573 -1 0 0  255 255 255 255
-20 -11.2656 -2.60396 -1 0 0  255 255 255 255
-20 -3.9506 10.898 -1 0 0  255 0 0 255
-20 1.01276 0.423662 -1 0 0  255 0 0 255
-20 2.03858 7.88148 -1 0 0  255 255 255 255
-20 -7.56229 -5.37966 -1 0 0  255 0 0 255
-20 1.37148 5.41479 -1 0 0  255 255 255 255
-20 9.94283 5.98277 -1 0 0  255 0 0 255
-20 1.04951 8.95225 -1 0 0  255 0 0 255
-20 -10.2858 5.40795 -1 0 0  255 0 0 255
-20 5.47545 -6.73241 -1 0 0  255 0 0 255
-20 -11.639 -0.101863 -1 0 0  255 0 0 255
-20 -1.61518 3.64941 -1 0 0  255 255 255 255
-20 -0.7864 6.73861 -1 0 0  255 255 255 255
-20 9.94914 2.7282 -1 0 0  255 0 0 255
-20 0.315688 6.69394 -1 0 0  255 255 255 255
-20 8.74549 -7.75733 -1 0 0  255 0 0 255
-20 10.2986 -1.87804 -1 0 0  255 0 0 255
-20 -1.10037 11.6367 -1 0 0  255 0 0 255
-20 -10.1012 2.17447 -1 0 0  255 0 0 255
-20 -3.81394 -3.4701 -1 0 0  255 0 0 255
-20 -1.73718 0.40937 -1 0 0  255 0 0 255
-20 -6.58698 2.8739 -1 0 0  255 0 0 255
-20 -8.51983 -7.94912 -1 0 0  255 0 0 255
-20 -5.40173 -6.93184 -1 0 0  255 0 0 255
-20 -4.87564 -1.00955 -1 0 0  255 255 255 255
-20 -10.2912 -2.25566 -1 0 0  255 255 255 255
-20 8.64303 5.69514 -1 0 0  255 0 0 255
-20 3.85888 -5.98942 -1 0 0  255 0 0 255
-20 3.40581 4.09455 -1 0 0  255 0 0 255
-20 -0.797874 3.97927 -1 0 0  255 255 255 255
-20 -8.98211 5.19972 -1 0 0  255 0 0 255
-20 6.88272 0.376088 -1 0 0  255 0 0 255
-20 8.14677 -6.55977 -1 0 0  255 0 0 255
-20 -1.94114 5.1686 -1 0 0  255 255 255 255
-20 6.09772 -4.85575 -1 0 0  255 0 0 255
-20 3.76745 -3.28085 -1 0 0  255 0 0 255
-20 -6.8936 0.092538 -1 0 0  255 255 255 255
-20 2.82721 5.0263 -1 0 0  255 255 255 255
-20 -0.145551 2.7926 -1 0 0  255 255 255 255
-20 9.19096 -4.63082 -1 0 0  255 0 0 255
-20 -3.84302 -6.18976 -1 0 0  255 0 0 255
-20 11.4813 2.10746 -1 0 0  255 0 0 255
-20 5.05488 5.98522 -1 0 0  255 0 0 255
-20 -8.08096 -3.90811 -1 0 0  255 255 255 255
-20 5.45741 2.40149 -1 0 0  255 0 0 255
-20 1.20156 11.6228 -1 0 0  255 0 0 255
-20 8.2596 8.23644 -1 0 0  255 255 255 255
-20 3.11789 -11.2439 -1 0 0  255 0 0 255
-20 -6.0305 -5.01698 -1 0 0  255 0 0 255
-20 5.97112 -8.38644 -1 0 0  255 0 0 255
-20 4.02098 9.55096 -1 0 0  255 255 255 255
-20 0.498665 -10.9854 -1 0 0  255 0 0 255
-20 -8.00109 -6.81365 -1 0 0  255 0 0 255
-20 -5.70464 2.15538 -1 0 0  255 0 0 255
-20 -5.49103 5.68061 -1 0 0  255 0 0 255
-20 -9.07522 -4.95858 -1 0 0  255 255 255 255
-20 4.32601 4.54986 -1 0 0  255 0 0 255
-20 -0.789785 1.4216 -1 0 0  255 0 0 255
-20 6.49233 -5.94331 -1 0 0  255 0 0 255
-20 7.65951 -5.34308 -1 0 0  255 0 0 255
-20 -7.78619 3.94585 -1 0 0  255 0 0 255
-20 4.91021 -5.4753 -1 0 0  255 0 0 255
-20 6.98705 -9.35061 -1 0 0  255 0 0 255
-20 7.77608 7.06121 -1 0 0  255 0 0 255
-20 11.242 -3.23176 -1 0 0  255 0 0 255
-20 -6.77243 -4.6368 -1 0 0  255 0 0 255
-20 5.75456 5.20152 -1 0 0  255 0 0 255
-20 -11.5495 1.44122 -1 0 0  255 0 0 255
-20 -4.2421 3.93256 -1 0 0  255 255 255 255
-20 -3.40511 5.26977 -1 0 0  255 255 255 255
-20 3.80776 -8.18658 -1 0 0  255 0 0 255
-20 -8.30685 6.56827 -1 0 0  255 0 0 255
-20 8.4516 0.431139 -1 0 0  255 0 0 255
-20 -8.61817 7.88919 -1 0 0  255 0 0 255
-20 -5.89815 -8.49399 -1 0 0  255 0 0 255
-20 -0.570419 9.72511 -1 0 0  255 0 0 255
-20 2.83172 3.4706 -1 0 0  255 0 0 255
-20 8.21652 1.25122 -1 0 0  255 0 0 255
-20 -4.86482 -5.69261 -1 0 0  255 0 0 255
-20 9.67936 0.150573 -1 0 0  255 0 0 255
-20 -8.49066 0.029434 -1 0 0  255 0 0 255
-20 -11.1564 -3.62285 -1 0 0  255 255 255 255
-20 1.87008 6.35034 -1 0 0  255 255 255 255
-20 1.3713 2.60278 -1 0 0  255 0 0 255
-20 3.79389 -9.65686 -1 0 0  255 0 0 255
-20 -3.35833 8.59659 -1 0 0  255 0 0 255
-20 -3.81056 -9.65483 -1 0 0  255 0 0 255
-20 -6.41281 -6.19664 -1 0 0  255 0 0 255
-20 -8.23722 0.785746 -1 0 0  255 0 0 255
-20 4.22636 10.92 -1 0 0  255 0 0 255
-20 -6.82412 -9.62973 -1 0 0  255 0 0 255
-20 7.52736 2.09864 -1 0 0  255 0 0 255
-20 1.50149 10.4746 -1 0 0  255 0 0 255
-20 6.24907 3.00392 -1 0 0  255 0 0 255
-20 9.10953 2.16366 -1 0 0  255 0 0 255
-20 3.66881 5.64852 -1 0 0  255 255 255 255
-20 -1.79028 8.52878 -1 0 0  255 0 0 255
-20 -7.67528 1.68097 -1 0 0  255 0 0 255
-20 -9.79066 -0.394795 -1 0 0  255 0 0 255
-20 7.61887 -2.96274 -1 0 0  255 0 0 255
-20 9.9974 -3.2165 -1 0 0  255 0 0 255
-20 -1.58884 2.71204 -1 0 0  255 255 255 255
-20 2.97229 10.0257 -1 0 0  255 255 255 255
-20 -9.238 1.66077 -1 0 0  255 0 0 255
-20 -4.37635 8.07255 -1 0 0  255 0 0 255
-20 8.13116 -1.75651 -1 0 0  255 0 0 255
-20 -2.28635 6.17296 -1 0 0  255 0 0 255
-20 4.63906 -10.7771 -1 0 0  255 0 0 255
-20 10.6735 1.95186 -1 0 0  255 0 0 255
-20 -7.0361 9.36279 -1 0 0  255 0 0 255
-20 -4.75204 10.7463 -1 0 0  255 0 0 255
-20 5.40797 3.98001 -1 0 0  255 0 0 255
-20 -3.10971 -11.3061 -1 0 0  255 0 0 255
-20 5.04179 -9.52379 -1 0 0  255 0 0 255
-20 -4.78122 9.4149 -1 0 0  255 0 0 255
-20 5.18855 7.62136 -1 0 0  255 255 255 255
-20 5.57928 -3.08277 -1 0 0  255 0 0 255
-20 1.99669 4.91422 -1 0 0  255 255 255 255
-20 6.09467 6.75146 -1 0 0  255 0 0 255
-20 6.79298 9.60463 -1 0 0  255 255 255 255
-20 2.27993 1.44369 -1 0 0  255 0 0 255
-20 -1.84219 7.13569 -1 0 0  255 0 0 255
-20 2.9887 0.389852 -1 0 0  255 0 0 255
-20 1.87349 3.92471 -1 0 0  255 0 0 255
-20 -6.53936 6.4106 -1 0 0  255 0 0 255
-20 -5.67775 7.30702 -1 0 0  255 0 0 255
-20 2.61008 8.63004 -1 0 0  255 255 255 255
-20 -3.73187 -8.27993 -1 0 0  255 0 0 255
-20 -9.99241 -3.67026 -1 0 0  255 255 255 255
-20 -5.53326 -3.3452 -1 0 0  255 0 0 255
-20 5.52694 9.12889 -1 0 0  255 255 255 255
-20 -10.7243 1.36873 -1 0 0  255 0 0 255
-20 9.15061 -5.83096 -1 0 0  255 0 0 255
-20 4.65128 -8.35429 -1 0 0  255 0 0 255
-20 -2.61526 11.4696 -1 0 0  255 0 0 255
-20 3.82216 -4.60779 -1 0 0  255 0 0 255
-20 8.75774 4.87 -1 0 0  255 0 0 255
-20 1.72801 0.288053 -1 0 0  255 0 0 255
-20 0.643033 4.40974 -1 0 0  255 255 255 255
-20 -3.66678 -4.79664 -1 0 0  255 0 0 255
-20 -4.63626 -9.42468 -1 0 0  255 0 0 255
-20 6.19401 -1.97511 -1 0 0  255 0 0 255
-20 1.70224 9.4248 -1 0 0  255 0 0 255
-20 -5.94854 10.1849 -1 0 0  255 0 0 255
-20 6.63524 -3.35044 -1 0 0  255 0 0 255
-20 6.44382 5.51947 -1 0 0  255 0 0 255
-20 0.446027 -11.766 -1 0 0  255 0 0 255
-20 -6.10031 8.76347 -1 0 0  255 0 0 255
-20 -6.88578 -3.3247 -1 0 0  255 255 255 255
-20 -8.83043 -3.84012 -1 0 0  255 255 255 255
-20 6.78476 -4.33964 -1 0 0  255 0 0 255
-20 -9.02122 4.28178 -1 0 0  255 0 0 255
-20 11.7043 -1.10335 -1 0 0  255 0 0 255
-20 -2.99936 10.0584 -1 0 0  255 0 0 255
-20 -4.55044 -10.848 -1 0 0  255 0 0 255
-20 -5.80803 -2.48047 -1 0 0  255 255 255 255
-20 -4.13994 5.56489 -1 0 0  255 0 0 255
-20 -4.7649 4.37461 -1 0 0  255 0 0 255
-20 8.91244 -2.17092 -1 0 0  255 0 0 255
-20 10.6519 -0.691349 -1 0 0  255 0 0 255
-20 0.467676 5.85407 -1 0 0  255 255 255 255
-20 -9.00482 -6.11353 -1 0 0  255 0 0 255
-20 -2.31494 10.5849 -1 0 0  255 0 0 255
-20 1.28777 8.21477 -1 0 0  255 255 255 255
-20 -7.54294 -4.62474 -1 0 0  255 0 0 255
-20 3.68029 -1.34794 -1 0 0  255 0 0 255
-20 9.33814 7.24241 -1 0 0  255 0 0 255
-20 -8.87171 -2.46437 -1 0 0  255 255 255 255
-20 4.49911 7.15518 -1 0 0  255 255 255 255
-20 -11.2142 3.68277 -1 0 0  255 0 0 255
-20 6.92761 7.44357 -1 0 0  255 0 0 255
-20 -2.5048 1.38889 -1 0 0  255 255 255 255
-20 10.374 -5.53712 -1 0 0  255 0 0 255
-20 7.11628 3.18068 -1 0 0  255 0 0 255
-20 -4.47591 0.482166 -1 0 0  255 255 255 255
-20 -10.5704 -1.19934 -1 0 0  255 255 255 255
-20 -0.785419 -10.8987 -1 0 0  255 0 0 255
-20 4.68638 -7.03613 -1 0 0  255 0 0 255
-20 -7.3546 -0.784641 -1 0 0  255 255 255 255
-20 -3.13808 0.274196 -1 0 0  255 255 255 255
-20 10.3469 5.5436 -1 0 0  255 0 0 255
-20 10.9747 4.28972 -1 0 0  255 0 0 255
-20 -11.671 -1.61167 -1 0 0  255 255 255 255
-20 -3.48271 4.16889 -1 0 0  255 255 255 255
-20 8.49613 6.70192 -1 0 0  255 0 0 255
-20 -0.215829 0.209924 -1 0 0  255 0 0 255
-20 4.33964 0.667096 -1 0 0  255 0 0 255
-20 5.04714 -1.57264 -1 0 0  255 0 0 255
-20 4.70049 -2.20006 -1 0 0  255 0 0 255
-20 -5.02562 6.91291 -1 0 0  255 0 0 255
-20 7.2712 -0.646392 -1 0 0  255 0 0 255
-20 -4.67747 -8.48077 -1 0 0  255 0 0 255
-20 -3.67972 -1.41743 -1 0 0  255 0 0 255
-20 -0.848982 -11.7752 -1 0 0  255 0 0 255
-20 -9.69859 6.68605 -1 0 0  255 0 0 255
-20 -10.7337 4.87541 -1 0 0  255 0 0 255
-20 0.688502 1.35707 -1 0 0  255 0 0 255
-20 3.73802 7.81366 -1 0 0  255 255 255 255
-20 8.04968 -3.94829 -1 0 0  255 0 0 255
-20 1.33967 6.85482 -1 0 0  255 255 255 255
-20 -5.05126 8.40836 -1 0 0  255 0 0 255
-20 -5.58084 0.037106 -1 0 0  255 255 255 255
-20 -7.39852 7.05354 -1 0 0  255 0 0 255
-20 -2.14514 3.72621 -1 0 0  255 255 255 255
-20 4.58559 -4.62946 -1 0 0  255 0 0 255
-20 -10.2059 -5.98907 -1 0 0  255 255 255 255
-20 -4.67636 -7.31922 -1 0 0  255 0 0 255
-20 3.70754 -7.4311 -1 0 0  255 0 0 255
-20 -1.00193 7.39325 -1 0 0  255 0 0 255
-20 11.7949 1.25904 -1 0 0  255 0 0 255
-20 10.0453 -4.51289 -1 0 0  255 0 0 255
-20 4.7851 8.55656 -1 0 0  255 255 255 255
-20 8.61766 -5.06349 -1 0 0  255 0 0 255
-20 2.93062 7.30277 -1 0 0  255 255 255 255
-20 -8.97751 6.14805 -1 0 0  255 0 0 255
-20 -2.10564 9.14857 -1 0 0  255 0 0 255
-20 -0.360064 3.34344 -1 0 0  255 255 255 255
-20 7.3209 -6.98798 -1 0 0  255 0 0 255
-20 3.60283 -0.091767 -1 0 0  255 0 0 255
-20 10.665 0.712366 -1 0 0  255 0 0 255
-20 8.4735 2.73224 -1 0 0  255 0 0 255
-20 -6.3846 -1.32874 -1 0 0  255 255 255 255
-20 -3.47698 7.18633 -1 0 0  255 0 0 255
-20 -7.61348 -3.25413 -1 0 0  255 255 255 255
-20 -4.5656 -4.75238 -1 0 0  255 0 0 255
-20 -5.67567 3.66267 -1 0 0  255 0 0 255
-20 -10.7062 0.192171 -1 0 0  255 0 0 255
-20 1.76215 -10.8543 -1 0 0  255 0 0 255
-20 -3.63928 -0.197818 -1 0 0  255 255 255 255
-20 7.55598 -9.0188 -1 0 0  255 0 0 255
-20 2.50973 6.29715 -1 0 0  255 255 255 255
-20 -9.84141 -4.78807 -1 0 0  255 255 255 255
-20 -6.3546 2.34257 -1 0 0  255 0 0 255
-20 -2.91354 7.9334 -1 0 0  255 0 0 255
-20 9.0033 3.62678 -1 0 0  255 0 0 255
-20 0.542131 7.59274 -1 0 0  255 255 255 255
-20 5.49949 0.436649 -1 0 0  255 0 0 255
-20 -11.8418 0.748759 -1 0 0  255 0 0 255
-20 -2.92487 4.90936 -1 0 0  255 255 255 255
-20 -8.53388 -5.40562 -1 0 0  255 0 0 255
-20 -9.18537 3.1839 -1 0 0  255 0 0 255
-20 6.15436 -7.39529 -1 0 0  255 0 0 255
-20 -7.19687 -7.2095 -1 0 0  255 0 0 255
-20 -5.36501 -9.57877 -1 0 0  255 0 0 255
-20 3.63115 11.2457 -1 0 0  255 0 0 255
-20 2.38807 9.37575 -1 0 0  255 255 255 255
-20 -2.16183 4.58538 -1 0 0  255 255 255 255
-20 -0.422227 8.88881 -1 0 0  255 0 0 255
-20 1.80232 -11.7172 -1 0 0  255 0 0 255
-20 -6.25754 -0.186761 -1 0 0  255 255 255 255
-20 -7.65289 9.04738 -1 0 0  255 0 0 255
-20 3.99079 3.93736 -1 0 0  255 0 0 255
-20 6.17351 0.088635 -1 0 0  255 0 0 255
-20 -1.82674 -10.8609 -1 0 0  255 0 0 255
-20 9.84009 -2.50476 -1 0 0  255 0 0 255
-20 2.80228 5.60516 -1 0 0  255 255 255 255
-20 0.553869 11.789 -1 0 0  255 0 0 255
-20 0.478673 3.4868 -1 0 0  255 255 255 255
-20 2.33561 10.6085 -1 0 0  255 0 0 255
-20 -0.246146 5.48539 -1 0 0  255 255 255 255
-20 -6.70955 5.13607 -1 0 0  255 0 0 255
-20 2.57308 11.5155 -1 0 0  255 0 0 255
-20 -6.96588 3.80286 -1 0 0  255 0 0 255
-20 -8.68293 2.2331 -1 0 0  255 0 0 255
-20 3.27264 2.18011 -1 0 0  255 0 0 255
-20 5.44974 10.5088 -1 0 0  255 255 255 255
-20 5.53267 1.41007 -1 0 0  255 0 0 255
-20 -5.59992 9.58265 -1 0 0  255 0 0 255
-20 -5.08519 -1.63455 -1 0 0  255 255 255 255
-20 -0.883296 6.03253 -1 0 0  255 255 255 255
-20 -1.43751 10.6988 -1 0 0  255 0 0 255
-20 -5.72941 5.14241 -1 0 0  255 0 0 255
-20 2.62035 2.01483 -1 0 0  255 0 0 255
-20 -1.89594 -11.6963 -1 0 0  255 0 0 255
-20 -5.68344 1.13984 -1 0 0  255 255 255 255
-20 -6.13201 -7.62468 -1 0 0  255 0 0 255
-20 11.3892 3.09549 -1 0 0  255 0 0 255
-20 9.67915 -6.76738 -1 0 0  255 0 0 255
-20 3.54721 1.21312 -1 0 0  255 0 0 255
-20 -11.8085 2.27939 -1 0 0  255 0 0 255
-20 -7.49034 -9.03853 -1 0 0  255 0 0 255
-20 -3.0957 6.16132 -1 0 0  255 0 0 255
-20 -7.66968 4.93391 -1 0 0  255 0 0 255
-20 6.02372 8.38598 -1 0 0  255 255 255 255
-20 6.12166 -0.808814 -1 0 0  255 0 0 255
-20 6.44221 1.26304 -1 0 0  255 0 0 255
-20 -3.63528 -2.06541 -1 0 0  255 0 0 255
-20 -0.085763 1.34302 -1 0 0  255 0 0 255
-20 -3.64671 -7.6092 -1 0 0  255 0 0 255
-20 3.48535 2.87179 -1 0 0  255 0 0 255
-20 -6.53387 8.01697 -1 0 0  255 0 0 255
-20 6.51671 6.16451 -1 0 0  255 0 0 255
-20 0.494302 0.282925 -1 0 0  255 0 0 255
-20 5.97928 3.67569 -1 0 0  255 0 0 255
-20 9.27594 -0.757043 -1 0 0  255 0 0 255
-20 -3.83208 9.3448 -1 0 0  255 0 0 255
-20 8.52272 -8.2494 -1 0 0  255 0 0 255
-20 -10.2114 6.06017 -1 0 0  255 0 0 255
-20 1.4025 1.89915 -1 0 0  255 0 0 255
-20 7.43101 5.19958 -1 0 0  255 0 0 255
-20 -7.41042 2.62894 -1 0 0  255 0 0 255
-20 -9.21737 -1.25019 -1 0 0  255 255 255 255
-20 6.16255 -10.133 -1 0 0  255 0 0 255
-20 2.79094 0.824211 -1 0 0  255 0 0 255
-20 8.88041 -4.10779 -1 0 0  255 0 0 255
-20 -3.4536 11.2908 -1 0 0  255 0 0 255
-20 7.42945 0.108703 -1 0 0  255 0 0 255
-20 7.33549 -8.15673 -1 0 0  255 0 0 255
-20 10.4493 3.19806 -1 0 0  255 0 0 255
-20 -3.90491 2.7327 -1 0 0  255 255 255 255
-20 -3.53734 2.05294 -1 0 0  255 255 255 255
-20 5.03606 5.34825 -1 0 0  255 0 0 255
-20 3.30294 8.64589 -1 0 0  255 255 255 255
-20 6.21462 -5.37274 -1 0 0  255 0 0 255
-20 -1.69902 1.85184 -1 0 0  255 255 255 255
-20 -6.54601 0.952157 -1 0 0  255 0 0 255
-20 8.09628 8.80333 -1 0 0  255 255 255 255
-20 -9.50947 -7.10584 -1 0 0  255 0 0 255
-20 -3.81086 0.970305 -1 0 0  255 255 255 255
-20 10.1844 -1.26955 -1 0 0  255 0 0 255
-20 2.2635 2.7295 -1 0 0  255 0 0 255
-20 -10.6902 2.60901 -1 0 0  255 0 0 255
-20 -6.71646 -2.61573 -1 0 0  255 255 255 255
-20 -7.47618 -0.287838 -1 0 0  255 255 255 255
-20 -1.85915 5.86828 -1 0 0  255 255 255 255
-20 3.62137 -3.89719 -1 0 0  255 0 0 255
-20 -2.84279 1.97289 -1 0 0  255 255 255 255
-20 4.65616 -3.52141 -1 0 0  255 0 0 255
-20 -7.24065 -5.86081 -1 0 0  255 0 0 255
-20 9.82363 6.60431 -1 0 0  255 0 0 255
-20 9.95681 4.28375 -1 0 0  255 0 0 255
-20 -6.00349 -10.2767 -1 0 0  255 0 0 255
-20 5.1138 9.77922 -1 0 0  255 255 255 255
-20 -7.99239 3.16269 -1 0 0  255 0 0 255
-20 -3.6076 -10.3045 -1 0 0  255 0 0 255
-20 9.51925 1.32691 -1 0 0  255 0 0 255
-20 -1.74152 11.7672 -1 0 0  255 0 0 255
-20 7.78242 3.62053 -1 0 0  255 0 0 255
-20 -10.19 3.71 -1 0 0  255 0 0 255
-20 8.77929 1.74026 -1 0 0  255 0 0 255
-20 7.93058 4.46884 -1 0 0  255 0 0 255
-20 3.62506 -1.94852 -1 0 0  255 0 0 255
-20 6.84861 -2.64943 -1 0 0  255 0 0 255
-20 -4.61187 -3.7911 -1 0 0  255 0 0 255
-20 -3.4991 10.4128 -1 0 0  255 0 0 255
-20 4.58103 2.17894 -1 0 0  255 0 0 255
-20 -2.58893 2.66288 -1 0 0  255 255 255 255
-20 9.22924 0.457031 -1 0 0  255 0 0 255
-20 -6.91224 5.82792 -1 0 0  255 0 0 255
-20 -0.21096 10.8439 -1 0 0  255 0 0 255
-20 3.62339 -10.2423 -1 0 0  255 0 0 255
-20 -9.14337 7.67062 -1 0 0  255 0 0 255
-20 6.24963 2.38393 -1 0 0  255 0 0 255
-20 -3.6624 -4.02582 -1 0 0  255 0 0 255
-20 0.358866 2.33962 -1 0 0  255 0 0 255
-20 2.73384 -10.7862 -1 0 0  255 0 0 255
-20 -6.99885 -1.4469 -1 0 0  255 255 255 255
-20 -0.476616 11.7703 -1 0 0  255 0 0 255
-20 -7.1869 -8.32507 -1 0 0  255 0 0 255
-20 -2.81708 -10.8116 -1 0 0  255 0 0 255
-20 11.0293 -4.38188 -1 0 0  255 0 0 255
-20 -3.09675 0.893833 -1 0 0  255 255 255 255
-20 -0.552761 2.36439 -1 0 0  255 255 255 255
-20 9.247 5.87459 -1 0 0  255 0 0 255
-20 -9.26219 0.106026 -1 0 0  255 0 0 255
-20 -8.24724 -8.50519 -1 0 0  255 0 0 255
-20 3.42665 -5.31223 -1 0 0  255 0 0 255
-20 -1.25485 0.150744 -1 0 0  255 0 0 255
-20 -7.3707 -2.14059 -1 0 0  255 255 255 255
-20 7.70069 1.54436 -1 0 0  255 0 0 255
-20 6.68379 4.30111 -1 0 0  255 0 0 255
-20 0.502561 9.77231 -1 0 0  255 0 0 255
-20 -6.14675 -5.5733 -1 0 0  255 0 0 255
-20 5.85643 -8.97112 -1 0 0  255 0 0 255
-20 -10.9094 -4.76214 -1 0 0  255 255 255 255
-20 -7.73908 1.13368 -1 0 0  255 0 0 255
-20 8.75134 -6.23809 -1 0 0  255 0 0 255
-20 4.94236 -7.88448 -1 0 0  255 0 0 255
-20 9.27996 -7.43433 -1 0 0  255 0 0 255
-20 -2.23582 0.130815 -1 0 0  255 255 255 255
-20 -9.65009 0.802511 -1 0 0  255 0 0 255
-20 6.45221 -8.11143 -1 0 0  255 0 0 255
-20 -9.52324 5.3339 -1 0 0  255 0 0 255
-20 -4.72338 2.00151 -1 0 0  255 255 255 255
-20 10.4136 1.37776 -1 0 0  255 0 0 255
-20 6.45578 10.0704 -1 0 0  255 255 255 255
-20 7.32319 6.37685 -1 0 0  255 0 0 255
-20 -10.1146 -1.69773 -1 0 0  255 255 255 255
-20 0.973509 4.97557 -1 0 0  255 255 255 255
-20 7.84401 5.63844 -1 0 0  255 0 0 255
-20 9.55628 3.43922 -1 0 0  255 0 0 255
-20 11.8063 -1.69847 -1 0 0  255 0 0 255
-20 -6.34112 -3.58378 -1 0 0  255 0 0 255
-20 8.41426 -7.07482 -1 0 0  255 0 0 255
-20 -10.4938 0.811864 -1 0 0  255 0 0 255
-20 1.81176 11.8383 -1 0 0  255 0 0 255
-20 5.285 -6.1614 -1 0 0  255 0 0 255
-20 4.43876 -9.44965 -1 0 0  255 0 0 255
-20 -7.75052 5.93777 -1 0 0  255 0 0 255
-20 -6.85224 1.59711 -1 0 0  255 0 0 255
-20 -9.12459 -7.80339 -1 0 0  255 0 0 255
-20 -4.46399 7.5737 -1 0 0  255 0 0 255
-20 6.57036 2.00217 -1 0 0  255 0 0 255
-20 -8.8426 1.25123 -1 0 0  255 0 0 255
-20 -8.66379 2.82659 -1 0 0  255 0 0 255
-20 5.64748 -4.17811 -1 0 0  255 0 0 255
-20 -1.1392 8.27652 -1 0 0  255 0 0 255
-20 -9.64714 2.8481 -1 0 0  255 0 0 255
-20 11.131 0.122675 -1 0 0  255 0 0 255
-20 11.6582 -2.77637 -1 0 0  255 0 0 255
-20 0.967091 -11.8578 -1 0 0  255 0 0 255
-20 -0.277299 -10.6835 -1 0 0  255 0 0 255
-20 3.67791 6.59988 -1 0 0  255 255 255 255
-20 -1.66427 9.44981 -1 0 0  255 0 0 255
-20 5.17527 -10.8122 -1 0 0  255 0 0 255
-20 -8.79951 -4.41907 -1 0 0  255 255 255 255
-20 -8.2237 5.14418 -1 0 0  255 0 0 255
-20 0.130521 4.54983 -1 0 0  255 255 255 255
-20 8.76321 -2.89129 -1 0 0  255 0 0 255
-20 -4.47553 -2.27358 -1 0 0  255 0 0 255
-20 -4.31079 -0.007697 -1 0 0  255 255 255 255
-20 -8.60938 -6.50122 -1 0 0  255 0 0 255
-20 1.80638 7.25981 -1 0 0  255 255 255 255
-20 -3.60131 -5.61441 -1 0 0  255 0 0 255
-20 9.11083 -3.26441 -1 0 0  255 0 0 255
-20 5.66614 -5.13757 -1 0 0  255 0 0 255
-20 -7.96337 -2.85307 -1 0 0  255 255 255 255
-20 8.30377 3.34918 -1 0 0  255 0 0 255
-20 2.78235 6.65334 -1 0 0  255 255 255 255
-20 -5.78202 -9.04428 -1 0 0  255 0 0 255
-20 -5.58654 -4.45727 -1 0 0  255 0 0 255
-20 -11.7416 -2.22264 -1 0 0  255 255 255 255
-20 -0.251973 -12.1136 -1 0 0  255 0 0 255
-20 -8.55109 4.02375 -1 0 0  255 0 0 255
-20 7.11224 0.81988 -1 0 0  255 0 0 255
-20 -5.22637 -6.36544 -1 0 0  255 0 0 255
-20 1.69566 0.864292 -1 0 0  255 0 0 255
-20 11.8988 -0.014919 -1 0 0  255 0 0 255
-20 -1.03717 4.8936 -1 0 0  255 255 255 255
-20 2.23395 0.130631 -1 0 0  255 0 0 255
-20 -8.29121 -7.36649 -1 0 0  255 0 0 255
-20 3.5307 -8.93174 -1 0 0  255 0 0 255
-20 5.84931 -6.36149 -1 0 0  255 0 0 255
-20 8.15115 -3.09163 -1 0 0  255 0 0 255
-20 -11.1384 -0.408718 -1 0 0  255 0 0 255
-20 -4.15624 6.38166 -1 0 0  255 0 0 255
-20 4.41007 -5.73345 -1 0 0  255 0 0 255
-20 11.2872 -3.83032 -1 0 0  255 0 0 255
-20 -5.10547 -10.8139 -1 0 0  255 0 0 255
-20 -2.77827 3.17021 -1 0 0  255 255 255 255
-20 4.74959 1.24998 -1 0 0  255 0 0 255
-20 4.20759 10.1212 -1 0 0  255 255 255 255
-20 -4.49145 10.2216 -1 0 0  255 0 0 255
-20 -6.36051 -8.19696 -1 0 0  255 0 0 255
-20 6.63892 -9.82955 -1 0 0  255 0 0 255
-20 7.21752 -5.65676 -1 0 0  255 0 0 255
-20 8.84401 8.00119 -1 0 0  255 0 0 255
-20 1.01014 -10.8473 -1 0 0  255 0 0 255
-20 3.01011 4.49745 -1 0 0  255 0 0 255
-20 6.81545 -6.59512 -1 0 0  255 0 0 255
-20 7.82292 -5.8397 -1 0 0  255 0 0 255
-20 0.76165 10.2979 -1 0 0  255 0 0 255
-20 0.802798 7.09521 -1 0 0  255 255 255 255
-20 -3.25979 6.58279 -1 0 0  255 0 0 255
-20 8.07035 -4.93974 -1 0 0  255 0 0 255
-20 4.23113 0.057745 -1 0 0  255 0 0 255
-20 2.53993 8.08138 -1 0 0  255 255 255 255
-20 8.01653 7.49704 -1 0 0  255 0 0 255
-20 -7.17213 0.469293 -1 0 0  255 0 0 255
-20 -11.1782 -4.24005 -1 0 0  255 255 255 255
-20 6.43928 -8.99244 -1 0 0  255 0 0 255
-20 -5.27275 10.5701 -1 0 0  255 0 0 255
-20 -5.36543 -2.76202 -1 0 0  255 0 0 255
-20 3.4262 9.68353 -1 0 0  255 255 255 255
-20 8.09401 -0.855356 -1 0 0  255 0 0 255
-20 0.01437 8.70087 -1 0 0  255 0 0 255
-20 -9.77897 -2.55853 -1 0 0  255 255 255 255
-20 -6.6916 -4.15215 -1 0 0  255 0 0 255
-20 -4.84951 -7.69579 -1 0 0  255 0 0 255
-20 -6.5403 -9.99931 -1 0 0  255 0 0 255
-20 -5.59998 -5.36646 -1 0 0  255 0 0 255
-20 6.28159 4.98694 -1 0 0  255 0 0 255
-20 -0.172558 7.94379 -1 0 0  255 0 0 255
-20 -4.87015 1.04903 -1 0 0  255 255 255 255
-20 7.24742 -1.6407 -1 0 0  255 0 0 255
-20 7.32001 9.50691 -1 0 0  255 255 255 255
-20 -5.41417 -1.16089 -1 0 0  255 255 255 255
-20 -5.77116 -6.56773 -1 0 0  255 0 0 255
-20 -4.3682 -5.94918 -1 0 0  255 0 0 255
-20 -11.8979 -0.563955 -1 0 0  255 0 0 255
-20 -5.15838 -8.35867 -1 0 0  255 0 0 255
-20 -8.62241 7.32581 -1 0 0  255 0 0 255
-20 7.79933 -2.18743 -1 0 0  255 0 0 255
-20 -3.90481 8.35264 -1 0 0  255 0 0 255
-20 -8.4744 8.44805 -1 0 0  255 0 0 255
-20 -8.52634 -0.906056 -1 0 0  255 255 255 255
-20 -6.22846 3.29902 -1 0 0  255 0 0 255
-20 -11.5433 -3.24306 -1 0 0  255 255 255 255
-20 -3.8053 3.65024 -1 0 0  255 255 255 255
-20 5.43876 -0.888764 -1 0 0  255 0 0 255
-20 5.4785 -8.23545 -1 0 0  255 0 0 255
-20 -8.11852 -1.2517 -1 0 0  255 255 255 255
-20 -6.66299 -6.70144 -1 0 0  255 0 0 255
-20 4.67459 -8.79336 -1 0 0  255 0 0 255
-20 -1.32115 0.774964 -1 0 0  255 0 0 255
-20 10.0162 -3.97175 -1 0 0  255 0 0 255
-20 4.35402 3.24249 -1 0 0  255 0 0 255
-20 -4.8032 8.92154 -1 0 0  255 0 0 255
-20 2.72097 -11.6486 -1 0 0  255 0 0 255
-20 10.8335 -2.1606 -1 0 0  255 0 0 255
-20 -7.74663 -6.28251 -1 0 0  255 0 0 255
-20 -3.50686 -8.93174 -1 0 0  255 0 0 255
-20 4.8736 3.26052 -1 0 0  255 0 0 255
-20 5.60882 -9.62395 -1 0 0  255 0 0 255
-20 9.81716 4.87912 -1 0 0  255 0 0 255
-20 -1.28818 7.0066 -1 0 0  255 0 0 255
-20 1.35677 11.0356 -1 0 0  255 0 0 255
-20 4.04153 2.73854 -1 0 0  255 0 0 255
-20 -10.0863 4.30395 -1 0 0  255 0 0 255
-20 -0.259507 6.59959 -1 0 0  255 255 255 255
-20 -1.92589 10.2579 -1 0 0  255 0 0 255
-20 3.67172 -11.3945 -1 0 0  255 0 0 255
-20 10.5698 -3.28395 -1 0 0  255 0 0 255
-20 4.09037 5.92919 -1 0 0  255 255 255 255
-20 4.80477 10.9253 -1 0 0  255 255 255 255
-20 4.2584 -2.96945 -1 0 0  255 0 0 255
-20 -3.60259 -2.986 -1 0 0  255 0 0 255
-20 -10.7241 -2.62217 -1 0 0  255 255 255 255
-20 -6.44945 10.0491 -1 0 0  255 0 0 255
-20 -9.36864 -3.65092 -1 0 0  255 255 255 255
-20 -11.2065 4.17626 -1 0 0  255 0 0 255
-20 -2.02426 0.873467 -1 0 0  255 255 255 255
-20 10.3582 -6.07174 -1 0 0  255 0 0 255
-20 -0.631967 11.2563 -1 0 0  255 0 0 255
-20 2.22707 3.55691 -1 0 0  255 0 0 255
-20 -4.6771 3.14296 -1 0 0  255 255 255 255
-20 -6.7123 4.31087 -1 0 0  255 0 0 255
-20 -6.00028 4.31075 -1 0 0  255 0 0 255
-20 6.11223 -3.3459 -1 0 0  255 0 0 255
-20 8.8792 -1.63691 -1 0 0  255 0 0 255
-20 -6.36088 -9.10666 -1 0 0  255 0 0 255
-20 3.53191 -2.81346 -1 0 0  255 0 0 255
-20 1.17723 3.11767 -1 0 0  255 0 0 255
-20 -9.97971 -4.34388 -1 0 0  255 255 255 255
-20 7.21664 8.27476 -1 0 0  255 255 255 255
-20 6.79276 8.67191 -1 0 0  255 255 255 255
-20 -2.89606 7.40818 -1 0 0  255 0 0 255
-20 3.28818 -10.7098 -1 0 0  255 0 0 255
-20 -3.78372 1.62132 -1 0 0  255 255 255 255
-20 4.67544 -4.11355 -1 0 0  255 0 0 255
-20 -2.26731 6.7611 -1 0 0  255 0 0 255
-20 -5.17505 3.06112 -1 0 0  255 0 0 255
-20 -1.31237 -11.8932 -1 0 0  255 0 0 255
-20 -10.6243 3.5123 -1 0 0  255 0 0 255
-20 5.14631 -7.30347 -1 0 0  255 0 0 255
-20 -1.29008 -10.7161 -1 0 0  255 0 0 255
-20 3.5477 -6.39951 -1 0 0  255 0 0 255
-20 4.25557 -11.2033 -1 0 0  255 0 0 255
-20 3.5872 1.81221 -1 0 0  255 0 0 255
-20 -8.85194 -1.99181 -1 0 0  255 255 255 255
-20 8.46833 -0.565459 -1 0 0  255 0 0 255
-20 -1.98053 8.03787 -1 0 0  255 0 0 255
-20 3.18295 10.5263 -1 0 0  255 0 0 255
-20 -0.326237 0.850319 -1 0 0  255 0 0 255
-20 10.7621 5.15264 -1 0 0  255 0 0 255
-20 4.40382 -0.965343 -1 0 0  255 0 0 255
-20 6.4003 7.17779 -1 0 0  255 0 0 255
-20 4.46708 -0.425912 -1 0 0  255 0 0 255
-20 9.43316 -2.21626 -1 0 0  255 0 0 255
-20 4.15542 7.44724 -1 0 0  255 255 255 255
-20 10.4987 4.16543 -1 0 0  255 0 0 255
-20 0.314776 1.69873 -1 0 0  255 0 0 255
-20 6.89331 -0.91983 -1 0 0  255 0 0 255
-20 -7.30445 8.27392 -1 0 0  255 0 0 255
-20 -7.77566 7.83283 -1 0 0  255 0 0 255
-20 -7.14679 -5.09305 -1 0 0  255 0 0 255
-20 -10.522 -3.67248 -1 0 0  255 255 255 255
-20 -6.86626 6.82817 -1 0 0  255 0 0 255
-20 5.06826 -0.394096 -1 0 0  255 0 0 255
-20 -4.74094 -4.27691 -1 0 0  255 0 0 255
-20 8.16532 -7.88036 -1 0 0  255 0 0 255
-20 -4.13081 -3.06877 -1 0 0  255 0 0 255
-20 9.186 -5.18044 -1 0 0  255 0 0 255
-20 -2.74149 -11.6704 -1 0 0  255 0 0 255
-20 -0.500645 10.2341 -1 0 0  255 0 0 255
-20 7.37025 2.67684 -1 0 0  255 0 0 255
-20 6.67353 -2.23116 -1 0 0  255 0 0 255
-20 -2.69697 9.09474 -1 0 0  255 0 0 255
-20 -6.12773 -0.899518 -1 0 0  255 255 255 255
-20 7.94454 2.45018 -1 0 0  255 0 0 255
-20 11.6934 2.5343 -1 0 0  255 0 0 255
-20 -7.77805 6.62214 -1 0 0  255 0 0 255
-20 10.4051 2.41024 -1 0 0  255 0 0 255
-20 8.74072 4.34364 -1 0 0  255 0 0 255
-20 -4.84757 -9.83626 -1 0 0  255 0 0 255
-20 6.16826 9.53386 -1 0 0  255 255 255 255
-20 -4.95265 5.75616 -1 0 0  255 0 0 255
-20 -3.43141 9.82657 -1 0 0  255 0 0 255
-20 4.10028 5.0366 -1 0 0  255 0 0 255
-20 7.45602 4.69606 -1 0 0  255 0 0 255
-20 -3.48753 2.94797 -1 0 0  255 255 255 255
-20 -4.33861 2.45738 -1 0 0  255 255 255 255
-20 -9.59972 7.24473 -1 0 0  255 0 0 255
-20 -4.48876 -0.574986 -1 0 0  255 255 255 255
-20 -2.78077 3.72437 -1 0 0  255 255 255 255
-20 1.73912 5.88279 -1 0 0  255 255 255 255
-20 0.812166 5.50414 -1 0 0  255 255 255 255
-20 -1.22252 1.58413 -1 0 0  255 255 255 255
-20 9.46846 2.56795 -1 0 0  255 0 0 255
-20 -4.34386 -1.1937 -1 0 0  255 255 255 255
-20 3.6468 9.16206 -1 0 0  255 255 255 255
-20 4.64056 4.95315 -1 0 0  255 0 0 255
-20 2.04575 4.34682 -1 0 0  255 255 255 255
-20 -3.653 -11.4199 -1 0 0  255 0 0 255
-20 -3.52175 4.682 -1 0 0  255 255 255 255
-20 5.17903 2.80297 -1 0 0  255 0 0 255
-20 -8.12347 2.06731 -1 0 0  255 0 0 255
-20 8.73094 6.23231 -1 0 0  255 0 0 255
-20 -3.53662 -6.66605 -1 0 0  255 0 0 255
-20 3.28894 3.22113 -1 0 0  255 0 0 255
-20 -10.6058 -5.68555 -1 0 0  255 255 255 255
-20 -7.94697 -8.09216 -1 0 0  255 0 0 255
-20 -9.04495 -5.48327 -1 0 0  255 255 255 255
-20 5.49587 5.65611 -1 0 0  255 0 0 255
-20 -2.0494 2.5234 -1 0 0  255 255 255 255
-20 -5.10392 -0.589604 -1 0 0  255 255 255 255
-20 4.85845 6.40431 -1 0 0  255 255 255 255
-20 0.916999 7.96593 -1 0 0  255 255 255 255
-20 11.9516 -0.618466 -1 0 0  255 0 0 255
-20 9.90603 5.43872 -1 0 0  255 0 0 255
-20 -0.664089 0.085927 -1 0 0  255 0 0 255
-20 -9.61542 2.04248 -1 0 0  255 0 0 255
-20 -10.5212 1.79113 -1 0 0  255 0 0 255
-20 8.11776 -8.9776 -1 0 0  255 0 0 255
-20 -6.58717 9.076 -1 0 0  255 0 0 255
-20 -8.98274 -3.27677 -1 0 0  255 255 255 255
-20 -6.14077 -1.95831 -1 0 0  255 255 255 255
-20 3.45362 -0.654647 -1 0 0  255 0 0 255
-20 -5.27524 6.14755 -1 0 0  255 0 0 255
-20 -10.133 -6.47617 -1 0 0  255 255 255 255
-20 2.19186 -10.6492 -1 0 0  255 0 0 255
-20 1.59431 9.91385 -1 0 0  255 0 0 255
-20 -1.82339 4.20366 -1 0 0  255 255 255 255
-20 -4.29718 5.06635 -1 0 0  255 0 0 255
-20 11.0853 -0.82591 -1 0 0  255 0 0 255
-20 -2.48155 5.08491 -1 0 0  255 255 255 255
-20 -5.07414 4.11065 -1 0 0  255 0 0 255
-20 3.21159 11.543 -1 0 0  255 0 0 255
-20 3.27646 5.2835 -1 0 0  255 255 255 255
-20 4.95919 8.01945 -1 0 0  255 255 255 255
-20 5.74377 -7.12933 -1 0 0  255 0 0 255
-20 -5.22267 4.9297 -1 0 0  255 0 0 255
-20 5.60071 7.89926 -1 0 0  255 255 255 255
-20 -3.46626 -0.551061 -1 0 0  255 255 255 255
-20 -5.41201 2.58469 -1 0 0  255 0 0 255
-20 9.48363 -0.323827 -1 0 0  255 0 0 255
-20 7.17585 3.62895 -1 0 0  255 0 0 255
-20 0.44489 11.228 -1 0 0  255 0 0 255
-20 7.75283 8.31567 -1 0 0  255 255 255 255
-20 7.32818 -8.59708 -1 0 0  255 0 0 255
-20 -8.99872 3.74544 -1 0 0  255 0 0 255
-20 -4.5593 6.74948 -1 0 0  255 0 0 255
-20 10.0341 -0.240846 -1 0 0  255 0 0 255
-20 0.502457 8.84476 -1 0 0  255 0 0 255
-20 -6.74669 3.37728 -1 0 0  255 0 0 255
-20 -10.2122 4.85887 -1 0 0  255 0 0 255
-20 0.143223 3.18123 -1 0 0  255 255 255 255
-20 1.85089 1.49712 -1 0 0  255 0 0 255
-20 -10.9648 -1.33034 -1 0 0  255 255 255 255
-20 -2.23887 -10.6586 -1 0 0  255 0 0 255
-20 9.47533 0.827155 -1 0 0  255 0 0 255
-20 4.79205 4.36037 -1 0 0  255 0 0 255
-20 -8.11664 -1.76865 -1 0 0  255 255 255 255
-20 -5.53264 7.74434 -1 0 0  255 0 0 255
-20 -11.6889 2.79205 -1 0 0  255 0 0 255
-20 -6.10142 7.56839 -1 0 0  255 0 0 255
-20 5.42341 6.29187 -1 0 0  255 0 0 255
-20 -11.9316 -1.14919 -1 0 0  255 0 0 255
-20 2.40673 7.53759 -1 0 0  255 255 255 255
-20 -5.65464 8.37837 -1 0 0  255 0 0 255
-20 10.8236 -5.24021 -1 0 0  255 0 0 255
-20 -7.99724 -0.205904 -1 0 0  255 255 255 255
-20 3.8162 4.38738 -1 0 0  255 0 0 255
-20 -10.0064 -3.00144 -1 0 0  255 255 255 255
-20 -5.68211 -3.79373 -1 0 0  255 0 0 255
-20 -1.10055 3.59189 -1 0 0  255 255 255 255
-20 7.95802 0.192734 -1 0 0  255 0 0 255
-20 -5.89452 5.97616 -1 0 0  255 0 0 255
-20 -9.05185 5.64995 -1 0 0  255 0 0 255
-20 -2.10267 1.47744 -1 0 0  255 255 255 255
-20 5.99332 10.4881 -1 0 0  255 255 255 255
-20 4.25738 9.14008 -1 0 0  255 255 255 255
-20 -0.659813 5.63778 -1 0 0  255 255 255 255
-20 6.82787 -3.81529 -1 0 0  255 0 0 255
-20 4.10909 -10.3923 -1 0 0  255 0 0 255
-20 4.1594 -6.37655 -1 0 0  255 0 0 255
-20 -0.412821 4.28019 -1 0 0  255 255 255 255
-20 -12.0531 0.313988 -1 0 0  255 0 0 255
-20 6.61531 0.809335 -1 0 0  255 0 0 255
-20 -3.31641 -10.6512 -1 0 0  255 0 0 255
-20 10.2154 0.427434 -1 0 0  255 0 0 255
-20 5.65938 7.05315 -1 0 0  255 255 255 255
-20 4.52881 9.68546 -1 0 0  255 255 255 255
-20 0.052545 11.9803 -1 0 0  255 0 0 255
-20 4.14193 1.85851 -1 0 0  255 0 0 255
-20 4.9029 -10.2945 -1 0 0  255 0 0 255
-20 -1.0986 2.61735 -1 0 0  255 255 255 255
-20 1.32029 0.04344 -1 0 0  255 0 0 255
-20 0.73536 9.33804 -1 0 0  255 0 0 255
-20 -5.69683 -7.31884 -1 0 0  255 0 0 255
-20 -6.69575 0.495273 -1 0 0  255 255 255 255
-20 11.107 -2.66433 -1 0 0  255 0 0 255
-20 4.12181 8.23744 -1 0 0  255 255 255 255
-20 -6.11743 6.72467 -1 0 0  255 0 0 255
-20 9.6199 -1.21506 -1 0 0  255 0 0 255
-20 12.0231 0.837257 -1 0 0  255 0 0 255
-20 -11.538 3.33565 -1 0 0  255 0 0 255
-20 5.18745 8.85592 -1 0 0  255 255 255 255
-20 -7.61848 2.18155 -1 0 0  255 0 0 255
-20 -4.38881 11.1692 -1 0 0  255 0 0 255
-20 0.331156 10.6887 -1 0 0  255 0 0 255
-20 -4.45532 1.65455 -1 0 0  255 255 255 255
-20 6.67848 -7.07797 -1 0 0  255 0 0 255
-20 0.885016 2.49051 -1 0 0  255 0 0 255
-20 -4.16396 -11.2721 -1 0 0  255 0 0 255
-20 5.70737 0.901877 -1 0 0  255 0 0 255
-20 5.01464 0.391321 -1 0 0  255 0 0 255
-20 11.9302 1.73263 -1 0 0  255 0 0 255
-20 7.38761 -7.59699 -1 0 0  255 0 0 255
-20 7.10166 -3.17646 -1 0 0  255 0 0 255
-20 -2.72667 9.64516 -1 0 0  255 0 0 255
-20 9.2464 -6.37745 -1 0 0  255 0 0 255
-20 -9.45184 -0.78716 -1 0 0  255 255 255 255
-20 -1.08094 9.59291 -1 0 0  255 0 0 255
-20 5.76093 2.75456 -1 0 0  255 0 0 255
-20 -0.053931 9.83434 -1 0 0  255 0 0 255
-20 -2.33923 11.8384 -1 0 0  255 0 0 255
-20 -5.59869 1.66394 -1 0 0  255 0 0 255
-20 -4.39018 9.66312 -1 0 0  255 0 0 255
-20 -10.0685 -0.734909 -1 0 0  255 0 0 255
-20 -10.2626 -0.093735 -1 0 0  255 0 0 255
-20 -1.43449 3.12934 -1 0 0  255 255 255 255
-20 -4.05871 -10.4634 -1 0 0  255 0 0 255
-20 -5.80887 0.663535 -1 0 0  255 255 255 255
-20 -5.14791 0.203659 -1 0 0  255 255 255 255
-20 -0.673903 1.86824 -1 0 0  255 0 0 255
-20 5.4391 1.91448 -1 0 0  255 0 0 255
-20 -9.56536 -1.65991 -1 0 0  255 255 255 255
-20 9.25141 4.78115 -1 0 0  255 0 0 255
-20 9.89525 -5.79117 -1 0 0  255 0 0 255
-20 -4.85541 -2.72879 -1 0 0  255 0 0 255
-20 0.715449 0.841207 -1 0 0  255 0 0 255
-20 5.63206 4.75037 -1 0 0  255 0 0 255
-20 -4.12503 -6.5632 -1 0 0  255 0 0 255
-20 -1.36703 5.91203 -1 0 0  255 255 255 255
-20 5.26925 -2.79569 -1 0 0  255 0 0 255
-20 -9.55524 4.24624 -1 0 0  255 0 0 255
-20 -1.26458 4.07048 -1 0 0  255 255 255 255
-20 1.06741 4.17524 -1 0 0  255 255 255 255
-20 -11.0241 -3.07018 -1 0 0  255 255 255 255
-20 -7.19633 -8.74617 -1 0 0  255 0 0 255
-20 -6.57277 -7.24936 -1 0 0  255 0 0 255
-20 2.47292 3.12661 -1 0 0  255 0 0 255
-20 -0.943663 7.90511 -1 0 0  255 0 0 255
-20 -11.9189 1.76568 -1 0 0  255 0 0 255
-20 -8.03511 -8.94602 -1 0 0  255 0 0 255
-20 4.25262 -2.01782 -1 0 0  255 0 0 255
-20 5.73636 -2.65893 -1 0 0  255 0 0 255
-20 -6.95527 9.85373 -1 0 0  255 0 0 255
-20 5.0359 2.30533 -1 0 0  255 0 0 255
-20 5.65165 -3.61347 -1 0 0  255 0 0 255
-20 5.77467 -10.5411 -1 0 0  255 0 0 255
-20 -1.09311 11.1399 -1 0 0  255 0 0 255
-20 -6.14348 2.8066 -1 0 0  255 0 0 255
-20 3.2999 7.61459 -1 0 0  255 255 255 255
-20 -7.22893 -7.81449 -1 0 0  255 0 0 255
-20 6.4828 7.6824 -1 0 0  255 255 255 255
-20 1.54122 9.02277 -1 0 0  255 255 255 255
-20 -8.09621 8.89243 -1 0 0  255 0 0 255
-20 7.58325 -4.0683 -1 0 0  255 0 0 255
-20 -3.99626 7.42347 -1 0 0  255 0 0 255
-20 9.49182 3.97204 -1 0 0  255 0 0 255
-20 7.30284 -5.03102 -1 0 0  255 0 0 255
-20 11.0807 0.698749 -1 0 0  255 0 0 255
-20 -5.66342 -10.6635 -1 0 0  255 0 0 255
-20 6.25029 -1.26117 -1 0 0  255 0 0 255
-20 -9.80724 3.37139 -1 0 0  255 0 0 255
-20 6.02172 -7.90267 -1 0 0  255 0 0 255
-20 10.8761 -0.350483 -1 0 0  255 0 0 255
-20 -7.15856 5.04825 -1 0 0  255 0 0 255
-20 0.24815 -10.6178 -1 0 0  255 0 0 255
-20 10.131 -6.62114 -1 0 0  255 0 0 255
-20 -2.76359 0.079076 -1 0 0  255 255 255 255
-20 7.73889 -3.42234 -1 0 0  255 0 0 255
-20 11.2831 3.97469 -1 0 0  255 0 0 255
-20 -9.08196 -6.65245 -1 0 0  255 0 0 255
-20 3.43347 -6.9922 -1 0 0  255 0 0 255
-20 -4.10645 10.4534 -1 0 0  255 0 0 255
-20 0.181825 6.22765 -1 0 0  255 255 255 255
-20 10.4725 6.04257 -1 0 0  255 0 0 255
-20 7.04663 -0.137674 -1 0 0  255 0 0 255
-20 3.44004 -7.88521 -1 0 0  255 0 0 255
-20 -5.2394 2.11777 -1 0 0  255 0 0 255
-20 -11.1211 0.168326 -1 0 0  255 0 0 255
-20 6.90779 5.38149 -1 0 0  255 0 0 255
-20 -7.7195 -2.40272 -1 0 0  255 255 255 255
