ply
format ascii 1.0
comment VCGLIB generated
element vertex 1062
property float x
property float y
property float z
property float nx
property float ny
property float nz
property uchar red
property uchar green
property uchar blue
property uchar alpha
element face 0
property list uchar int vertex_indices
end_header
-209.205 95.8282 114.719 0.455018 0.890482 0  255 255 255 255
-213.199 97.8693 68.5876 0.455018 0.890482 0  255 0 0 255
-213.218 97.879 152.458 0.455018 0.890482 0  255 0 0 255
-209.182 95.8164 112.688 0.455018 0.890482 0  255 255 255 255
-213.202 97.8708 70.5736 0.455018 0.890482 0  255 0 0 255
-213.2 97.8698 48.4451 0.455018 0.890482 0  255 0 0 255
-211.192 96.8435 81.2912 0.455018 0.890482 0  255 0 0 255
-211.195 96.8452 32.7466 0.455018 0.890482 0  255 0 0 255
-212.515 97.5196 108.766 0.455018 0.890482 0  255 255 255 255
-155.704 94.3929 119.611 0 1 0  255 0 0 255
-155.363 94.3929 50.5561 0 1 0  255 0 0 255
-169.241 94.3929 85 0 1 0  255 255 255 255
-138.109 94.3929 93.2084 0 1 0  255 255 255 255
-177.191 94.3929 140.766 0 1 0  255 0 0 255
-176.703 94.3929 29.3511 0 1 0  255 0 0 255
-135.397 94.3929 140.708 0 1 0  255 0 0 255
-135.289 94.3929 29.437 0 1 0  255 0 0 255
-133.602 94.3929 66.0709 0 1 0  255 0 0 255
-179.644 94.3929 109.151 0 1 0  255 255 255 255
-179.999 94.3929 61.0504 0 1 0  255 0 0 255
-130.74 94.3929 116.883 0 1 0  255 0 0 255
-156.404 94.3929 148.075 0 1 0  255 0 0 255
-156.212 94.3929 21.9977 0 1 0  255 0 0 255
-153.618 94.3929 71.1516 0 1 0  255 0 0 255
-126.773 94.3929 47.497 0 1 0  255 0 0 255
-156.263 94.3929 100.317 0 1 0  255 255 255 255
-187.277 94.3929 90.9796 0 1 0  255 255 255 255
-188.041 94.3929 125.803 0 1 0  255 255 255 255
-187.809 94.3929 44.2277 0 1 0  255 0 0 255
-124.208 94.3929 81.5655 0 1 0  255 255 255 255
-189.575 94.3929 17.078 0 1 0  255 0 0 255
-123.335 94.3929 17.1003 0 1 0  255 0 0 255
-189.575 94.3929 152.922 0 1 0  255 0 0 255
-123.252 94.3929 152.772 0 1 0  255 0 0 255
-123.323 94.3929 101.143 0 1 0  255 0 0 255
-189.393 94.3929 74.5778 0 1 0  255 0 0 255
-121.817 94.3929 130.771 0 1 0  255 0 0 255
-171.591 94.3929 125.234 0 1 0  255 0 0 255
-171.332 94.3929 44.8854 0 1 0  255 0 0 255
-141.712 94.3929 43.9096 0 1 0  255 0 0 255
-149.547 94.3929 133.907 0 1 0  255 0 0 255
-170.147 94.3929 154.437 0 1 0  255 0 0 255
-170.215 94.3929 15.4371 0 1 0  255 0 0 255
-142.208 94.3929 154.563 0 1 0  255 0 0 255
-142.208 94.3929 15.4371 0 1 0  255 0 0 255
-144.724 94.3929 110.182 0 1 0  255 0 0 255
-151.627 94.3929 85.7001 0 1 0  255 255 255 255
-121.006 94.3929 33.2004 0 1 0  255 0 0 255
-164.974 94.3929 61.8148 0 1 0  255 0 0 255
-159.723 94.3929 36.2222 0 1 0  255 0 0 255
-120.577 94.3929 60.3694 0 1 0  255 0 0 255
-139.154 94.3929 79.0846 0 1 0  255 255 255 255
-192.33 94.3929 139.065 0 1 0  255 0 0 255
-192.33 94.3929 30.9349 0 1 0  255 0 0 255
-166.838 94.3929 110.254 0 1 0  255 255 255 255
-145.906 94.3929 59.5171 0 1 0  255 0 0 255
-162.986 94.3929 136.34 0 1 0  255 0 0 255
-192.848 94.3929 103.558 0 1 0  255 255 255 255
-192.919 94.3929 56.7992 0 1 0  255 0 0 255
-171.733 94.3929 98.2685 0 1 0  255 255 255 255
-176.588 94.3929 73.8958 0 1 0  255 0 0 255
-142.273 94.3929 123.052 0 1 0  255 0 0 255
-148.104 94.3929 31.5339 0 1 0  255 0 0 255
-118.521 94.3929 112.809 0 1 0  255 0 0 255
-118.023 94.3929 141.956 0 1 0  255 0 0 255
-194.501 94.3929 115.624 0 1 0  255 255 255 255
-117.792 94.3929 71.4022 0 1 0  255 255 255 255
-135.297 94.3929 54.6964 0 1 0  255 0 0 255
-134.318 94.3929 104.3 0 1 0  255 0 0 255
-117.491 94.3929 91.0501 0 1 0  255 255 255 255
-164.503 94.3929 74.3125 0 1 0  255 0 0 255
-159.721 94.3929 158.738 0 1 0  255 0 0 255
-159.66 94.3929 11.1858 0 1 0  255 0 0 255
-133.5 94.3929 129.665 0 1 0  255 0 0 255
-166.14 94.3929 26.9952 0 1 0  255 0 0 255
-132.328 94.3929 158.844 0 1 0  255 0 0 255
-180.374 94.3929 158.903 0 1 0  255 0 0 255
-180.374 94.3929 11.0971 0 1 0  255 0 0 255
-132.918 94.3929 10.8087 0 1 0  255 0 0 255
-145.934 94.3929 144.211 0 1 0  255 0 0 255
-195.483 94.3929 83.988 0 1 0  255 255 255 255
-116.575 94.3929 42.8106 0 1 0  255 0 0 255
-179.971 94.3929 84.11 0 1 0  255 255 255 255
-143.701 94.3929 69.5389 0 1 0  255 0 0 255
-127.782 94.3929 91.3283 0 1 0  255 255 255 255
-146.397 94.3929 99.5512 0 1 0  255 255 255 255
-196.119 94.3929 66.729 0 1 0  255 0 0 255
-161.017 94.3929 90.8062 0 1 0  255 255 255 255
-179.813 94.3929 118.915 0 1 0  255 255 255 255
-179.849 94.3929 50.7447 0 1 0  255 0 0 255
-132.431 94.3929 39.1454 0 1 0  255 0 0 255
-196.327 94.3929 10.0794 0 1 0  255 0 0 255
-116.096 94.3929 10.0794 0 1 0  255 0 0 255
-196.327 94.3929 159.921 0 1 0  255 0 0 255
-116 94.3929 159.813 0 1 0  255 0 0 255
-116.139 94.3929 122.788 0 1 0  255 0 0 255
-116.229 94.3929 24.1549 0 1 0  255 0 0 255
-151.586 94.3929 41.3894 0 1 0  255 0 0 255
-154.568 94.3929 109.969 0 1 0  255 255 255 255
-167.907 94.3929 144.862 0 1 0  255 0 0 255
-179.573 94.3929 131.092 0 1 0  255 0 0 255
-179.573 94.3929 38.9077 0 1 0  255 0 0 255
-196.518 94.3929 94.3235 0 1 0  255 255 255 255
-150.382 94.3929 160.088 0 1 0  255 0 0 255
-149.959 94.3929 9.94739 0 1 0  255 0 0 255
-155.506 94.3929 59.9844 0 1 0  255 0 0 255
-196.701 94.3929 130.001 0 1 0  255 255 255 255
-196.591 94.3929 39.7645 0 1 0  255 0 0 255
-181.85 94.3929 99.3104 0 1 0  255 255 255 255
-180.233 94.3929 20.4502 0 1 0  255 0 0 255
-179.946 94.3929 149.125 0 1 0  255 0 0 255
-132.448 94.3929 20.6828 0 1 0  255 0 0 255
-132.352 94.3929 149.502 0 1 0  255 0 0 255
-165.554 94.3929 52.1652 0 1 0  255 0 0 255
-115.501 94.3929 52.2513 0 1 0  255 0 0 255
-196.867 94.3929 22.6063 0 1 0  255 0 0 255
-196.867 94.3929 147.394 0 1 0  255 0 0 255
-169.877 94.3929 35.5405 0 1 0  255 0 0 255
-127.062 94.3929 72.3519 0 1 0  255 255 255 255
-162.234 94.3929 126.833 0 1 0  255 0 0 255
-115.217 94.3929 80.5632 0 1 0  255 255 255 255
-126.787 94.3929 138.884 0 1 0  255 0 0 255
-159.459 94.3929 81.5695 0 1 0  255 255 255 255
-197.305 94.3929 48.8314 0 1 0  255 0 0 255
-147.856 94.3929 77.5764 0 1 0  255 255 255 255
-147.313 94.3929 22.7658 0 1 0  255 0 0 255
-114.932 94.3929 104.736 0 1 0  255 0 0 255
-147.435 94.3929 50.5275 0 1 0  255 0 0 255
-114.859 94.3929 150.215 0 1 0  255 0 0 255
-187.28 94.3929 66.2422 0 1 0  255 0 0 255
-125.416 94.3929 25.9619 0 1 0  255 0 0 255
-165.764 94.3929 118.819 0 1 0  255 255 255 255
-173.018 94.3929 66.1607 0 1 0  255 0 0 255
-140.783 94.3929 134.074 0 1 0  255 0 0 255
-171.038 94.3929 134.003 0 1 0  255 0 0 255
-173.178 94.3929 56.0715 0 1 0  255 0 0 255
-126.411 94.3929 109.305 0 1 0  255 0 0 255
-114.556 94.3929 134.147 0 1 0  255 0 0 255
-163.201 94.3929 43.741 0 1 0  255 0 0 255
-124.612 94.3929 122.587 0 1 0  255 0 0 255
-188.665 94.3929 8.20022 0 1 0  255 0 0 255
-124.132 94.3929 161.98 0 1 0  255 0 0 255
-124.268 94.3929 8.57992 0 1 0  255 0 0 255
-188.665 94.3929 161.8 0 1 0  255 0 0 255
-198.377 94.3929 76.1408 0 1 0  255 0 0 255
-132.227 94.3929 84.0193 0 1 0  255 255 255 255
-155.827 94.3929 139.52 0 1 0  255 0 0 255
-143.07 94.3929 86.4188 0 1 0  255 255 255 255
-150.147 94.3929 125.136 0 1 0  255 0 0 255
-164.84 94.3929 102.167 0 1 0  255 255 255 255
-177.774 94.3929 91.8487 0 1 0  255 255 255 255
-148.293 94.3929 117.727 0 1 0  255 0 0 255
-127.125 94.3929 55.671 0 1 0  255 0 0 255
-184.967 94.3929 142.67 0 1 0  255 0 0 255
-184.967 94.3929 27.3295 0 1 0  255 0 0 255
-140.579 94.3929 35.3151 0 1 0  255 0 0 255
-173.707 94.3929 114.122 0 1 0  255 255 255 255
-138.178 94.3929 115.365 0 1 0  255 0 0 255
-186.371 94.3929 114.185 0 1 0  255 255 255 255
-167.229 94.3929 161.94 0 1 0  255 0 0 255
-166.978 94.3929 7.87845 0 1 0  255 0 0 255
-139.585 94.3929 162.081 0 1 0  255 0 0 255
-139.585 94.3929 7.91923 0 1 0  255 0 0 255
-186.998 94.3929 82.1526 0 1 0  255 255 255 255
-198.488 94.3929 122.486 0 1 0  255 255 255 255
-151.694 94.3929 93.9033 0 1 0  255 255 255 255
-113.88 94.3929 64.9017 0 1 0  255 255 255 255
-149.544 94.3929 152.443 0 1 0  255 0 0 255
-172.691 94.3929 106.372 0 1 0  255 255 255 255
-198.72 94.3929 109.244 0 1 0  255 255 255 255
-163.632 94.3929 19.162 0 1 0  255 0 0 255
-173.082 94.3929 23.236 0 1 0  255 0 0 255
-163.049 94.3929 151.819 0 1 0  255 0 0 255
-155.479 94.3929 29.7158 0 1 0  255 0 0 255
-186.98 94.3929 36.5672 0 1 0  255 0 0 255
-186.98 94.3929 133.433 0 1 0  255 0 0 255
-134.413 94.3929 46.8305 0 1 0  255 0 0 255
-139.476 94.3929 22.7894 0 1 0  255 0 0 255
-113.535 94.3929 36.2355 0 1 0  255 0 0 255
-128.496 94.3929 32.6064 0 1 0  255 0 0 255
-124.942 94.3929 39.7318 0 1 0  255 0 0 255
-160.857 94.3929 67.8362 0 1 0  255 0 0 255
-113.726 94.3929 17.5422 0 1 0  255 0 0 255
-156.858 94.3929 132.03 0 1 0  255 0 0 255
-113.783 94.3929 97.5217 0 1 0  255 0 0 255
-187.375 94.3929 51.6389 0 1 0  255 0 0 255
-126.586 94.3929 65.4246 0 1 0  255 0 0 255
-139.369 94.3929 147.72 0 1 0  255 0 0 255
-134.368 94.3929 73.3495 0 1 0  255 255 255 255
-167.673 94.3929 92.1476 0 1 0  255 255 255 255
-134.957 94.3929 122.469 0 1 0  255 0 0 255
-129.832 94.3929 98.3369 0 1 0  255 255 255 255
-138.6 94.3929 60.8803 0 1 0  255 0 0 255
-126.064 94.3929 146.167 0 1 0  255 0 0 255
-150.768 94.3929 16.8035 0 1 0  255 0 0 255
-174.355 94.3929 163.043 0 1 0  255 0 0 255
-174.355 94.3929 6.95703 0 1 0  255 0 0 255
-199.329 94.3929 33.1316 0 1 0  255 0 0 255
-199.335 94.3929 136.873 0 1 0  255 0 0 255
-182.918 94.3929 77.015 0 1 0  255 0 0 255
-199.248 94.3929 60.1701 0 1 0  255 0 0 255
-160.542 94.3929 114.219 0 1 0  255 255 255 255
-199.374 94.3929 101.196 0 1 0  255 255 255 255
-170.655 94.3929 78.3078 0 1 0  255 255 255 255
-180.068 94.3929 68.1148 0 1 0  255 0 0 255
-150.649 94.3929 64.7615 0 1 0  255 0 0 255
-185.955 94.3929 104.904 0 1 0  255 255 255 255
-188.709 94.3929 98.0526 0 1 0  255 255 255 255
-199.892 94.3929 154.162 0 1 0  255 0 0 255
-199.892 94.3929 15.8381 0 1 0  255 0 0 255
-112.85 94.3929 117.14 0 1 0  255 0 0 255
-161.453 94.3929 143.409 0 1 0  255 0 0 255
-173.527 94.3929 148.713 0 1 0  255 0 0 255
-145.014 94.3929 92.9997 0 1 0  255 255 255 255
-141.15 94.3929 103.952 0 1 0  255 255 255 255
-186.761 94.3929 59.1608 0 1 0  255 0 0 255
-112.662 94.3929 58.3166 0 1 0  255 0 0 255
-149.766 94.3929 105.347 0 1 0  255 255 255 255
-133.804 94.3929 110.756 0 1 0  255 0 0 255
-140.496 94.3929 50.3548 0 1 0  255 0 0 255
-160.387 94.3929 107.215 0 1 0  255 255 255 255
-112.609 94.3929 86.7083 0 1 0  255 255 255 255
-190.381 94.3929 146.456 0 1 0  255 0 0 255
-190.381 94.3929 23.5437 0 1 0  255 0 0 255
-142.368 94.3929 28.2231 0 1 0  255 0 0 255
-199.794 94.3929 88.9065 0 1 0  255 255 255 255
-154.413 94.3929 77.4181 0 1 0  255 255 255 255
-155.663 94.3929 163.461 0 1 0  255 0 0 255
-155.478 94.3929 6.31235 0 1 0  255 0 0 255
-124.027 94.3929 115.966 0 1 0  255 0 0 255
-191.279 94.3929 109.857 0 1 0  255 255 255 255
-112.416 94.3929 128.132 0 1 0  255 0 0 255
-132.043 94.3929 59.9554 0 1 0  255 0 0 255
-144.725 94.3929 128.659 0 1 0  255 0 0 255
-122.737 94.3929 95.0145 0 1 0  255 255 255 255
-121.778 94.3929 51.691 0 1 0  255 0 0 255
-160.548 94.3929 55.4748 0 1 0  255 0 0 255
-112.34 94.3929 29.2946 0 1 0  255 0 0 255
-189.575 94.3929 119.658 0 1 0  255 255 255 255
-166.985 94.3929 68.401 0 1 0  255 0 0 255
-112.246 94.3929 144.439 0 1 0  255 0 0 255
-130.154 94.3929 78.1158 0 1 0  255 255 255 255
-152.042 94.3929 54.9444 0 1 0  255 0 0 255
-112.304 94.3929 110.506 0 1 0  255 0 0 255
-112.112 94.3929 75.1097 0 1 0  255 255 255 255
-181.858 94.3929 125.446 0 1 0  255 255 255 255
-181.811 94.3929 45.1831 0 1 0  255 0 0 255
-122.842 94.3929 87.6672 0 1 0  255 255 255 255
-152.912 94.3929 35.4677 0 1 0  255 0 0 255
-131.851 94.3929 135.629 0 1 0  255 0 0 255
-182.065 94.3929 137.092 0 1 0  255 0 0 255
-182.11 94.3929 32.8228 0 1 0  255 0 0 255
-155.978 94.3929 154.022 0 1 0  255 0 0 255
-136.017 94.3929 154.219 0 1 0  255 0 0 255
-176.341 94.3929 15.7124 0 1 0  255 0 0 255
-176.315 94.3929 154.2 0 1 0  255 0 0 255
-135.996 94.3929 15.8045 0 1 0  255 0 0 255
-156.999 94.3929 43.9972 0 1 0  255 0 0 255
-112.071 94.3929 47.0912 0 1 0  255 0 0 255
-161.907 94.3929 96.6649 0 1 0  255 255 255 255
-200.35 94.3929 54.2516 0 1 0  255 0 0 255
-146.327 94.3929 37.6467 0 1 0  255 0 0 255
-141.461 94.3929 140.305 0 1 0  255 0 0 255
-145.207 94.3929 163.922 0 1 0  255 0 0 255
-145.207 94.3929 6.07839 0 1 0  255 0 0 255
-120.456 94.3929 107.065 0 1 0  255 0 0 255
-127.713 94.3929 127.813 0 1 0  255 0 0 255
-156.235 94.3929 125.886 0 1 0  255 0 0 255
-193.158 94.3929 89.5977 0 1 0  255 255 255 255
-120.885 94.3929 136.599 0 1 0  255 0 0 255
-111.991 94.3929 155.493 0 1 0  255 0 0 255
-200.202 94.3929 116.74 0 1 0  255 255 255 255
-122.225 94.3929 76.1349 0 1 0  255 255 255 255
-120.281 94.3929 66.4026 0 1 0  255 255 255 255
-165.34 94.3929 80.463 0 1 0  255 255 255 255
-137.278 94.3929 86.9092 0 1 0  255 255 255 255
-200.498 94.3929 164.117 0 1 0  255 0 0 255
-200.498 94.3929 5.88283 0 1 0  255 0 0 255
-112.01 94.3929 164.713 0 1 0  255 0 0 255
-111.844 94.3929 5.98141 0 1 0  255 0 0 255
-137.492 94.3929 99.1199 0 1 0  255 255 255 255
-174.016 94.3929 50.1898 0 1 0  255 0 0 255
-120.129 94.3929 147.497 0 1 0  255 0 0 255
-164.756 94.3929 32.6057 0 1 0  255 0 0 255
-173.922 94.3929 119.783 0 1 0  255 255 255 255
-171.11 94.3929 139.974 0 1 0  255 0 0 255
-160.346 94.3929 26.2373 0 1 0  255 0 0 255
-200.513 94.3929 70.6233 0 1 0  255 0 0 255
-161.667 94.3929 164.254 0 1 0  255 0 0 255
-161.667 94.3929 5.7463 0 1 0  255 0 0 255
-200.554 94.3929 27.3181 0 1 0  255 0 0 255
-200.554 94.3929 142.682 0 1 0  255 0 0 255
-159.075 94.3929 74.0553 0 1 0  255 0 0 255
-167.691 94.3929 129.803 0 1 0  255 0 0 255
-151.739 94.3929 144.178 0 1 0  255 0 0 255
-129.062 94.3929 164.618 0 1 0  255 0 0 255
-183.099 94.3929 164.282 0 1 0  255 0 0 255
-183.099 94.3929 5.71807 0 1 0  255 0 0 255
-129.511 94.3929 5.90442 0 1 0  255 0 0 255
-174.892 94.3929 87.0223 0 1 0  255 255 255 255
-192.02 94.3929 62.2944 0 1 0  255 0 0 255
-128.832 94.3929 15.6039 0 1 0  255 0 0 255
-183.567 94.3929 15.6885 0 1 0  255 0 0 255
-183.567 94.3929 154.311 0 1 0  255 0 0 255
-129.037 94.3929 154.004 0 1 0  255 0 0 255
-171.089 94.3929 29.808 0 1 0  255 0 0 255
-138.966 94.3929 127.204 0 1 0  255 0 0 255
-200.346 94.3929 44.1314 0 1 0  255 0 0 255
-200.468 94.3929 81.1976 0 1 0  255 0 0 255
-157.035 94.3929 16.3391 0 1 0  255 0 0 255
-165.04 94.3929 38.3147 0 1 0  255 0 0 255
-128.373 94.3929 104.243 0 1 0  255 0 0 255
-164.651 94.3929 14.218 0 1 0  255 0 0 255
-130.226 94.3929 51.1197 0 1 0  255 0 0 255
-175.645 94.3929 34.6899 0 1 0  255 0 0 255
-176.944 94.3929 101.858 0 1 0  255 255 255 255
-193.47 94.3929 125.425 0 1 0  255 255 255 255
-130.492 94.3929 26.1757 0 1 0  255 0 0 255
-184.865 94.3929 71.5105 0 1 0  255 0 0 255
-193.768 94.3929 44.5283 0 1 0  255 0 0 255
-163.655 94.3929 85.8579 0 1 0  255 255 255 255
-182.03 94.3929 55.1357 0 1 0  255 0 0 255
-170.855 94.3929 72.3717 0 1 0  255 0 0 255
-193.013 94.3929 164.42 0 1 0  255 0 0 255
-193.013 94.3929 5.58043 0 1 0  255 0 0 255
-119.411 94.3929 164.42 0 1 0  255 0 0 255
-119.416 94.3929 5.63131 0 1 0  255 0 0 255
-147.161 94.3929 45.1332 0 1 0  255 0 0 255
-148.767 94.3929 139.442 0 1 0  255 0 0 255
-176.449 94.3929 79.2569 0 1 0  255 255 255 255
-131.281 94.3929 143.911 0 1 0  255 0 0 255
-145.365 94.3929 149.489 0 1 0  255 0 0 255
-112.035 94.3929 138.511 0 1 0  255 0 0 255
-141.483 94.3929 56.0984 0 1 0  255 0 0 255
-118.18 94.3929 154.667 0 1 0  255 0 0 255
-111.32 94.3929 92.2022 0 1 0  255 0 0 255
-164.733 94.3929 156.939 0 1 0  255 0 0 255
-120.302 94.3929 46.3073 0 1 0  255 0 0 255
-182.264 94.3929 88.4422 0 1 0  255 255 255 255
-148.65 94.3929 71.9048 0 1 0  255 0 0 255
-143.231 94.3929 75.3702 0 1 0  255 255 255 255
-111.621 94.3929 40.9028 0 1 0  255 0 0 255
-193.412 94.3929 78.9224 0 1 0  255 0 0 255
-156.921 94.3929 86.4756 0 1 0  255 255 255 255
-139.105 94.3929 66.3802 0 1 0  255 0 0 255
-194.238 94.3929 71.6569 0 1 0  255 0 0 255
-152.326 94.3929 25.5838 0 1 0  255 0 0 255
-117.865 94.3929 85.2179 0 1 0  255 255 255 255
-194.234 94.3929 14.931 0 1 0  255 0 0 255
-194.234 94.3929 155.069 0 1 0  255 0 0 255
-139.045 94.3929 109.082 0 1 0  255 0 0 255
-156.106 94.3929 65.835 0 1 0  255 0 0 255
-185.585 94.3929 21.2864 0 1 0  255 0 0 255
-185.585 94.3929 148.714 0 1 0  255 0 0 255
-120.989 94.3929 22.2664 0 1 0  255 0 0 255
-170.918 94.3929 60.9205 0 1 0  255 0 0 255
-120.031 94.3929 27.7687 0 1 0  255 0 0 255
-132.972 94.3929 93.7717 0 1 0  255 255 255 255
-134.866 94.3929 5.14688 0 1 0  255 0 0 255
-134.866 94.3929 164.853 0 1 0  255 0 0 255
-192.538 94.3929 35.8178 0 1 0  255 0 0 255
-192.539 94.3929 134.181 0 1 0  255 0 0 255
-118.914 94.3929 118.937 0 1 0  255 0 0 255
-111.483 94.3929 69.5254 0 1 0  255 255 255 255
-149.443 94.3929 111.808 0 1 0  255 255 255 255
-200.889 94.3929 127.059 0 1 0  255 255 255 255
-119.4 94.3929 38.3291 0 1 0  255 0 0 255
-174.33 94.3929 40.132 0 1 0  255 0 0 255
-118.159 94.3929 128.245 0 1 0  255 0 0 255
-118.536 94.3929 14.9921 0 1 0  255 0 0 255
-135.499 94.3929 34.7249 0 1 0  255 0 0 255
-137.486 94.3929 40.1997 0 1 0  255 0 0 255
-111.451 94.3929 12.3906 0 1 0  255 0 0 255
-126.952 94.3929 133.54 0 1 0  255 0 0 255
-153.575 94.3929 115.178 0 1 0  255 0 0 255
-161.027 94.3929 121.477 0 1 0  255 0 0 255
-192.79 94.3929 51.819 0 1 0  255 0 0 255
-182.792 94.3929 94.2097 0 1 0  255 255 255 255
-146.921 94.3929 82.8314 0 1 0  255 255 255 255
-111.515 94.3929 22.1825 0 1 0  255 0 0 255
-152.358 94.3929 47.1187 0 1 0  255 0 0 255
-201.194 94.3929 65.116 0 1 0  255 0 0 255
-174.796 94.3929 129.36 0 1 0  255 0 0 255
-118.066 94.3929 100.309 0 1 0  255 0 0 255
-161.201 94.3929 49.3178 0 1 0  255 0 0 255
-179.1 94.3929 114.071 0 1 0  255 255 255 255
-176.312 94.3929 135.489 0 1 0  255 0 0 255
-144.012 94.3929 64.3408 0 1 0  255 0 0 255
-130.06 94.3929 122.078 0 1 0  255 0 0 255
-130.416 94.3929 43.7628 0 1 0  255 0 0 255
-151.075 94.3929 98.5881 0 1 0  255 255 255 255
-157.079 94.3929 94.2247 0 1 0  255 255 255 255
-144.803 94.3929 11.5974 0 1 0  255 0 0 255
-144.916 94.3929 158.69 0 1 0  255 0 0 255
-127.044 94.3929 20.8533 0 1 0  255 0 0 255
-160.378 94.3929 62.6498 0 1 0  255 0 0 255
-167.182 94.3929 56.9638 0 1 0  255 0 0 255
-167.849 94.3929 150.001 0 1 0  255 0 0 255
-167.189 94.3929 97.5906 0 1 0  255 255 255 255
-167.164 94.3929 47.6235 0 1 0  255 0 0 255
-166.628 94.3929 123.887 0 1 0  255 0 0 255
-200.811 94.3929 11.4795 0 1 0  255 0 0 255
-200.811 94.3929 158.521 0 1 0  255 0 0 255
-176.658 94.3929 45.5285 0 1 0  255 0 0 255
-143.826 94.3929 117.404 0 1 0  255 0 0 255
-176.625 94.3929 124.267 0 1 0  255 255 255 255
-111.268 94.3929 121.589 0 1 0  255 0 0 255
-172.662 94.3929 93.0502 0 1 0  255 255 255 255
-201.285 94.3929 37.7325 0 1 0  255 0 0 255
-201.332 94.3929 96.4345 0 1 0  255 255 255 255
-154.644 94.3929 104.826 0 1 0  255 255 255 255
-184.66 94.3929 121.086 0 1 0  255 255 255 255
-154.628 94.3929 11.8805 0 1 0  255 0 0 255
-201.024 94.3929 132.563 0 1 0  255 255 255 255
-180.194 94.3929 25.5003 0 1 0  255 0 0 255
-180.211 94.3929 144.625 0 1 0  255 0 0 255
-127.675 94.3929 86.2039 0 1 0  255 255 255 255
-168.535 94.3929 114.692 0 1 0  255 255 255 255
-166.206 94.3929 140.081 0 1 0  255 0 0 255
-142.039 94.3929 96.7979 0 1 0  255 255 255 255
-193.781 94.3929 98.8163 0 1 0  255 255 255 255
-125.322 94.3929 60.0832 0 1 0  255 0 0 255
-187.55 94.3929 138.658 0 1 0  255 0 0 255
-187.55 94.3929 31.3423 0 1 0  255 0 0 255
-168.735 94.3929 19.7978 0 1 0  255 0 0 255
-150.757 94.3929 4.82613 0 1 0  255 0 0 255
-150.748 94.3929 165.37 0 1 0  255 0 0 255
-110.592 94.3929 102.203 0 1 0  255 0 0 255
-201.519 94.3929 149.239 0 1 0  255 0 0 255
-201.519 94.3929 20.7613 0 1 0  255 0 0 255
-147.127 94.3929 17.4134 0 1 0  255 0 0 255
-139.158 94.3929 72.1892 0 1 0  255 255 255 255
-156.201 94.3929 39.5791 0 1 0  255 0 0 255
-122.964 94.3929 142.208 0 1 0  255 0 0 255
-150.819 94.3929 59.6552 0 1 0  255 0 0 255
-184.177 94.3929 129.413 0 1 0  255 0 0 255
-184.008 94.3929 40.3235 0 1 0  255 0 0 255
-122.694 94.3929 70.579 0 1 0  255 255 255 255
-152.524 94.3929 129.972 0 1 0  255 0 0 255
-195.735 94.3929 27.204 0 1 0  255 0 0 255
-195.735 94.3929 142.796 0 1 0  255 0 0 255
-132.365 94.3929 88.628 0 1 0  255 255 255 255
-110.921 94.3929 53.8808 0 1 0  255 0 0 255
-147.071 94.3929 121.804 0 1 0  255 0 0 255
-181.188 94.3929 103.766 0 1 0  255 255 255 255
-168.128 94.3929 106.047 0 1 0  255 255 255 255
-176.852 94.3929 96.7756 0 1 0  255 255 255 255
-154.507 94.3929 159.096 0 1 0  255 0 0 255
-147.414 94.3929 88.6268 0 1 0  255 255 255 255
-118.862 94.3929 55.7768 0 1 0  255 0 0 255
-160.138 94.3929 31.1349 0 1 0  255 0 0 255
-191.561 94.3929 94.1829 0 1 0  255 255 255 255
-173.335 94.3929 11.7646 0 1 0  255 0 0 255
-173.39 94.3929 158.066 0 1 0  255 0 0 255
-122.017 94.3929 157.423 0 1 0  255 0 0 255
-145.264 94.3929 136.125 0 1 0  255 0 0 255
-170.117 94.3929 40.6583 0 1 0  255 0 0 255
-154.22 94.3929 81.9977 0 1 0  255 255 255 255
-161.479 94.3929 131.485 0 1 0  255 0 0 255
-178.276 94.3929 4.74323 0 1 0  255 0 0 255
-178.276 94.3929 165.257 0 1 0  255 0 0 255
-129.559 94.3929 68.5725 0 1 0  255 255 255 255
-136.896 94.3929 135.668 0 1 0  255 0 0 255
-201.834 94.3929 105.334 0 1 0  255 255 255 255
-184.585 94.3929 109.602 0 1 0  255 255 255 255
-193.366 94.3929 19.8401 0 1 0  255 0 0 255
-193.366 94.3929 150.16 0 1 0  255 0 0 255
-190.162 94.3929 12.6049 0 1 0  255 0 0 255
-190.162 94.3929 157.395 0 1 0  255 0 0 255
-116.202 94.3929 31.5412 0 1 0  255 0 0 255
-175.965 94.3929 61.7985 0 1 0  255 0 0 255
-194.307 94.3929 120.167 0 1 0  255 255 255 255
-173.542 94.3929 143.924 0 1 0  255 0 0 255
-189.261 94.3929 86.8968 0 1 0  255 255 255 255
-110.772 94.3929 82.2278 0 1 0  255 255 255 255
-170.229 94.3929 165.359 0 1 0  255 0 0 255
-170.229 94.3929 4.64142 0 1 0  255 0 0 255
-177.94 94.3929 54.789 0 1 0  255 0 0 255
-192.042 94.3929 68.3545 0 1 0  255 0 0 255
-125.39 94.3929 12.9206 0 1 0  255 0 0 255
-118.073 94.3929 95.805 0 1 0  255 0 0 255
-151.491 94.3929 121.307 0 1 0  255 0 0 255
-117.476 94.3929 76.1055 0 1 0  255 255 255 255
-124.529 94.3929 30.5294 0 1 0  255 0 0 255
-190.825 94.3929 128.776 0 1 0  255 255 255 255
-146.335 94.3929 27.2554 0 1 0  255 0 0 255
-201.878 94.3929 49.6753 0 1 0  255 0 0 255
-190.614 94.3929 41.1215 0 1 0  255 0 0 255
-171.606 94.3929 110.386 0 1 0  255 255 255 255
-175.338 94.3929 110.095 0 1 0  255 255 255 255
-135.118 94.3929 24.028 0 1 0  255 0 0 255
-135.023 94.3929 79.9831 0 1 0  255 255 255 255
-163.377 94.3929 146.941 0 1 0  255 0 0 255
-143.366 94.3929 79.9277 0 1 0  255 255 255 255
-201.776 94.3929 112.331 0 1 0  255 255 255 255
-149.129 94.3929 147.891 0 1 0  255 0 0 255
-119.607 94.3929 80.2443 0 1 0  255 255 255 255
-161.458 94.3929 77.6044 0 1 0  255 255 255 255
-135.533 94.3929 145.217 0 1 0  255 0 0 255
-158.63 94.3929 136.271 0 1 0  255 0 0 255
-170.294 94.3929 52.6285 0 1 0  255 0 0 255
-153.679 94.3929 135.613 0 1 0  255 0 0 255
-176.046 94.3929 69.2305 0 1 0  255 0 0 255
-184.77 94.3929 158.642 0 1 0  255 0 0 255
-184.77 94.3929 11.3581 0 1 0  255 0 0 255
-127.979 94.3929 158.431 0 1 0  255 0 0 255
-110.714 94.3929 148.713 0 1 0  255 0 0 255
-110.429 94.3929 106.271 0 1 0  255 0 0 255
-110.523 94.3929 159.936 0 1 0  255 0 0 255
-120.519 94.3929 10.9837 0 1 0  255 0 0 255
-185.25 94.3929 47.9526 0 1 0  255 0 0 255
-147.547 94.3929 55.2886 0 1 0  255 0 0 255
-173.077 94.3929 83.0989 0 1 0  255 255 255 255
-117.581 94.3929 19.3479 0 1 0  255 0 0 255
-153.862 94.3929 89.5947 0 1 0  255 255 255 255
-138.294 94.3929 119.7 0 1 0  255 0 0 255
-183.081 94.3929 64.3509 0 1 0  255 0 0 255
-110.505 94.3929 132.221 0 1 0  255 0 0 255
-129.851 94.3929 111.923 0 1 0  255 0 0 255
-121.868 94.3929 126.565 0 1 0  255 0 0 255
-139.391 94.3929 83.8351 0 1 0  255 255 255 255
-137.274 94.3929 11.0203 0 1 0  255 0 0 255
-137.274 94.3929 158.98 0 1 0  255 0 0 255
-128.519 94.3929 37.1785 0 1 0  255 0 0 255
-134.952 94.3929 117.76 0 1 0  255 0 0 255
-159.815 94.3929 40.2709 0 1 0  255 0 0 255
-167.368 94.3929 133.914 0 1 0  255 0 0 255
-160.151 94.3929 102.39 0 1 0  255 255 255 255
-128.136 94.3929 150.206 0 1 0  255 0 0 255
-116.485 94.3929 109.02 0 1 0  255 0 0 255
-116.236 94.3929 47.865 0 1 0  255 0 0 255
-130.232 94.3929 108.004 0 1 0  255 0 0 255
-168.692 94.3929 101.184 0 1 0  255 255 255 255
-110.435 94.3929 62.1336 0 1 0  255 255 255 255
-169.645 94.3929 121.067 0 1 0  255 255 255 255
-197.077 94.3929 104.864 0 1 0  255 255 255 255
-143.141 94.3929 39.6045 0 1 0  255 0 0 255
-170.832 94.3929 89.2469 0 1 0  255 255 255 255
-123.306 94.3929 111.923 0 1 0  255 0 0 255
-151.94 94.3929 21.3145 0 1 0  255 0 0 255
-183.396 94.3929 81.4313 0 1 0  255 255 255 255
-131.742 94.3929 125.893 0 1 0  255 0 0 255
-145.023 94.3929 105.481 0 1 0  255 255 255 255
-116.019 94.3929 61.0947 0 1 0  255 0 0 255
-180.761 94.3929 73.4712 0 1 0  255 0 0 255
-147.305 94.3929 67.8231 0 1 0  255 0 0 255
-189.704 94.3929 47.7741 0 1 0  255 0 0 255
-145.632 94.3929 113.871 0 1 0  255 0 0 255
-202.277 94.3929 84.7586 0 1 0  255 0 0 255
-157.117 94.3929 143.617 0 1 0  255 0 0 255
-186.91 94.3929 78.4317 0 1 0  255 0 0 255
-141.599 94.3929 90.4812 0 1 0  255 255 255 255
-142.579 94.3929 19.7184 0 1 0  255 0 0 255
-137.384 94.3929 131.375 0 1 0  255 0 0 255
-175.645 94.3929 19.8171 0 1 0  255 0 0 255
-130.705 94.3929 139.909 0 1 0  255 0 0 255
-117.139 94.3929 137.928 0 1 0  255 0 0 255
-118.696 94.3929 132.961 0 1 0  255 0 0 255
-201.918 94.3929 74.683 0 1 0  255 0 0 255
-125.522 94.3929 165.846 0 1 0  255 0 0 255
-186.902 94.3929 165.846 0 1 0  255 0 0 255
-125.781 94.3929 3.97062 0 1 0  255 0 0 255
-186.902 94.3929 4.15405 0 1 0  255 0 0 255
-124.392 94.3929 105.322 0 1 0  255 0 0 255
-121.502 94.3929 42.2351 0 1 0  255 0 0 255
-124.945 94.3929 34.8839 0 1 0  255 0 0 255
-139.196 94.3929 31.5827 0 1 0  255 0 0 255
-143.74 94.3929 32.0514 0 1 0  255 0 0 255
-189.398 94.3929 142.178 0 1 0  255 0 0 255
-189.398 94.3929 27.8217 0 1 0  255 0 0 255
-128.488 94.3929 82.1964 0 1 0  255 255 255 255
-136.405 94.3929 19.7833 0 1 0  255 0 0 255
-125.953 94.3929 77.6652 0 1 0  255 255 255 255
-163.479 94.3929 58.0432 0 1 0  255 0 0 255
-141.471 94.3929 165.853 0 1 0  255 0 0 255
-141.471 94.3929 4.14724 0 1 0  255 0 0 255
-123.023 94.3929 56.6919 0 1 0  255 0 0 255
-188.902 94.3929 55.8513 0 1 0  255 0 0 255
-196.056 94.3929 54.242 0 1 0  255 0 0 255
-110.16 94.3929 33.3753 0 1 0  255 0 0 255
-159.859 94.3929 154.525 0 1 0  255 0 0 255
-120.393 94.3929 122.344 0 1 0  255 0 0 255
-202.294 94.3929 120.53 0 1 0  255 255 255 255
-116.23 94.3929 145.955 0 1 0  255 0 0 255
-128.025 94.3929 9.76943 0 1 0  255 0 0 255
-165.295 94.3929 165.872 0 1 0  255 0 0 255
-165.103 94.3929 3.79592 0 1 0  255 0 0 255
-151.358 94.3929 156.352 0 1 0  255 0 0 255
-130.423 94.3929 63.7619 0 1 0  255 0 0 255
-141.778 94.3929 144.001 0 1 0  255 0 0 255
-148.563 94.3929 13.6195 0 1 0  255 0 0 255
-130.762 94.3929 55.3844 0 1 0  255 0 0 255
-138.624 94.3929 46.8594 0 1 0  255 0 0 255
-143.692 94.3929 47.5575 0 1 0  255 0 0 255
-125.719 94.3929 98.0459 0 1 0  255 255 255 255
-194.916 94.3929 111.568 0 1 0  255 255 255 255
-126.162 94.3929 51.2654 0 1 0  255 0 0 255
-150.572 94.3929 80.9154 0 1 0  255 255 255 255
-161.169 94.3929 16.1849 0 1 0  255 0 0 255
-143.43 94.3929 24.4658 0 1 0  255 0 0 255
-164.408 94.3929 114.941 0 1 0  255 255 255 255
-182.446 94.3929 115.983 0 1 0  255 255 255 255
-177.018 94.3929 105.727 0 1 0  255 255 255 255
-145.983 94.3929 155.116 0 1 0  255 0 0 255
-147.947 94.3929 95.6997 0 1 0  255 255 255 255
-136.782 94.3929 50.3962 0 1 0  255 0 0 255
-151.628 94.3929 50.4491 0 1 0  255 0 0 255
-202.234 94.3929 92.3541 0 1 0  255 255 255 255
-176.338 94.3929 25.7888 0 1 0  255 0 0 255
-160.349 94.3929 22.4535 0 1 0  255 0 0 255
-190.177 94.3929 113.995 0 1 0  255 255 255 255
-168.533 94.3929 64.4555 0 1 0  255 0 0 255
-196.688 94.3929 3.804 0 1 0  255 0 0 255
-115.744 94.3929 166.211 0 1 0  255 0 0 255
-196.688 94.3929 166.196 0 1 0  255 0 0 255
-115.473 94.3929 3.79898 0 1 0  255 0 0 255
-184.174 94.3929 85.6348 0 1 0  255 255 255 255
-185.682 94.3929 100.864 0 1 0  255 255 255 255
-136.024 94.3929 69.6124 0 1 0  255 255 255 255
-169.744 94.3929 158.553 0 1 0  255 0 0 255
-169.506 94.3929 11.2345 0 1 0  255 0 0 255
-109.87 94.3929 25.9344 0 1 0  255 0 0 255
-169.919 94.3929 25.7111 0 1 0  255 0 0 255
-141.516 94.3929 112.605 0 1 0  255 0 0 255
-133.645 94.3929 100.084 0 1 0  255 255 255 255
-156.651 94.3929 33.6899 0 1 0  255 0 0 255
-163.79 94.3929 93.1478 0 1 0  255 255 255 255
-109.969 94.3929 78.3482 0 1 0  255 255 255 255
-160.194 94.3929 148.795 0 1 0  255 0 0 255
-163.448 94.3929 10.1583 0 1 0  255 0 0 255
-138.492 94.3929 26.8023 0 1 0  255 0 0 255
-139.272 94.3929 152.183 0 1 0  255 0 0 255
-151.419 94.3929 29.5125 0 1 0  255 0 0 255
-109.757 94.3929 113.954 0 1 0  255 0 0 255
-195.088 94.3929 60.1142 0 1 0  255 0 0 255
-177.179 94.3929 65.5594 0 1 0  255 0 0 255
-155.387 94.3929 53.8675 0 1 0  255 0 0 255
-134.865 94.3929 42.3806 0 1 0  255 0 0 255
-163.339 94.3929 161.094 0 1 0  255 0 0 255
-191.671 94.3929 82.5916 0 1 0  255 0 0 255
-164.165 94.3929 65.7144 0 1 0  255 0 0 255
-116.584 94.3929 67.8657 0 1 0  255 255 255 255
-182.949 94.3929 36.7002 0 1 0  255 0 0 255
-182.959 94.3929 133.278 0 1 0  255 0 0 255
-166.885 94.3929 88.2726 0 1 0  255 255 255 255
-160.62 94.3929 139.692 0 1 0  255 0 0 255
-202.209 94.3929 57.5129 0 1 0  255 0 0 255
-141.179 94.3929 11.5798 0 1 0  255 0 0 255
-141.167 94.3929 158.468 0 1 0  255 0 0 255
-165.774 94.3929 22.6112 0 1 0  255 0 0 255
-151.814 94.3929 74.3533 0 1 0  255 255 255 255
-153.458 94.3929 150.805 0 1 0  255 0 0 255
-189.493 94.3929 106.427 0 1 0  255 255 255 255
-131.522 94.3929 29.6577 0 1 0  255 0 0 255
-148.33 94.3929 130.435 0 1 0  255 0 0 255
-158.548 94.3929 110.554 0 1 0  255 255 255 255
-144.219 94.3929 52.6865 0 1 0  255 0 0 255
-135.326 94.3929 58.5186 0 1 0  255 0 0 255
-177.003 94.3929 147.032 0 1 0  255 0 0 255
-127.31 94.3929 118.941 0 1 0  255 0 0 255
-195.232 94.3929 136.655 0 1 0  255 0 0 255
-195.232 94.3929 33.3449 0 1 0  255 0 0 255
-109.725 94.3929 95.7092 0 1 0  255 0 0 255
-188.795 94.3929 70.8547 0 1 0  255 0 0 255
-159.804 94.3929 118.054 0 1 0  255 0 0 255
-163.836 94.3929 70.4637 0 1 0  255 0 0 255
-202.442 94.3929 30.7932 0 1 0  255 0 0 255
-202.442 94.3929 139.207 0 1 0  255 0 0 255
-135.026 94.3929 62.4025 0 1 0  255 0 0 255
-172.236 94.3929 18.7927 0 1 0  255 0 0 255
-192.315 94.3929 160.729 0 1 0  255 0 0 255
-192.315 94.3929 9.27147 0 1 0  255 0 0 255
-156.329 94.3929 25.8895 0 1 0  255 0 0 255
-109.768 94.3929 37.0252 0 1 0  255 0 0 255
-116.19 94.3929 38.6878 0 1 0  255 0 0 255
-162.412 94.3929 110.602 0 1 0  255 255 255 255
-109.865 94.3929 18.4209 0 1 0  255 0 0 255
-109.784 94.3929 65.6914 0 1 0  255 255 255 255
-167.058 94.3929 43.3677 0 1 0  255 0 0 255
-158.919 94.3929 128.895 0 1 0  255 0 0 255
-178.607 94.3929 88.1784 0 1 0  255 255 255 255
-157.628 94.3929 70.0652 0 1 0  255 0 0 255
-130.755 94.3929 73.7588 0 1 0  255 255 255 255
-126.107 94.3929 43.2762 0 1 0  255 0 0 255
-164.299 94.3929 107.092 0 1 0  255 255 255 255
-136.018 94.3929 149.576 0 1 0  255 0 0 255
-179.011 94.3929 76.6578 0 1 0  255 0 0 255
-129.763 94.3929 131.197 0 1 0  255 0 0 255
-183.626 94.3929 52.0121 0 1 0  255 0 0 255
-109.748 94.3929 125.26 0 1 0  255 0 0 255
-119.874 94.3929 160.608 0 1 0  255 0 0 255
-127.486 94.3929 142.612 0 1 0  255 0 0 255
-194.387 94.3929 107.719 0 1 0  255 255 255 255
-137.48 94.3929 75.5171 0 1 0  255 255 255 255
-196.995 94.3929 126.529 0 1 0  255 255 255 255
-146.348 94.3929 41.383 0 1 0  255 0 0 255
-158.383 94.3929 3.81111 0 1 0  255 0 0 255
-158.383 94.3929 166.189 0 1 0  255 0 0 255
-189.493 94.3929 101.928 0 1 0  255 255 255 255
-127.995 94.3929 28.4474 0 1 0  255 0 0 255
-122.996 94.3929 63.2986 0 1 0  255 0 0 255
-121.068 94.3929 91.3729 0 1 0  255 255 255 255
-120.066 94.3929 150.934 0 1 0  255 0 0 255
-114.775 94.3929 113.43 0 1 0  255 0 0 255
-196.852 94.3929 80.4163 0 1 0  255 0 0 255
-109.607 94.3929 50.1742 0 1 0  255 0 0 255
-131.634 94.3929 35.3865 0 1 0  255 0 0 255
-172.862 94.3929 102.119 0 1 0  255 255 255 255
-186.691 94.3929 94.7523 0 1 0  255 255 255 255
-138.513 94.3929 123.786 0 1 0  255 0 0 255
-110.028 94.3929 152.343 0 1 0  255 0 0 255
-181.347 94.3929 141.001 0 1 0  255 0 0 255
-181.384 94.3929 28.9259 0 1 0  255 0 0 255
-176.45 94.3929 117.214 0 1 0  255 255 255 255
-114.864 94.3929 13.6468 0 1 0  255 0 0 255
-177.556 94.3929 42.1049 0 1 0  255 0 0 255
-109.876 94.3929 44.126 0 1 0  255 0 0 255
-170.484 94.3929 48.3122 0 1 0  255 0 0 255
-166.603 94.3929 153.541 0 1 0  255 0 0 255
-123.349 94.3929 149.304 0 1 0  255 0 0 255
-125.983 94.3929 68.9183 0 1 0  255 255 255 255
-179.919 94.3929 14.6307 0 1 0  255 0 0 255
-132.577 94.3929 155.482 0 1 0  255 0 0 255
-179.939 94.3929 155.35 0 1 0  255 0 0 255
-132.473 94.3929 14.6917 0 1 0  255 0 0 255
-171.48 94.3929 117.067 0 1 0  255 255 255 255
-196.78 94.3929 151.207 0 1 0  255 0 0 255
-196.78 94.3929 18.7931 0 1 0  255 0 0 255
-178.535 94.3929 127.497 0 1 0  255 0 0 255
-128.077 94.3929 95.0072 0 1 0  255 255 255 255
-109.711 94.3929 9.07296 0 1 0  255 0 0 255
-117.685 94.3929 35.3257 0 1 0  255 0 0 255
-121.485 94.3929 84.1597 0 1 0  255 255 255 255
-176.566 94.3929 9.88771 0 1 0  255 0 0 255
-176.619 94.3929 160.07 0 1 0  255 0 0 255
-115.948 94.3929 28.297 0 1 0  255 0 0 255
-144.574 94.3929 132.463 0 1 0  255 0 0 255
-120.94 94.3929 98.1646 0 1 0  255 0 0 255
-179.409 94.3929 35.3049 0 1 0  255 0 0 255
-145.316 94.3929 124.849 0 1 0  255 0 0 255
-182.146 94.3929 112.247 0 1 0  255 255 255 255
-145.278 94.3929 140.506 0 1 0  255 0 0 255
-120.079 94.3929 103.446 0 1 0  255 0 0 255
-196.251 94.3929 87.5763 0 1 0  255 255 255 255
-198.273 94.3929 113.631 0 1 0  255 255 255 255
-167.203 94.3929 77.4067 0 1 0  255 255 255 255
-203.009 94.3929 61.4208 0 1 0  255 0 0 255
-173.222 94.3929 152.372 0 1 0  255 0 0 255
-109.6 94.3929 135.748 0 1 0  255 0 0 255
-125.36 94.3929 155.821 0 1 0  255 0 0 255
-142.565 94.3929 60.9007 0 1 0  255 0 0 255
-177.299 94.3929 58.6595 0 1 0  255 0 0 255
-114.946 94.3929 94.1259 0 1 0  255 0 0 255
-135.815 94.3929 83.5556 0 1 0  255 255 255 255
-114.376 94.3929 141.486 0 1 0  255 0 0 255
-159.37 94.3929 58.9273 0 1 0  255 0 0 255
-203.025 94.3929 78.1683 0 1 0  255 0 0 255
-109.758 94.3929 89.0731 0 1 0  255 0 0 255
-202.818 94.3929 145.777 0 1 0  255 0 0 255
-202.818 94.3929 24.223 0 1 0  255 0 0 255
-190.714 94.3929 123.177 0 1 0  255 255 255 255
-174.61 94.3929 166.344 0 1 0  255 0 0 255
-174.61 94.3929 3.65648 0 1 0  255 0 0 255
-142.734 94.3929 100.548 0 1 0  255 255 255 255
-168.948 94.3929 81.3063 0 1 0  255 255 255 255
-151.099 94.3929 68.5135 0 1 0  255 0 0 255
-139.517 94.3929 17.971 0 1 0  255 0 0 255
-115.158 94.3929 130.576 0 1 0  255 0 0 255
-138.023 94.3929 105.424 0 1 0  255 255 255 255
-135.553 94.3929 126.267 0 1 0  255 0 0 255
-157.959 94.3929 78.3258 0 1 0  255 255 255 255
-149.236 94.3929 35.421 0 1 0  255 0 0 255
-147.362 94.3929 62.9086 0 1 0  255 0 0 255
-135.232 94.3929 90.6611 0 1 0  255 255 255 255
-162.986 94.3929 28.9777 0 1 0  255 0 0 255
-203.037 94.3929 41.1774 0 1 0  255 0 0 255
-168.484 94.3929 137.367 0 1 0  255 0 0 255
-167.555 94.3929 30.3499 0 1 0  255 0 0 255
-141.314 94.3929 130.338 0 1 0  255 0 0 255
-202.842 94.3929 99.7242 0 1 0  255 255 255 255
-176.542 94.3929 150.66 0 1 0  255 0 0 255
-187.097 94.3929 14.3761 0 1 0  255 0 0 255
-187.097 94.3929 155.624 0 1 0  255 0 0 255
-202.773 94.3929 108.706 0 1 0  255 255 255 255
-122.659 94.3929 119.527 0 1 0  255 0 0 255
-186.209 94.3929 117.828 0 1 0  255 255 255 255
-115.782 94.3929 119.124 0 1 0  255 0 0 255
-202.85 94.3929 34.4274 0 1 0  255 0 0 255
-166.572 94.3929 17.0667 0 1 0  255 0 0 255
-109.47 94.3929 118.168 0 1 0  255 0 0 255
-135.663 94.3929 95.9622 0 1 0  255 255 255 255
-138.332 94.3929 142.897 0 1 0  255 0 0 255
-202.918 94.3929 155.48 0 1 0  255 0 0 255
-202.918 94.3929 14.5205 0 1 0  255 0 0 255
-184.017 94.3929 68.0839 0 1 0  255 0 0 255
-137.956 94.3929 166.468 0 1 0  255 0 0 255
-137.956 94.3929 3.53201 0 1 0  255 0 0 255
-170.76 94.3929 68.8498 0 1 0  255 0 0 255
-133.517 94.3929 114.418 0 1 0  255 0 0 255
-202.848 94.3929 135.519 0 1 0  255 255 255 255
-109.354 94.3929 142.036 0 1 0  255 0 0 255
-196.693 94.3929 43.6365 0 1 0  255 0 0 255
-137.35 94.3929 112.125 0 1 0  255 0 0 255
-148.468 94.3929 92.2897 0 1 0  255 255 255 255
-154.561 94.3929 97.0676 0 1 0  255 255 255 255
-149.061 94.3929 101.916 0 1 0  255 255 255 255
-179.904 94.3929 80.2607 0 1 0  255 255 255 255
-174.303 94.3929 138.273 0 1 0  255 0 0 255
-130.85 94.3929 47.3473 0 1 0  255 0 0 255
-197.231 94.3929 63.1741 0 1 0  255 0 0 255
-197.254 94.3929 98.1822 0 1 0  255 255 255 255
-173.186 94.3929 75.3685 0 1 0  255 0 0 255
-193.098 94.3929 75.3598 0 1 0  255 0 0 255
-197.836 94.3929 133.767 0 1 0  255 255 255 255
-197.65 94.3929 36.3168 0 1 0  255 0 0 255
-190.622 94.3929 59.291 0 1 0  255 0 0 255
-188.411 94.3929 62.4959 0 1 0  255 0 0 255
-170.735 94.3929 8.12421 0 1 0  255 0 0 255
-170.735 94.3929 161.876 0 1 0  255 0 0 255
-139.278 94.3929 53.3992 0 1 0  255 0 0 255
-197.534 94.3929 118.921 0 1 0  255 255 255 255
-202.824 94.3929 124.082 0 1 0  255 255 255 255
-147.782 94.3929 108.542 0 1 0  255 255 255 255
-170.024 94.3929 95.3791 0 1 0  255 255 255 255
-115.438 94.3929 55.8787 0 1 0  255 0 0 255
-126.195 94.3929 113.14 0 1 0  255 0 0 255
-151.997 94.3929 140.612 0 1 0  255 0 0 255
-158.677 94.3929 162.048 0 1 0  255 0 0 255
-158.664 94.3929 7.57786 0 1 0  255 0 0 255
-114.124 94.3929 71.8164 0 1 0  255 255 255 255
-156.633 94.3929 113.394 0 1 0  255 255 255 255
-160.366 94.3929 85.1986 0 1 0  255 255 255 255
-171.031 94.3929 130.47 0 1 0  255 0 0 255
-193.823 94.3929 48.1104 0 1 0  255 0 0 255
-196.593 94.3929 91.0245 0 1 0  255 255 255 255
-124.712 94.3929 135.824 0 1 0  255 0 0 255
-153.54 94.3929 62.8302 0 1 0  255 0 0 255
-202.917 94.3929 166.818 0 1 0  255 0 0 255
-109.341 94.3929 166.677 0 1 0  255 0 0 255
-202.917 94.3929 3.18239 0 1 0  255 0 0 255
-109.47 94.3929 3.35494 0 1 0  255 0 0 255
-114.174 94.3929 90.3316 0 1 0  255 255 255 255
-155.598 94.3929 74.177 0 1 0  255 255 255 255
-197.317 94.3929 13.4663 0 1 0  255 0 0 255
-197.317 94.3929 156.534 0 1 0  255 0 0 255
-174.4 94.3929 31.6627 0 1 0  255 0 0 255
-183.416 94.3929 145.933 0 1 0  255 0 0 255
-183.416 94.3929 24.0667 0 1 0  255 0 0 255
-109.683 94.3929 72.5504 0 1 0  255 255 255 255
-117.584 94.3929 64.3883 0 1 0  255 255 255 255
-158.058 94.3929 151.38 0 1 0  255 0 0 255
-190.297 94.3929 166.717 0 1 0  255 0 0 255
-122.126 94.3929 166.717 0 1 0  255 0 0 255
-122.074 94.3929 3.284 0 1 0  255 0 0 255
-190.297 94.3929 3.28276 0 1 0  255 0 0 255
-128.474 94.3929 40.5843 0 1 0  255 0 0 255
-167.519 94.3929 71.8904 0 1 0  255 0 0 255
-183.202 94.3929 59.3953 0 1 0  255 0 0 255
-159.625 94.3929 124.825 0 1 0  255 0 0 255
-154.406 94.3929 18.7944 0 1 0  255 0 0 255
-162.045 94.3929 52.4261 0 1 0  255 0 0 255
-160.426 94.3929 45.5244 0 1 0  255 0 0 255
-192.687 94.3929 86.116 0 1 0  255 255 255 255
-195.731 94.3929 101.4 0 1 0  255 255 255 255
-193.851 94.3929 145.796 0 1 0  255 0 0 255
-193.851 94.3929 24.2037 0 1 0  255 0 0 255
-170.24 94.3929 147.458 0 1 0  255 0 0 255
-197.188 94.3929 57.3302 0 1 0  255 0 0 255
-187.04 94.3929 24.464 0 1 0  255 0 0 255
-187.04 94.3929 145.536 0 1 0  255 0 0 255
-128.551 94.3929 58.7254 0 1 0  255 0 0 255
-157.237 94.3929 90.6488 0 1 0  255 255 255 255
-114.41 94.3929 101.351 0 1 0  255 0 0 255
-164.734 94.3929 143.51 0 1 0  255 0 0 255
-134.224 94.3929 132.987 0 1 0  255 0 0 255
-151.362 94.3929 108.398 0 1 0  255 255 255 255
-147.625 94.3929 166.489 0 1 0  255 0 0 255
-147.625 94.3929 3.51119 0 1 0  255 0 0 255
-190.178 94.3929 33.6663 0 1 0  255 0 0 255
-190.178 94.3929 136.334 0 1 0  255 0 0 255
-202.965 94.3929 161.678 0 1 0  255 0 0 255
-202.965 94.3929 8.32202 0 1 0  255 0 0 255
-141.922 94.3929 107.171 0 1 0  255 255 255 255
-118.742 94.3929 50.7249 0 1 0  255 0 0 255
-202.742 94.3929 68.1919 0 1 0  255 0 0 255
-131.919 94.3929 166.473 0 1 0  255 0 0 255
-132.048 94.3929 3.13646 0 1 0  255 0 0 255
-132.492 94.3929 70.4288 0 1 0  255 255 255 255
-142.933 94.3929 161.52 0 1 0  255 0 0 255
-142.933 94.3929 8.47978 0 1 0  255 0 0 255
-109.338 94.3929 56.9933 0 1 0  255 0 0 255
-152.752 94.3929 147.496 0 1 0  255 0 0 255
-187.881 94.3929 111.408 0 1 0  255 255 255 255
-187.582 94.3929 129.477 0 1 0  255 255 255 255
-112.896 94.3929 43.9132 0 1 0  255 0 0 255
-113.173 94.3929 124.664 0 1 0  255 0 0 255
-133.253 94.3929 76.6429 0 1 0  255 255 255 255
-121.786 94.3929 14.0759 0 1 0  255 0 0 255
-114.679 94.3929 21.1948 0 1 0  255 0 0 255
-154.244 94.3929 3.27035 0 1 0  255 0 0 255
-154.21 94.3929 166.495 0 1 0  255 0 0 255
-198.139 94.3929 29.7804 0 1 0  255 0 0 255
-198.139 94.3929 140.22 0 1 0  255 0 0 255
-157.162 94.3929 107.578 0 1 0  255 255 255 255
-127.858 94.3929 124.35 0 1 0  255 0 0 255
-134.979 94.3929 107.521 0 1 0  255 0 0 255
-187.638 94.3929 40.3023 0 1 0  255 0 0 255
-114.661 94.3929 83.9482 0 1 0  255 255 255 255
-198.661 94.3929 84.9871 0 1 0  255 255 255 255
-159.166 94.3929 18.9404 0 1 0  255 0 0 255
-126.522 94.3929 101.193 0 1 0  255 0 0 255
-115.312 94.3929 156.658 0 1 0  255 0 0 255
-129.488 94.3929 147.341 0 1 0  255 0 0 255
-185.817 94.3929 74.7869 0 1 0  255 0 0 255
-182.983 94.3929 106.684 0 1 0  255 255 255 255
-109.399 94.3929 85.5221 0 1 0  255 255 255 255
-188.946 94.3929 20.6443 0 1 0  255 0 0 255
-188.946 94.3929 149.356 0 1 0  255 0 0 255
-202.961 94.3929 46.4798 0 1 0  255 0 0 255
-153.281 94.3929 124.181 0 1 0  255 0 0 255
-180.256 94.3929 96.2131 0 1 0  255 255 255 255
-142.139 94.3929 126.43 0 1 0  255 0 0 255
-129.434 94.3929 22.7702 0 1 0  255 0 0 255
-173.23 94.3929 27.1927 0 1 0  255 0 0 255
-172.75 94.3929 37.1945 0 1 0  255 0 0 255
-197.142 94.3929 69.8254 0 1 0  255 0 0 255
-162.601 94.3929 82.4827 0 1 0  255 255 255 255
-179.718 94.3929 134.319 0 1 0  255 0 0 255
-163.247 94.3929 35.4262 0 1 0  255 0 0 255
-176.349 94.3929 83.7595 0 1 0  255 255 255 255
-132.361 94.3929 7.58953 0 1 0  255 0 0 255
-132.255 94.3929 162.452 0 1 0  255 0 0 255
-180.063 94.3929 7.59011 0 1 0  255 0 0 255
-180.063 94.3929 162.41 0 1 0  255 0 0 255
-123.14 94.3929 48.8798 0 1 0  255 0 0 255
-124.697 94.3929 92.1169 0 1 0  255 255 255 255
-179.749 94.3929 122.553 0 1 0  255 255 255 255
-138.333 94.3929 139.051 0 1 0  255 0 0 255
-139.133 94.3929 14.0111 0 1 0  255 0 0 255
-139.096 94.3929 155.893 0 1 0  255 0 0 255
-119.515 94.3929 88.2763 0 1 0  255 255 255 255
-179.689 94.3929 47.5511 0 1 0  255 0 0 255
-149.192 94.3929 47.8774 0 1 0  255 0 0 255
-145.099 94.3929 72.2475 0 1 0  255 255 255 255
-137.874 94.3929 43.5722 0 1 0  255 0 0 255
-163.86 94.3929 89.7725 0 1 0  255 255 255 255
-150.907 94.3929 38.0636 0 1 0  255 0 0 255
-120.844 94.3929 115.27 0 1 0  255 0 0 255
-174.892 94.3929 90.3713 0 1 0  255 255 255 255
-143.398 94.3929 83.1014 0 1 0  255 255 255 255
-152.497 94.3929 102.239 0 1 0  255 255 255 255
-109.242 94.3929 129.028 0 1 0  255 0 0 255
-185.528 94.3929 54.9466 0 1 0  255 0 0 255
-153.294 94.3929 8.80447 0 1 0  255 0 0 255
-178.857 94.3929 137.941 0 1 0  255 0 0 255
-190.163 94.3929 79.845 0 1 0  255 0 0 255
-109.35 94.3929 15.1224 0 1 0  255 0 0 255
-109.187 94.3929 109.309 0 1 0  255 0 0 255
-151.714 94.3929 13.3104 0 1 0  255 0 0 255
-145.643 94.3929 14.6526 0 1 0  255 0 0 255
-203.167 94.3929 89.1508 0 1 0  255 255 255 255
-148.154 94.3929 157.604 0 1 0  255 0 0 255
-166.079 94.3929 83.6822 0 1 0  255 255 255 255
-183.007 94.3929 19.0715 0 1 0  255 0 0 255
-182.946 94.3929 150.89 0 1 0  255 0 0 255
-166.536 94.3929 35.4454 0 1 0  255 0 0 255
-164.46 94.3929 129.862 0 1 0  255 0 0 255
-125.74 94.3929 130.523 0 1 0  255 0 0 255
-150.919 94.3929 136.923 0 1 0  255 0 0 255
-151.75 94.3929 118.007 0 1 0  255 0 0 255
-158.364 94.3929 97.1027 0 1 0  255 255 255 255
-184.865 94.3929 124.385 0 1 0  255 255 255 255
-116.944 94.3929 116.13 0 1 0  255 0 0 255
-148.824 94.3929 142.725 0 1 0  255 0 0 255
-184.737 94.3929 97.3764 0 1 0  255 255 255 255
-122.75 94.3929 145.476 0 1 0  255 0 0 255
-142.574 94.3929 147.472 0 1 0  255 0 0 255
-152.53 94.3929 162.441 0 1 0  255 0 0 255
-158.763 94.3929 52.2573 0 1 0  255 0 0 255
-163.442 94.3929 25.3954 0 1 0  255 0 0 255
-124.702 94.3929 84.8107 0 1 0  255 255 255 255
-114.291 94.3929 153.397 0 1 0  255 0 0 255
-128.513 94.3929 136.281 0 1 0  255 0 0 255
-113.257 94.3929 9.10057 0 1 0  255 0 0 255
-181.031 94.3929 3.10213 0 1 0  255 0 0 255
-181.031 94.3929 166.898 0 1 0  255 0 0 255
-178.952 94.3929 31.9321 0 1 0  255 0 0 255
-120.379 94.3929 139.965 0 1 0  255 0 0 255
-162.063 94.3929 99.7862 0 1 0  255 255 255 255
-153.684 94.3929 43.6997 0 1 0  255 0 0 255
-153.393 94.3929 32.1585 0 1 0  255 0 0 255
-155.503 94.3929 47.0002 0 1 0  255 0 0 255
-132.637 94.3929 120.177 0 1 0  255 0 0 255
-176.934 94.3929 51.7552 0 1 0  255 0 0 255
-141.39 94.3929 93.7112 0 1 0  255 255 255 255
-185.582 94.3929 88.446 0 1 0  255 255 255 255
-122.818 94.3929 37.3315 0 1 0  255 0 0 255
-109.092 94.3929 29.8052 0 1 0  255 0 0 255
-203.304 94.3929 17.9169 0 1 0  255 0 0 255
-203.304 94.3929 152.083 0 1 0  255 0 0 255
-123.799 94.3929 20.4228 0 1 0  255 0 0 255
-150.862 94.3929 77.2094 0 1 0  255 255 255 255
-168.757 94.3929 126.421 0 1 0  255 0 0 255
-148.391 94.3929 162.994 0 1 0  255 0 0 255
-148.269 94.3929 7.1219 0 1 0  255 0 0 255
-202.89 94.3929 129.849 0 1 0  255 255 255 255
-177.84 94.3929 22.6203 0 1 0  255 0 0 255
-137.001 94.3929 102.327 0 1 0  255 255 255 255
-150.778 94.3929 89.771 0 1 0  255 255 255 255
-185.13 94.3929 136.086 0 1 0  255 0 0 255
-185.13 94.3929 33.914 0 1 0  255 0 0 255
-109.168 94.3929 99.0112 0 1 0  255 0 0 255
-174.512 94.3929 132.884 0 1 0  255 0 0 255
-109.262 94.3929 145.689 0 1 0  255 0 0 255
-113.371 94.3929 25.5751 0 1 0  255 0 0 255
-176.856 94.3929 143.862 0 1 0  255 0 0 255
-138.27 94.3929 56.5055 0 1 0  255 0 0 255
-199.374 94.3929 8.86611 0 1 0  255 0 0 255
-199.374 94.3929 161.134 0 1 0  255 0 0 255
-148.998 94.3929 19.9761 0 1 0  255 0 0 255
-137.777 94.3929 36.962 0 1 0  255 0 0 255
-174.382 94.3929 43.5915 0 1 0  255 0 0 255
-173.82 94.3929 59.2426 0 1 0  255 0 0 255
-113.19 94.3929 50.1019 0 1 0  255 0 0 255
-160.182 94.3929 93.7868 0 1 0  255 255 255 255
-155.471 94.3929 129.014 0 1 0  255 0 0 255
-199.501 94.3929 40.8924 0 1 0  255 0 0 255
-184.713 94.3929 43.7618 0 1 0  255 0 0 255
-203.484 94.3929 115.088 0 1 0  255 255 255 255
-203.195 94.3929 52.6157 0 1 0  255 0 0 255
-123.765 94.3929 45.5251 0 1 0  255 0 0 255
-154.284 94.3929 57.1309 0 1 0  255 0 0 255
-191.616 94.3929 117.266 0 1 0  255 255 255 255
-125.835 94.3929 88.8407 0 1 0  255 255 255 255
-114.685 94.3929 162.911 0 1 0  255 0 0 255
-114.308 94.3929 77.4081 0 1 0  255 255 255 255
-136.312 94.3929 8.08889 0 1 0  255 0 0 255
-136.312 94.3929 161.911 0 1 0  255 0 0 255
-131.363 94.3929 102.547 0 1 0  255 0 0 255
-170.447 94.3929 143.453 0 1 0  255 0 0 255
-142.181 94.3929 136.918 0 1 0  255 0 0 255
-122.318 94.3929 25.0754 0 1 0  255 0 0 255
-184.386 94.3929 139.471 0 1 0  255 0 0 255
-184.386 94.3929 30.5292 0 1 0  255 0 0 255
-163.904 94.3929 47.0769 0 1 0  255 0 0 255
-132.707 94.3929 96.961 0 1 0  255 255 255 255
-140.55 94.3929 63.6589 0 1 0  255 0 0 255
-129.538 94.3929 19.0817 0 1 0  255 0 0 255
-187.521 94.3929 122.546 0 1 0  255 255 255 255
-126.342 94.3929 17.7134 0 1 0  255 0 0 255
-181.181 94.3929 41.6516 0 1 0  255 0 0 255
-127.325 94.3929 161.948 0 1 0  255 0 0 255
-185.14 94.3929 162.002 0 1 0  255 0 0 255
-185.14 94.3929 7.9979 0 1 0  255 0 0 255
-123.278 94.3929 66.8884 0 1 0  255 255 255 255
-176.57 94.3929 37.885 0 1 0  255 0 0 255
-113.367 94.3929 32.4684 0 1 0  255 0 0 255
-109.204 94.3929 163.062 0 1 0  255 0 0 255
-133.584 94.3929 51.6765 0 1 0  255 0 0 255
-190.479 94.3929 91.303 0 1 0  255 255 255 255
-192.37 94.3929 27.2388 0 1 0  255 0 0 255
-192.37 94.3929 142.761 0 1 0  255 0 0 255
