ply
format ascii 1.0
comment VCGLIB generated
element vertex 753
property float x
property float y
property float z
property float nx
property float ny
property float nz
property uchar red
property uchar green
property uchar blue
property uchar alpha
element face 0
property list uchar int vertex_indices
end_header
-5.87741 -1.2067 0.558476 -0.979567 -0.201116 0  255 255 255 255
-5.85542 -1.30924 0.449785 -0.975903 -0.218206 0  255 255 255 255
-5.82591 -1.43483 0.414897 -0.970986 -0.239138 0  255 255 255 255
-5.83981 -1.37718 0.609268 -0.973302 -0.22953 0  255 255 255 255
-5.79636 -1.54989 0.559984 -0.966061 -0.258315 0  255 255 255 255
-5.76978 -1.6461 0.451565 -0.96163 -0.274351 0  255 255 255 255
-5.75022 -1.71319 0.596824 -0.958369 -0.285532 0  255 255 255 255
-5.737 -1.75695 0.411345 -0.956166 -0.292825 0  255 255 255 255
-5.69923 -1.87584 0.53631 -0.949872 -0.312639 0  255 255 255 255
-5.67158 -1.95786 0.40524 -0.945263 -0.32631 0  255 255 255 255
-5.64703 -2.02759 0.53917 -0.941171 -0.337931 0  255 255 255 255
-5.63183 -2.06941 0.37237 -0.938639 -0.344902 0  255 255 255 255
-5.58652 -2.1888 0.537417 -0.931086 -0.3648 0  255 255 255 255
-5.55101 -2.27734 0.393935 -0.925169 -0.379557 0  255 255 255 255
-5.51815 -2.35585 0.530144 -0.919691 -0.392642 0  255 255 255 255
-5.50379 -2.38919 0.354364 -0.917299 -0.398199 0  255 255 255 255
-5.4506 -2.50817 0.491957 -0.908434 -0.418029 0  255 255 255 255
-5.41336 -2.58757 0.372904 -0.902227 -0.431262 0  255 255 255 255
-5.38068 -2.65486 0.502794 -0.89678 -0.442477 0  255 255 255 255
-5.36117 -2.69405 0.348609 -0.893528 -0.449008 0  255 255 255 255
-5.30744 -2.7984 0.493781 -0.884574 -0.4664 0  255 255 255 255
-5.2571 -2.89187 0.394403 -0.876183 -0.481979 0  255 255 255 255
-5.21798 -2.96187 0.549968 -0.869663 -0.493646 0  255 255 255 255
-5.19475 -3.00242 0.358778 -0.865792 -0.500404 0  255 255 255 255
-5.13363 -3.10577 0.47702 -0.855606 -0.517628 0  255 255 255 255
-5.07667 -3.19803 0.38372 -0.846112 -0.533004 0  255 255 255 255
-5.00592 -3.30769 0.362851 -0.83432 -0.551281 0  255 255 255 255
-5.04557 -3.24687 0.555166 -0.840929 -0.541146 0  255 255 255 255
-4.94091 -3.40403 0.511963 -0.823484 -0.567339 0  255 255 255 255
-4.87952 -3.49145 0.399665 -0.813254 -0.581909 0  255 255 255 255
-4.84259 -3.5425 0.554305 -0.807099 -0.590417 0  255 255 255 255
-4.8075 -3.58997 0.37903 -0.801251 -0.598329 0  255 255 255 255
-4.7403 -3.67825 0.523372 -0.79005 -0.613042 0  255 255 255 255
-4.67626 -3.75933 0.41555 -0.779377 -0.626555 0  255 255 255 255
-4.6266 -3.82028 0.569046 -0.7711 -0.636714 0  255 255 255 255
-4.59875 -3.85376 0.373098 -0.766459 -0.642293 0  255 255 255 255
-4.52076 -3.94496 0.489517 -0.753461 -0.657493 0  255 255 255 255
-4.44993 -4.02469 0.391716 -0.741655 -0.670782 0  255 255 255 255
-4.35977 -4.12219 0.367369 -0.726628 -0.687031 0  255 255 255 255
-4.40883 -4.06967 0.565606 -0.734805 -0.678278 0  255 255 255 255
-4.27466 -4.21037 0.520109 -0.712444 -0.701729 0  255 255 255 255
-4.18052 -4.30386 0.402105 -0.696754 -0.71731 0  255 255 255 255
-4.16196 -4.32181 0.569368 -0.693661 -0.720302 0  255 255 255 255
-4.10052 -4.38015 0.467916 -0.683421 -0.730025 0  255 255 255 255
-4.05333 -4.42385 0.608495 -0.675555 -0.737309 0  255 255 255 255
-4.01477 -4.45889 0.438625 -0.669128 -0.743147 0  255 255 255 255
-3.93063 -4.53323 0.565601 -0.655105 -0.755538 0  255 255 255 255
-3.85287 -4.5995 0.451786 -0.642145 -0.766583 0  255 255 255 255
-3.79672 -4.64596 0.602993 -0.632787 -0.774326 0  255 255 255 255
-3.75172 -4.68237 0.407203 -0.625287 -0.780395 0  255 255 255 255
-3.66568 -4.75003 0.54814 -0.610946 -0.791672 0  255 255 255 255
-3.43351 -4.92047 0.401123 -0.572251 -0.820078 0  255 255 255 255
-3.52939 -4.85215 0.514487 -0.588232 -0.808692 0  255 255 255 255
-3.38187 -4.9561 0.570667 -0.563646 -0.826017 0  255 255 255 255
-3.22666 -5.05852 0.523346 -0.537777 -0.843087 0  255 255 255 255
-3.13655 -5.11488 0.408973 -0.522759 -0.852481 0  255 255 255 255
-2.98311 -5.20587 0.453766 -0.497184 -0.867645 0  255 255 255 255
-3.07586 -5.15161 0.563405 -0.512644 -0.858601 0  255 255 255 255
-2.92694 -5.23766 0.597392 -0.487823 -0.872943 0  255 255 255 255
-2.7735 -5.3205 0.55191 -0.462251 -0.886749 0  255 255 255 255
-2.65889 -5.37869 0.427443 -0.443148 -0.896448 0  255 255 255 255
-2.56086 -5.42605 0.485227 -0.42681 -0.904341 0  255 255 255 255
-2.62853 -5.39359 0.613938 -0.438088 -0.898932 0  255 255 255 255
-2.48177 -5.46268 0.60739 -0.413628 -0.910446 0  255 255 255 255
-2.40224 -5.49811 0.475753 -0.400373 -0.916352 0  255 255 255 255
-2.33398 -5.52743 0.609421 -0.388997 -0.921239 0  255 255 255 255
-2.29708 -5.54287 0.426844 -0.382846 -0.923812 0  255 255 255 255
-2.18603 -5.5876 0.559104 -0.364338 -0.931267 0  255 255 255 255
-2.09024 -5.62414 0.444162 -0.348373 -0.937356 0  255 255 255 255
-2.02128 -5.64929 0.599852 -0.33688 -0.941548 0  255 255 255 255
-1.96622 -5.66869 0.403738 -0.327703 -0.944781 0  255 255 255 255
-1.86223 -5.70369 0.549491 -0.310372 -0.950615 0  255 255 255 255
-1.58265 -5.78751 0.412737 -0.263775 -0.964584 0  255 255 255 255
-1.69841 -5.7546 0.521924 -0.283069 -0.9591 0  255 255 255 255
-1.52368 -5.80331 0.587651 -0.253947 -0.967218 0  255 255 255 255
-1.34287 -5.8478 0.555063 -0.223811 -0.974632 0  255 255 255 255
-1.23992 -5.87048 0.45995 -0.206653 -0.978414 0  255 255 255 255
-1.07668 -5.90261 0.499266 -0.179446 -0.983768 0  255 255 255 255
-1.17484 -5.88385 0.602887 -0.195807 -0.980643 0  255 255 255 255
-1.01439 -5.91363 0.626421 -0.169065 -0.985605 0  255 255 255 255
-0.96939 -5.92117 0.45977 -0.161565 -0.986862 0  255 255 255 255
-0.855977 -5.93863 0.575293 -0.142663 -0.989771 0  255 255 255 255
-0.759936 -5.95168 0.453899 -0.126656 -0.991947 0  255 255 255 255
-0.676271 -5.96177 0.599717 -0.112712 -0.993628 0  255 255 255 255
-0.637574 -5.96603 0.397556 -0.106262 -0.994338 0  255 255 255 255
-0.514581 -5.97789 0.507596 -0.085764 -0.996316 0  255 255 255 255
-0.408283 -5.98609 0.402574 -0.068047 -0.997682 0  255 255 255 255
-0.275337 -5.99368 0.37281 -0.04589 -0.998947 0  255 255 255 255
-0.345957 -5.99002 0.575957 -0.05766 -0.998336 0  255 255 255 255
-0.151674 -5.99808 0.522898 -0.025279 -0.99968 0  255 255 255 255
-0.020585 -5.99997 0.399047 -0.003431 -0.999994 0  255 255 255 255
0.008198 -5.99999 0.567348 0.001366 -0.999999 0  255 255 255 255
0.091756 -5.9993 0.460817 0.015293 -0.999883 0  255 255 255 255
0.160073 -5.99786 0.602448 0.026679 -0.999644 0  255 255 255 255
0.209631 -5.99634 0.424681 0.034939 -0.999389 0  255 255 255 255
0.328388 -5.99101 0.553952 0.054731 -0.998501 0  255 255 255 255
0.429492 -5.98461 0.434916 0.071582 -0.997435 0  255 255 255 255
0.513078 -5.97802 0.586343 0.085513 -0.996337 0  255 255 255 255
0.554055 -5.97436 0.384943 0.092343 -0.995727 0  255 255 255 255
0.676377 -5.96175 0.498876 0.112729 -0.993626 0  255 255 255 255
0.782738 -5.94872 0.396868 0.130456 -0.991454 0  255 255 255 255
0.914665 -5.92987 0.369243 0.152444 -0.988312 0  255 255 255 255
0.844252 -5.94031 0.570513 0.140709 -0.990051 0  255 255 255 255
1.03661 -5.90978 0.519863 0.172768 -0.984963 0  255 255 255 255
1.16566 -5.88568 0.397219 0.194276 -0.980947 0  255 255 255 255
1.19374 -5.88005 0.565264 0.198957 -0.980008 0  255 255 255 255
1.2756 -5.86284 0.459223 0.2126 -0.977139 0  255 255 255 255
1.34217 -5.84796 0.600829 0.223695 -0.974659 0  255 255 255 255
1.39055 -5.83664 0.423336 0.231758 -0.972774 0  255 255 255 255
1.50575 -5.80799 0.552456 0.250959 -0.967998 0  255 255 255 255
1.60351 -5.78176 0.433292 0.267251 -0.963627 0  255 255 255 255
1.6841 -5.7588 0.584448 0.280683 -0.9598 0  255 255 255 255
1.72322 -5.74722 0.38281 0.287203 -0.95787 0  255 255 255 255
1.84037 -5.71078 0.495224 0.306728 -0.951797 0  255 255 255 255
1.94003 -5.6777 0.391859 0.323339 -0.946283 0  255 255 255 255
2.0596 -5.63543 0.361308 0.343267 -0.939238 0  255 255 255 255
2.00124 -5.65642 0.562709 0.33354 -0.942736 0  255 255 255 255
2.16159 -5.5971 0.490518 0.360265 -0.93285 0  255 255 255 255
2.26313 -5.55682 0.398972 0.377188 -0.926137 0  255 255 255 255
2.38195 -5.50694 0.384982 0.396991 -0.917822 0  255 255 255 255
2.30969 -5.53763 0.575823 0.384948 -0.922938 0  255 255 255 255
2.47805 -5.46437 0.54175 0.413008 -0.910728 0  255 255 255 255
2.57076 -5.42136 0.445452 0.428461 -0.90356 0  255 255 255 255
2.62354 -5.39602 0.58665 0.437256 -0.899337 0  255 255 255 255
2.67245 -5.37196 0.41936 0.445408 -0.895328 0  255 255 255 255
2.77004 -5.3223 0.555485 0.461674 -0.88705 0  255 255 255 255
2.86309 -5.27283 0.447294 0.477181 -0.878805 0  255 255 255 255
2.97644 -5.20968 0.412445 0.496074 -0.86828 0  255 255 255 255
2.92505 -5.23871 0.606381 0.487509 -0.873118 0  255 255 255 255
3.08068 -5.14873 0.556547 0.513448 -0.858121 0  255 255 255 255
3.16613 -5.09663 0.447875 0.527688 -0.849438 0  255 255 255 255
3.22733 -5.05809 0.591711 0.537889 -0.843016 0  255 255 255 255
3.2644 -5.03425 0.40684 0.544067 -0.839042 0  255 255 255 255
3.3712 -4.96337 0.528267 0.561867 -0.827228 0  255 255 255 255
3.44078 -4.91538 0.397526 0.573464 -0.819231 0  255 255 255 255
3.5032 -4.8711 0.524445 0.583867 -0.811849 0  255 255 255 255
3.53624 -4.84717 0.364075 0.589372 -0.807861 0  255 255 255 255
3.63194 -4.77588 0.506361 0.605323 -0.79598 0  255 255 255 255
3.71478 -4.71173 0.401509 0.61913 -0.785288 0  255 255 255 255
3.77951 -4.65997 0.556551 0.629918 -0.776662 0  255 255 255 255
3.81355 -4.63215 0.361739 0.635592 -0.772025 0  255 255 255 255
3.9083 -4.55249 0.477233 0.651383 -0.758749 0  255 255 255 255
3.98885 -4.48208 0.379074 0.664808 -0.747014 0  255 255 255 255
4.08385 -4.3957 0.350738 0.680642 -0.732617 0  255 255 255 255
4.03799 -4.43787 0.54879 0.672998 -0.739645 0  255 255 255 255
4.16517 -4.31872 0.478092 0.694196 -0.719786 0  255 255 255 255
4.2435 -4.24178 0.385343 0.707251 -0.706963 0  255 255 255 255
4.3352 -4.14802 0.364174 0.722533 -0.691337 0  255 255 255 255
4.28303 -4.20186 0.561055 0.713839 -0.70031 0  255 255 255 255
4.41759 -4.06016 0.518296 0.736265 -0.676694 0  255 255 255 255
4.50653 -3.96121 0.401313 0.751089 -0.660201 0  255 255 255 255
4.52323 -3.94213 0.568906 0.753872 -0.657022 0  255 255 255 255
4.57865 -3.87763 0.46781 0.763107 -0.646272 0  255 255 255 255
4.61983 -3.82846 0.608965 0.769973 -0.638077 0  255 255 255 255
4.65308 -3.78798 0.439088 0.775514 -0.631331 0  255 255 255 255
4.72316 -3.70024 0.566895 0.787194 -0.616706 0  255 255 255 255
4.7856 -3.61912 0.453387 0.7976 -0.603186 0  255 255 255 255
4.82922 -3.5607 0.605587 0.80487 -0.593451 0  255 255 255 255
4.86344 -3.51383 0.409469 0.810573 -0.585638 0  255 255 255 255
4.92685 -3.42435 0.552128 0.821142 -0.570724 0  255 255 255 255
5.08622 -3.18282 0.407201 0.847704 -0.53047 0  255 255 255 255
5.02238 -3.28264 0.520523 0.837063 -0.547107 0  255 255 255 255
5.11943 -3.12912 0.581585 0.853239 -0.521521 0  255 255 255 255
5.21616 -2.96508 0.541605 0.869359 -0.494181 0  255 255 255 255
5.28142 -2.84721 0.420552 0.880237 -0.474535 0  255 255 255 255
5.33239 -2.75057 0.481301 0.888731 -0.458429 0  255 255 255 255
5.29655 -2.81897 0.610815 0.882758 -0.469829 0  255 255 255 255
5.37223 -2.67191 0.605451 0.895373 -0.445318 0  255 255 255 255
5.41084 -2.59285 0.472588 0.901806 -0.432141 0  255 255 255 255
5.44344 -2.52368 0.606511 0.90724 -0.420614 0  255 255 255 255
5.45968 -2.48835 0.42232 0.909946 -0.414726 0  255 255 255 255
5.51002 -2.3748 0.552057 0.918337 -0.3958 0  255 255 255 255
5.54892 -2.28244 0.432324 0.924819 -0.380407 0  255 255 255 255
5.58069 -2.2036 0.583559 0.930115 -0.367267 0  255 255 255 255
5.59539 -2.166 0.382567 0.932566 -0.361001 0  255 255 255 255
5.63899 -2.04982 0.496192 0.939832 -0.341637 0  255 255 255 255
5.67482 -1.94843 0.394349 0.945804 -0.324739 0  255 255 255 255
5.7171 -1.82064 0.366145 0.952851 -0.30344 0  255 255 255 255
5.69504 -1.88852 0.567145 0.949173 -0.314754 0  255 255 255 255
5.75421 -1.69974 0.515351 0.959034 -0.28329 0  255 255 255 255
5.79098 -1.5699 0.38986 0.965163 -0.26165 0  255 255 255 255
5.79874 -1.54099 0.559772 0.966456 -0.256831 0  255 255 255 255
5.82084 -1.45526 0.449328 0.970141 -0.242544 0  255 255 255 255
5.83794 -1.38508 0.596353 0.97299 -0.230846 0  255 255 255 255
5.85018 -1.33244 0.40513 0.97503 -0.222073 0  255 255 255 255
5.87704 -1.20848 0.538575 0.979506 -0.201414 0  255 255 255 255
5.90166 -1.08188 0.411063 0.983609 -0.180313 0  255 255 255 255
5.90825 -1.04527 0.590524 0.984708 -0.174211 0  255 255 255 255
5.92074 -0.972 0.462146 0.986791 -0.162 0  255 255 255 255
5.94697 -0.795933 0.43771 0.991162 -0.132655 0  255 255 255 255
5.93476 -0.882385 0.578755 0.989127 -0.147064 0  255 255 255 255
5.95754 -0.712543 0.566637 0.992923 -0.118757 0  255 255 255 255
5.96095 -0.683402 0.366867 0.993492 -0.1139 0  255 255 255 255
5.98284 -0.453456 0.385195 0.99714 -0.075576 0  255 255 255 255
5.97266 -0.572129 0.469625 0.995443 -0.095355 0  255 255 255 255
5.98964 -0.352489 0.486339 0.998273 -0.058748 0  255 255 255 255
5.99512 -0.241899 0.594252 0.999187 -0.040317 0  255 255 255 255
5.98457 -0.430049 1.39234 0.997428 -0.071675 0  255 255 255 255
5.98928 -0.358528 1.24698 0.998213 -0.059755 0  255 255 255 255
5.97992 -0.490504 1.2848 0.996653 -0.081751 0  255 255 255 255
5.97492 -0.548024 1.41476 0.99582 -0.091337 0  255 255 255 255
5.95292 -0.750165 1.32787 0.992153 -0.125027 0  255 255 255 255
5.96667 -0.63154 1.23096 0.994445 -0.105257 0  255 255 255 255
5.94427 -0.815838 1.1775 0.990713 -0.135973 0  255 255 255 255
5.92886 -0.921177 1.2808 0.988144 -0.15353 0  255 255 255 255
5.90976 -1.03667 1.31812 0.984961 -0.172778 0  255 255 255 255
5.91967 -0.978548 1.14581 0.986611 -0.163091 0  255 255 255 255
5.88154 -1.18639 1.37286 0.980256 -0.197732 0  255 255 255 255
5.89241 -1.13113 1.1866 0.982069 -0.188522 0  255 255 255 255
5.84549 -1.35286 1.41626 0.974249 -0.225477 0  255 255 255 255
5.86007 -1.28826 1.22196 0.976678 -0.21471 0  255 255 255 255
5.80458 -1.51882 1.44323 0.967431 -0.253136 0  255 255 255 255
5.82119 -1.45389 1.25142 0.970198 -0.242314 0  255 255 255 255
5.74193 -1.74075 1.41269 0.956989 -0.290126 0  255 255 255 255
5.77346 -1.63314 1.28674 0.962244 -0.27219 0  255 255 255 255
5.72322 -1.80132 1.26819 0.95387 -0.30022 0  255 255 255 255
5.70372 -1.86213 1.44201 0.950621 -0.310355 0  255 255 255 255
5.63184 -2.06938 1.40814 0.938641 -0.344897 0  255 255 255 255
5.66855 -1.96659 1.29086 0.944759 -0.327765 0  255 255 255 255
5.58607 -2.18995 1.4286 0.931011 -0.364991 0  255 255 255 255
5.6121 -2.12235 1.26132 0.93535 -0.353724 0  255 255 255 255
5.52558 -2.33838 1.43898 0.920929 -0.38973 0  255 255 255 255
5.55423 -2.26947 1.25992 0.925705 -0.378246 0  255 255 255 255
5.46073 -2.48604 1.44856 0.910122 -0.41434 0  255 255 255 255
5.48922 -2.42249 1.26426 0.91487 -0.403749 0  255 255 255 255
5.36354 -2.68933 1.39834 0.893923 -0.448221 0  255 255 255 255
5.41359 -2.5871 1.28064 0.902265 -0.431183 0  255 255 255 255
5.33513 -2.74524 1.2307 0.889189 -0.457541 0  255 255 255 255
5.19904 -2.995 1.38781 0.866506 -0.499167 0  255 255 255 255
5.25379 -2.89787 1.27208 0.875632 -0.482979 0  255 255 255 255
5.13194 -3.10856 1.41331 0.855324 -0.518094 0  255 255 255 255
5.17084 -3.04343 1.21786 0.861806 -0.507238 0  255 255 255 255
5.08075 -3.19155 1.24702 0.846791 -0.531925 0  255 255 255 255
5.04741 -3.24401 1.43805 0.841235 -0.540669 0  255 255 255 255
4.92185 -3.43153 1.40176 0.820309 -0.571921 0  255 255 255 255
4.98337 -3.34156 1.27906 0.830561 -0.556927 0  255 255 255 255
4.84643 -3.53724 1.42439 0.807739 -0.58954 0  255 255 255 255
4.88736 -3.48047 1.25326 0.81456 -0.580079 0  255 255 255 255
4.74951 -3.66636 1.43629 0.791585 -0.611059 0  255 255 255 255
4.79372 -3.60836 1.25618 0.798953 -0.601394 0  255 255 255 255
4.64624 -3.79637 1.44513 0.774374 -0.632728 0  255 255 255 255
4.69301 -3.7384 1.26187 0.782168 -0.623067 0  255 255 255 255
4.54103 -3.92161 1.45741 0.756839 -0.653602 0  255 255 255 255
4.58501 -3.8701 1.27164 0.764169 -0.645017 0  255 255 255 255
4.38939 -4.09063 1.41937 0.731565 -0.681772 0  255 255 255 255
4.464 -4.00908 1.29693 0.743999 -0.66818 0  255 255 255 255
4.345 -4.13775 1.27441 0.724166 -0.689625 0  255 255 255 255
4.30216 -4.18227 1.44738 0.717027 -0.697045 0  255 255 255 255
4.14662 -4.33654 1.41664 0.691102 -0.722757 0  255 255 255 255
4.22271 -4.26248 1.29713 0.703785 -0.710413 0  255 255 255 255
4.10062 -4.38006 1.27273 0.683437 -0.73001 0  255 255 255 255
4.05588 -4.42152 1.44292 0.67598 -0.73692 0  255 255 255 255
3.89181 -4.5666 1.40427 0.648634 -0.7611 0  255 255 255 255
3.97354 -4.49566 1.28884 0.662257 -0.749277 0  255 255 255 255
3.79197 -4.64984 1.4225 0.631995 -0.774973 0  255 255 255 255
3.84695 -4.60445 1.254 0.641158 -0.767409 0  255 255 255 255
3.66412 -4.75124 1.43041 0.610686 -0.791873 0  255 255 255 255
3.72219 -4.70588 1.24881 0.620364 -0.784314 0  255 255 255 255
3.52913 -4.85234 1.43632 0.588188 -0.808724 0  255 255 255 255
3.58866 -4.80848 1.24999 0.598111 -0.801413 0  255 255 255 255
3.39113 -4.94977 1.44452 0.565188 -0.824962 0  255 255 255 255
3.44983 -4.90904 1.25762 0.574972 -0.818173 0  255 255 255 255
3.25453 -5.04064 1.45774 0.542422 -0.840106 0  255 255 255 255
3.30741 -5.0061 1.27137 0.551235 -0.83435 0  255 255 255 255
3.06199 -5.15987 1.42052 0.510331 -0.859978 0  255 255 255 255
3.1538 -5.10427 1.29903 0.525633 -0.850711 0  255 255 255 255
3.00546 -5.193 1.27686 0.50091 -0.8655 0  255 255 255 255
2.9536 -5.22267 1.44809 0.492266 -0.870445 0  255 255 255 255
2.7612 -5.32689 1.41679 0.4602 -0.887815 0  255 255 255 255
2.85468 -5.27738 1.29721 0.475781 -0.879564 0  255 255 255 255
2.65007 -5.38304 1.44492 0.441679 -0.897173 0  255 255 255 255
2.70361 -5.35635 1.27129 0.450601 -0.892725 0  255 255 255 255
2.45216 -5.47603 1.41698 0.408693 -0.912672 0  255 255 255 255
2.54711 -5.43252 1.29362 0.424518 -0.905419 0  255 255 255 255
2.392 -5.50258 1.27469 0.398666 -0.917096 0  255 255 255 255
2.33913 -5.52526 1.44734 0.389856 -0.920876 0  255 255 255 255
2.13886 -5.60582 1.41972 0.356477 -0.934304 0  255 255 255 255
2.23501 -5.56819 1.30009 0.372502 -0.928031 0  255 255 255 255
2.07996 -5.62794 1.2784 0.34666 -0.937991 0  255 255 255 255
2.02415 -5.64826 1.44718 0.337358 -0.941376 0  255 255 255 255
1.81972 -5.7174 1.4114 0.303286 -0.9529 0  255 255 255 255
1.9212 -5.6841 1.29673 0.3202 -0.94735 0  255 255 255 255
1.69731 -5.75492 1.43062 0.282885 -0.959154 0  255 255 255 255
1.76579 -5.73428 1.265 0.294299 -0.955713 0  255 255 255 255
1.5425 -5.79834 1.43966 0.257084 -0.966389 0  255 255 255 255
1.61513 -5.77852 1.2621 0.269188 -0.963088 0  255 255 255 255
1.38137 -5.83882 1.44672 0.230228 -0.973137 0  255 255 255 255
1.45573 -5.82072 1.26439 0.242622 -0.970121 0  255 255 255 255
1.22141 -5.87436 1.45803 0.203569 -0.979061 0  255 255 255 255
1.28916 -5.85987 1.27261 0.21486 -0.976645 0  255 255 255 255
0.998551 -5.91633 1.41897 0.166425 -0.986054 0  255 255 255 255
1.10812 -5.89678 1.29723 0.184687 -0.982797 0  255 255 255 255
0.936027 -5.92654 1.27403 0.156004 -0.987756 0  255 255 255 255
0.87355 -5.93607 1.44595 0.145592 -0.989345 0  255 255 255 255
0.656243 -5.964 1.41038 0.109374 -0.994001 0  255 255 255 255
0.764234 -5.95113 1.2944 0.127372 -0.991855 0  255 255 255 255
0.527715 -5.97675 1.43018 0.087953 -0.996125 0  255 255 255 255
0.599752 -5.96995 1.26395 0.099959 -0.994992 0  255 255 255 255
0.366684 -5.98878 1.4397 0.061114 -0.998131 0  255 255 255 255
0.442282 -5.98368 1.26196 0.073714 -0.997279 0  255 255 255 255
0.200399 -5.99665 1.44717 0.0334 -0.999442 0  255 255 255 255
0.277174 -5.99359 1.26486 0.046196 -0.998932 0  255 255 255 255
0.036464 -5.99989 1.45887 0.006077 -0.999982 0  255 255 255 255
0.105941 -5.99906 1.27366 0.017657 -0.999844 0  255 255 255 255
-0.190112 -5.99699 1.42072 -0.031685 -0.999498 0  255 255 255 255
-0.078825 -5.99948 1.29895 -0.013138 -0.999914 0  255 255 255 255
-0.253163 -5.99466 1.27685 -0.042194 -0.999109 0  255 255 255 255
-0.316332 -5.99165 1.44829 -0.052722 -0.998609 0  255 255 255 255
-0.53385 -5.9762 1.41488 -0.088975 -0.996034 0  255 255 255 255
-0.425999 -5.98486 1.29865 -0.071 -0.997476 0  255 255 255 255
-0.660827 -5.9635 1.43655 -0.110138 -0.993916 0  255 255 255 255
-0.590468 -5.97087 1.27075 -0.098411 -0.995146 0  255 255 255 255
-0.814902 -5.9444 1.45049 -0.135817 -0.990734 0  255 255 255 255
-0.748124 -5.95318 1.27282 -0.124687 -0.992196 0  255 255 255 255
-1.03484 -5.91009 1.40144 -0.172474 -0.985014 0  255 255 255 255
-0.923058 -5.92857 1.28688 -0.153843 -0.988095 0  255 255 255 255
-1.09535 -5.89917 1.23485 -0.182559 -0.983195 0  255 255 255 255
-1.37427 -5.8405 1.38866 -0.229045 -0.973416 0  255 255 255 255
-1.26512 -5.86511 1.2741 -0.210854 -0.977518 0  255 255 255 255
-1.50236 -5.80887 1.41356 -0.250393 -0.968144 0  255 255 255 255
-1.42838 -5.8275 1.21889 -0.238063 -0.97125 0  255 255 255 255
-1.59623 -5.78377 1.24701 -0.266038 -0.963963 0  255 255 255 255
-1.65636 -5.76684 1.43773 -0.27606 -0.96114 0  255 255 255 255
-1.87172 -5.70058 1.40052 -0.311953 -0.950097 0  255 255 255 255
-1.76784 -5.73365 1.27806 -0.294639 -0.955609 0  255 255 255 255
-1.9943 -5.65887 1.42277 -0.332384 -0.943144 0  255 255 255 255
-1.92823 -5.68172 1.25121 -0.321372 -0.946953 0  255 255 255 255
-2.14472 -5.60359 1.43438 -0.357453 -0.933931 0  255 255 255 255
-2.07746 -5.62887 1.25331 -0.346244 -0.938145 0  255 255 255 255
-2.29451 -5.54394 1.44387 -0.382418 -0.923989 0  255 255 255 255
-2.23167 -5.56953 1.25899 -0.371945 -0.928255 0  255 255 255 255
-2.50258 -5.45317 1.38925 -0.417097 -0.908862 0  255 255 255 255
-2.39788 -5.50001 1.27401 -0.399647 -0.916669 0  255 255 255 255
-2.55763 -5.42757 1.21961 -0.426272 -0.904595 0  255 255 255 255
-2.80639 -5.30322 1.3499 -0.467731 -0.883871 0  255 255 255 255
-2.71062 -5.3528 1.25109 -0.451771 -0.892134 0  255 255 255 255
-2.91428 -5.24471 1.38162 -0.485713 -0.874118 0  255 255 255 255
-2.853 -5.27829 1.1953 -0.475501 -0.879715 0  255 255 255 255
-2.99919 -5.19662 1.22793 -0.499865 -0.866103 0  255 255 255 255
-3.04899 -5.16756 1.42094 -0.508165 -0.861259 0  255 255 255 255
-3.24485 -5.04688 1.38158 -0.540808 -0.841146 0  255 255 255 255
-3.14744 -5.10819 1.26278 -0.524574 -0.851365 0  255 255 255 255
-3.35721 -4.97284 1.40813 -0.559535 -0.828806 0  255 255 255 255
-3.29285 -5.01569 1.20803 -0.548808 -0.835949 0  255 255 255 255
-3.43844 -4.91702 1.2403 -0.573074 -0.819504 0  255 255 255 255
-3.48973 -4.88076 1.43429 -0.581621 -0.81346 0  255 255 255 255
-3.6716 -4.74546 1.39917 -0.611933 -0.79091 0  255 255 255 255
-3.58447 -4.81161 1.27476 -0.597411 -0.801935 0  255 255 255 255
-3.7736 -4.66476 1.42256 -0.628933 -0.777459 0  255 255 255 255
-3.71885 -4.70852 1.25024 -0.619808 -0.784753 0  255 255 255 255
-3.89776 -4.56152 1.43498 -0.649627 -0.760253 0  255 255 255 255
-3.84201 -4.60857 1.2541 -0.640335 -0.768096 0  255 255 255 255
-4.02238 -4.45201 1.44405 -0.670397 -0.742002 0  255 255 255 255
-3.96679 -4.50162 1.26036 -0.661132 -0.75027 0  255 255 255 255
-4.14207 -4.34088 1.45622 -0.690345 -0.72348 0  255 255 255 255
-4.09271 -4.38745 1.27027 -0.682119 -0.731242 0  255 255 255 255
-4.30292 -4.1815 1.41699 -0.717153 -0.696916 0  255 255 255 255
-4.22511 -4.2601 1.29511 -0.704185 -0.710016 0  255 255 255 255
-4.34705 -4.13559 1.27111 -0.724509 -0.689266 0  255 255 255 255
-4.39004 -4.08994 1.44366 -0.731673 -0.681656 0  255 255 255 255
-4.53678 -3.92653 1.40698 -0.75613 -0.654421 0  255 255 255 255
-4.4649 -4.00808 1.29035 -0.74415 -0.668013 0  255 255 255 255
-4.62056 -3.82758 1.42678 -0.770094 -0.63793 0  255 255 255 255
-4.57443 -3.8826 1.2582 -0.762405 -0.6471 0  255 255 255 255
-4.72213 -3.70155 1.43752 -0.787022 -0.616925 0  255 255 255 255
-4.6764 -3.75916 1.25539 -0.7794 -0.626526 0  255 255 255 255
-4.82107 -3.57173 1.44964 -0.803512 -0.595289 0  255 255 255 255
-4.78094 -3.62528 1.26063 -0.796823 -0.604213 0  255 255 255 255
-4.95333 -3.38593 1.40963 -0.825555 -0.564321 0  255 255 255 255
-4.89064 -3.47586 1.28483 -0.815107 -0.57931 0  255 255 255 255
-4.99056 -3.33082 1.26109 -0.83176 -0.555136 0  255 255 255 255
-5.02372 -3.28058 1.43679 -0.837287 -0.546764 0  255 255 255 255
-5.14134 -3.093 1.39853 -0.856889 -0.515501 0  255 255 255 255
-5.08523 -3.1844 1.28056 -0.847539 -0.530734 0  255 255 255 255
-5.20728 -2.98064 1.41715 -0.86788 -0.496774 0  255 255 255 255
-5.17252 -3.04056 1.24653 -0.862088 -0.506759 0  255 255 255 255
-5.28663 -2.83753 1.42468 -0.881105 -0.472921 0  255 255 255 255
-5.2524 -2.9004 1.24095 -0.875399 -0.483401 0  255 255 255 255
-5.36457 -2.68726 1.42966 -0.894096 -0.447876 0  255 255 255 255
-5.33209 -2.75114 1.2407 -0.888682 -0.458524 0  255 255 255 255
-5.4384 -2.53453 1.43664 -0.9064 -0.422421 0  255 255 255 255
-5.40903 -2.59661 1.24654 -0.901505 -0.432768 0  255 255 255 255
-5.50594 -2.38425 1.44817 -0.917656 -0.397376 0  255 255 255 255
-5.48178 -2.43929 1.25867 -0.91363 -0.406548 0  255 255 255 255
-5.59318 -2.17171 1.40419 -0.932197 -0.361952 0  255 255 255 255
-5.5535 -2.27126 1.28279 -0.925584 -0.378543 0  255 255 255 255
-5.63908 -2.04959 1.42648 -0.939846 -0.341598 0  255 255 255 255
-5.61667 -2.11021 1.25225 -0.936112 -0.351702 0  255 255 255 255
-5.69197 -1.89775 1.44148 -0.948662 -0.316291 0  255 255 255 255
-5.67131 -1.95864 1.25758 -0.945218 -0.326439 0  255 255 255 255
-5.74062 -1.74506 1.45718 -0.956771 -0.290843 0  255 255 255 255
-5.72324 -1.80126 1.27199 -0.953873 -0.300209 0  255 255 255 255
-5.80173 -1.52967 1.4212 -0.966955 -0.254946 0  255 255 255 255
-5.77412 -1.6308 1.30004 -0.962354 -0.2718 0  255 255 255 255
-5.81813 -1.46609 1.27816 -0.969688 -0.244348 0  255 255 255 255
-5.83209 -1.40953 1.44884 -0.972014 -0.234922 0  255 255 255 255
-5.87933 -1.19729 1.41765 -0.979888 -0.199549 0  255 255 255 255
-5.85753 -1.29976 1.29848 -0.976254 -0.216628 0  255 255 255 255
-5.90278 -1.07573 1.44562 -0.983796 -0.179289 0  255 255 255 255
-5.89184 -1.13414 1.27262 -0.981973 -0.189023 0  255 255 255 255
-5.93791 -0.860929 1.41717 -0.989652 -0.143488 0  255 255 255 255
-5.92206 -0.963964 1.29466 -0.98701 -0.160661 0  255 255 255 255
-5.94685 -0.796837 1.27506 -0.991142 -0.132806 0  255 255 255 255
-5.95432 -0.738976 1.44664 -0.992386 -0.123163 0  255 255 255 255
-5.9771 -0.523726 1.41545 -0.996183 -0.087288 0  255 255 255 255
-5.96696 -0.628805 1.29821 -0.994493 -0.104801 0  255 255 255 255
-5.98685 -0.396996 1.43877 -0.997809 -0.066166 0  255 255 255 255
-5.98193 -0.465368 1.27135 -0.996988 -0.077561 0  255 255 255 255
-5.99513 -0.241651 1.45628 -0.999189 -0.040275 0  255 255 255 255
-5.99218 -0.306207 1.27581 -0.998697 -0.051035 0  255 255 255 255
-5.99997 -0.01817 1.42009 -0.999995 -0.003028 0  255 255 255 255
-5.99864 -0.127485 1.29878 -0.999774 -0.021247 0  255 255 255 255
-5.99983 0.045709 1.27545 -0.999971 0.007618 0  255 255 255 255
-5.99904 0.107513 1.44786 -0.999839 0.017919 0  255 255 255 255
-5.99114 0.325872 1.41694 -0.998524 0.054312 0  255 255 255 255
-5.99598 0.219738 1.29762 -0.999329 0.036623 0  255 255 255 255
-5.98739 0.388833 1.273 -0.997898 0.064805 0  255 255 255 255
-5.98311 0.449889 1.44312 -0.997185 0.074982 0  255 255 255 255
-5.96271 0.667936 1.40443 -0.993784 0.111323 0  255 255 255 255
-5.9738 0.560144 1.28901 -0.995633 0.093357 0  255 255 255 255
-5.94683 0.797004 1.42263 -0.991138 0.132834 0  255 255 255 255
-5.95589 0.726161 1.25416 -0.992649 0.121027 0  255 255 255 255
-5.92295 0.95849 1.43055 -0.987158 0.159748 0  255 255 255 255
-5.93429 0.885588 1.24898 -0.989047 0.147598 0  255 255 255 255
-5.89366 1.12463 1.43649 -0.982276 0.187439 0  255 255 255 255
-5.90708 1.05186 1.25021 -0.984513 0.17531 0  255 255 255 255
-5.85965 1.29015 1.44474 -0.976609 0.215025 0  255 255 255 255
-5.8746 1.22027 1.25791 -0.9791 0.203378 0  255 255 255 255
-5.82218 1.44989 1.45802 -0.970364 0.241648 0  255 255 255 255
-5.83711 1.38856 1.27178 -0.972852 0.231427 0  255 255 255 255
-5.76332 1.66857 1.42096 -0.960554 0.278094 0  255 255 255 255
-5.79223 1.56528 1.29958 -0.965371 0.260881 0  255 255 255 255
-5.74473 1.73149 1.27764 -0.957455 0.288581 0  255 255 255 255
-5.72724 1.78848 1.44857 -0.954541 0.29808 0  255 255 255 255
-5.6583 1.9959 1.41727 -0.94305 0.33265 0  255 255 255 255
-5.69254 1.89606 1.29813 -0.948756 0.316009 0  255 255 255 255
-5.61574 2.11269 1.44512 -0.935956 0.352116 0  255 255 255 255
-5.63648 2.05671 1.27231 -0.939414 0.342786 0  255 255 255 255
-5.53518 2.31554 1.41599 -0.922531 0.385924 0  255 255 255 255
-5.57468 2.21877 1.29391 -0.929113 0.369795 0  255 255 255 255
-5.50976 2.3754 1.27313 -0.918293 0.3959 0  255 255 255 255
-5.48635 2.42899 1.44519 -0.914391 0.404832 0  255 255 255 255
-5.39479 2.62608 1.41545 -0.899131 0.437679 0  255 255 255 255
-5.43985 2.53142 1.29508 -0.906641 0.421903 0  255 255 255 255
-5.33947 2.7368 1.4442 -0.889912 0.456133 0  255 255 255 255
-5.36632 2.68377 1.27038 -0.894387 0.447295 0  255 255 255 255
-5.23675 2.92856 1.41652 -0.872792 0.488093 0  255 255 255 255
-5.28682 2.83717 1.29343 -0.881137 0.472861 0  255 255 255 255
-5.20492 2.98476 1.27457 -0.867487 0.49746 0  255 255 255 255
-5.17565 3.03523 1.44643 -0.862609 0.505872 0  255 255 255 255
-5.06299 3.21965 1.41586 -0.843831 0.536608 0  255 255 255 255
-5.11881 3.13014 1.29842 -0.853136 0.521689 0  255 255 255 255
-4.99379 3.32596 1.43949 -0.832299 0.554327 0  255 255 255 255
-5.03152 3.2686 1.27224 -0.838587 0.544767 0  255 255 255 255
-4.90611 3.45399 1.4573 -0.817685 0.575665 0  255 255 255 255
-4.9432 3.40071 1.27734 -0.823866 0.566784 0  255 255 255 255
-4.77465 3.63356 1.42142 -0.795774 0.605593 0  255 255 255 255
-4.84014 3.54585 1.30077 -0.80669 0.590975 0  255 255 255 255
-4.73662 3.68299 1.27776 -0.789437 0.613832 0  255 255 255 255
-4.69768 3.73253 1.44876 -0.782947 0.622089 0  255 255 255 255
-4.55876 3.90099 1.41548 -0.759793 0.650165 0  255 255 255 255
-4.62864 3.81782 1.29871 -0.77144 0.636303 0  255 255 255 255
-4.47414 3.99776 1.43794 -0.74569 0.666293 0  255 255 255 255
-4.52111 3.94457 1.27037 -0.753518 0.657427 0  255 255 255 255
-4.36818 4.11328 1.45448 -0.72803 0.685546 0  255 255 255 255
-4.41341 4.06471 1.27374 -0.735568 0.677451 0  255 255 255 255
-4.2113 4.27375 1.41583 -0.701883 0.712292 0  255 255 255 255
-4.28927 4.1955 1.29519 -0.714878 0.69925 0  255 255 255 255
-4.16593 4.31799 1.2691 -0.694321 0.719666 0  255 255 255 255
-4.12034 4.36152 1.44164 -0.686723 0.726919 0  255 255 255 255
-3.95726 4.51 1.4028 -0.659543 0.751667 0  255 255 255 255
-4.03859 4.43732 1.28645 -0.673098 0.739553 0  255 255 255 255
-3.85832 4.59493 1.42114 -0.643053 0.765822 0  255 255 255 255
-3.91292 4.54852 1.25201 -0.652153 0.758087 0  255 255 255 255
-3.73179 4.69827 1.42889 -0.621965 0.783045 0  255 255 255 255
-3.7895 4.65185 1.24666 -0.631584 0.775308 0  255 255 255 255
-3.59819 4.80136 1.43447 -0.599698 0.800226 0  255 255 255 255
-3.65749 4.75634 1.2472 -0.609581 0.792724 0  255 255 255 255
-3.46149 4.90083 1.44235 -0.576914 0.816805 0  255 255 255 255
-3.52005 4.85894 1.25402 -0.586675 0.809823 0  255 255 255 255
-3.32606 4.99373 1.45546 -0.554344 0.832288 0  255 255 255 255
-3.37878 4.95821 1.26722 -0.563131 0.826368 0  255 255 255 255
-3.1352 5.11571 1.41806 -0.522534 0.852619 0  255 255 255 255
-3.22622 5.0588 1.29514 -0.537704 0.843134 0  255 255 255 255
-3.07919 5.14962 1.27349 -0.513198 0.85827 0  255 255 255 255
-3.02799 5.17989 1.44556 -0.504666 0.863315 0  255 255 255 255
-2.83799 5.28638 1.41017 -0.472998 0.881064 0  255 255 255 255
-2.93126 5.23524 1.29426 -0.488544 0.872539 0  255 255 255 255
-2.72441 5.3458 1.42966 -0.454068 0.890967 0  255 255 255 255
-2.78695 5.31347 1.26358 -0.464492 0.885578 0  255 255 255 255
-2.58015 5.4169 1.43856 -0.430025 0.902817 0  255 255 255 255
-2.64702 5.38454 1.26085 -0.441169 0.897424 0  255 255 255 255
-2.42911 5.4863 1.44508 -0.404851 0.914383 0  255 255 255 255
-2.49814 5.45521 1.26257 -0.416357 0.909201 0  255 255 255 255
-2.27818 5.55067 1.45553 -0.379696 0.925111 0  255 255 255 255
-2.34142 5.52429 1.2696 -0.390237 0.920715 0  255 255 255 255
-2.06573 5.63318 1.41416 -0.344288 0.938864 0  255 255 255 255
-2.16969 5.59396 1.29242 -0.361616 0.932327 0  255 255 255 255
-2.00463 5.65522 1.26637 -0.334104 0.942536 0  255 255 255 255
-1.94578 5.67573 1.43987 -0.324297 0.945955 0  255 255 255 255
-1.73458 5.7438 1.40027 -0.289096 0.9573 0  255 255 255 255
-1.83839 5.71142 1.28362 -0.306398 0.951904 0  255 255 255 255
-1.60883 5.78028 1.4182 -0.268139 0.96338 0  255 255 255 255
-1.67677 5.76094 1.24835 -0.279463 0.960157 0  255 255 255 255
-1.45006 5.82214 1.4252 -0.241676 0.970357 0  255 255 255 255
-1.52046 5.80415 1.24192 -0.25341 0.967359 0  255 255 255 255
-1.28482 5.86082 1.42983 -0.214137 0.976804 0  255 255 255 255
-1.3555 5.84488 1.2411 -0.225917 0.974146 0  255 255 255 255
-1.11834 5.89485 1.43657 -0.186391 0.982476 0  255 255 255 255
-1.1863 5.88156 1.24654 -0.197717 0.980259 0  255 255 255 255
-0.955903 5.92337 1.44792 -0.159317 0.987227 0  255 255 255 255
-1.01562 5.91342 1.25837 -0.16927 0.98557 0  255 255 255 255
-0.728397 5.95562 1.40369 -0.1214 0.992604 0  255 255 255 255
-0.834938 5.94162 1.28223 -0.139156 0.99027 0  255 255 255 255
-0.598687 5.97006 1.42593 -0.099781 0.995009 0  255 255 255 255
-0.663342 5.96322 1.25141 -0.110557 0.99387 0  255 255 255 255
-0.438442 5.98396 1.44095 -0.073074 0.997327 0  255 255 255 255
-0.502987 5.97888 1.25656 -0.083831 0.99648 0  255 255 255 255
-0.278411 5.99354 1.45685 -0.046402 0.998923 0  255 255 255 255
-0.337587 5.9905 1.27101 -0.056265 0.998416 0  255 255 255 255
-0.054722 5.99975 1.42149 -0.00912 0.999958 0  255 255 255 255
-0.15967 5.99788 1.29962 -0.026612 0.999646 0  255 255 255 255
0.010633 5.99999 1.2789 0.001772 0.999998 0  255 255 255 255
0.068947 5.9996 1.44944 0.011491 0.999934 0  255 255 255 255
0.285588 5.9932 1.41657 0.047598 0.998867 0  255 255 255 255
0.180072 5.9973 1.30042 0.030012 0.99955 0  255 255 255 255
0.412546 5.9858 1.43892 0.068758 0.997633 0  255 255 255 255
0.344134 5.99012 1.27217 0.057356 0.998354 0  255 255 255 255
0.567645 5.97309 1.45529 0.094608 0.995515 0  255 255 255 255
0.50328 5.97886 1.27523 0.08388 0.996476 0  255 255 255 255
0.789827 5.94779 1.41659 0.131638 0.991298 0  255 255 255 255
0.68125 5.9612 1.29633 0.113542 0.993533 0  255 255 255 255
0.852921 5.93907 1.27017 0.142154 0.989845 0  255 255 255 255
0.914507 5.9299 1.44235 0.152418 0.988316 0  255 255 255 255
1.13156 5.89233 1.40372 0.188593 0.982055 0  255 255 255 255
1.02475 5.91184 1.28756 0.170791 0.985307 0  255 255 255 255
1.25921 5.86638 1.42225 0.209868 0.97773 0  255 255 255 255
1.18955 5.8809 1.25353 0.198258 0.98015 0  255 255 255 255
1.41839 5.82994 1.43036 0.236398 0.971656 0  255 255 255 255
1.34684 5.84688 1.24875 0.224473 0.97448 0  255 255 255 255
1.5817 5.78777 1.43635 0.263616 0.964628 0  255 255 255 255
1.51036 5.80679 1.25009 0.251726 0.967798 0  255 255 255 255
1.74398 5.74095 1.44456 0.290664 0.956825 0  255 255 255 255
1.67558 5.76129 1.25774 0.279262 0.960215 0  255 255 255 255
1.90025 5.69114 1.45776 0.316708 0.948523 0  255 255 255 255
1.8403 5.71081 1.27146 0.306716 0.951801 0  255 255 255 255
2.1136 5.6154 1.4205 0.352267 0.9359 0  255 255 255 255
2.01287 5.65229 1.29908 0.335478 0.942048 0  255 255 255 255
2.17476 5.59199 1.27685 0.36246 0.931999 0  255 255 255 255
2.23031 5.57007 1.448 0.371718 0.928346 0  255 255 255 255
2.43174 5.48513 1.41643 0.405291 0.914188 0  255 255 255 255
2.33474 5.52711 1.29706 0.389124 0.921186 0  255 255 255 255
2.5449 5.43355 1.44424 0.42415 0.905592 0  255 255 255 255
2.49058 5.45866 1.27087 0.415097 0.909777 0  255 255 255 255
2.74078 5.33743 1.41492 0.456797 0.889571 0  255 255 255 255
2.64748 5.38432 1.29245 0.441246 0.897386 0  255 255 255 255
2.79842 5.30743 1.2719 0.466404 0.884572 0  255 255 255 255
2.84978 5.28004 1.44375 0.474963 0.880006 0  255 255 255 255
3.03839 5.1738 1.40957 0.506399 0.862299 0  255 255 255 255
2.94693 5.22643 1.29353 0.491155 0.871072 0  255 255 255 255
3.14771 5.10803 1.4296 0.524618 0.851338 0  255 255 255 255
3.08793 5.14438 1.26359 0.514655 0.857397 0  255 255 255 255
3.28299 5.02215 1.43911 0.547165 0.837025 0  255 255 255 255
3.22077 5.06228 1.26151 0.536795 0.843713 0  255 255 255 255
3.42036 4.92962 1.44635 0.57006 0.821603 0  255 255 255 255
3.35794 4.97235 1.26405 0.559657 0.828724 0  255 255 255 255
3.55335 4.83464 1.45767 0.592225 0.805773 0  255 255 255 255
3.49777 4.875 1.27225 0.582961 0.8125 0  255 255 255 255
3.73316 4.69718 1.41844 0.622194 0.782863 0  255 255 255 255
3.64571 4.76538 1.29671 0.607618 0.79423 0  255 255 255 255
3.7825 4.65754 1.27326 0.630417 0.776257 0  255 255 255 255
3.83118 4.61758 1.44533 0.63853 0.769597 0  255 255 255 255
3.99678 4.47501 1.4095 0.666131 0.745835 0  255 255 255 255
3.91527 4.5465 1.2934 0.652544 0.75775 0  255 255 255 255
4.09178 4.38832 1.42933 0.681963 0.731386 0  255 255 255 255
4.03887 4.43707 1.26261 0.673145 0.739511 0  255 255 255 255
4.20735 4.27764 1.43926 0.701224 0.712941 0  255 255 255 255
4.15406 4.32941 1.26051 0.692343 0.721568 0  255 255 255 255
4.32067 4.16315 1.44856 0.720112 0.693858 0  255 255 255 255
4.27221 4.21287 1.26439 0.712034 0.702145 0  255 255 255 255
4.47386 3.99807 1.398 0.745643 0.666345 0  255 255 255 255
4.39729 4.08214 1.28041 0.732881 0.680356 0  255 255 255 255
4.51542 3.95108 1.23009 0.752569 0.658513 0  255 255 255 255
4.6976 3.73264 1.3868 0.782933 0.622106 0  255 255 255 255
4.62741 3.8193 1.2711 0.771235 0.63655 0  255 255 255 255
4.77859 3.62837 1.41204 0.796432 0.604729 0  255 255 255 255
4.73232 3.68852 1.21621 0.788719 0.614753 0  255 255 255 255
4.83709 3.55001 1.24477 0.806181 0.591669 0  255 255 255 255
4.87359 3.49973 1.43651 0.812265 0.583289 0  255 255 255 255
5.00215 3.31339 1.39985 0.833691 0.552231 0  255 255 255 255
4.94107 3.4038 1.27631 0.823512 0.567299 0  255 255 255 255
5.07292 3.20398 1.42317 0.845486 0.533997 0  255 255 255 255
5.03551 3.26247 1.25 0.839251 0.543744 0  255 255 255 255
5.1573 3.06632 1.43736 0.859549 0.511053 0  255 255 255 255
5.12085 3.1268 1.25373 0.853476 0.521133 0  255 255 255 255
5.23822 2.92592 1.45213 0.873038 0.487653 0  255 255 255 255
5.20642 2.98215 1.26389 0.867736 0.497025 0  255 255 255 255
5.34469 2.72658 1.41562 0.890782 0.45443 0  255 255 255 255
5.29475 2.82234 1.29148 0.882459 0.47039 0  255 255 255 255
5.37409 2.66818 1.27112 0.895681 0.444697 0  255 255 255 255
5.40042 2.61448 1.44405 0.90007 0.435746 0  255 255 255 255
5.49185 2.41652 1.40965 0.915309 0.402753 0  255 255 255 255
5.44808 2.51365 1.29326 0.908013 0.418942 0  255 255 255 255
5.54226 2.29856 1.42982 0.92371 0.383093 0  255 255 255 255
5.51489 2.36347 1.26366 0.919148 0.393912 0  255 255 255 255
5.60189 2.14915 1.43951 0.933648 0.358192 0  255 255 255 255
5.57487 2.2183 1.26195 0.929145 0.369717 0  255 255 255 255
5.65925 1.9932 1.44692 0.943209 0.332201 0  255 255 255 255
5.63369 2.06435 1.26484 0.938948 0.344059 0  255 255 255 255
5.7116 1.83784 1.45835 0.951933 0.306307 0  255 255 255 255
5.69026 1.90288 1.27331 0.948377 0.317146 0  255 255 255 255
5.7772 1.61987 1.41935 0.962867 0.269978 0  255 255 255 255
5.74621 1.72658 1.29779 0.957701 0.287764 0  255 255 255 255
5.79432 1.5575 1.27415 0.965721 0.259583 0  255 255 255 255
5.81024 1.49703 1.44665 0.968374 0.249504 0  255 255 255 255
5.86149 1.28179 1.41501 0.976914 0.213631 0  255 255 255 255
5.8376 1.38653 1.29483 0.972933 0.231088 0  255 255 255 255
5.88708 1.15857 1.44229 0.98118 0.193095 0  255 255 255 255
5.87512 1.21775 1.2695 0.979187 0.202959 0  255 255 255 255
5.9261 0.938806 1.40799 0.987683 0.156468 0  255 255 255 255
5.90831 1.04493 1.28811 0.984718 0.174155 0  255 255 255 255
5.93712 0.866395 1.24594 0.98952 0.144399 0  255 255 255 255
5.94435 0.815326 1.44301 0.990724 0.135888 0  255 255 255 255
5.96938 0.605385 1.43468 0.994897 0.100898 0  255 255 255 255
5.95943 0.696557 1.30708 0.993238 0.116093 0  255 255 255 255
5.97992 0.490521 1.47018 0.996653 0.081754 0  255 255 255 255
5.97515 0.545493 1.30765 0.995859 0.090916 0  255 255 255 255
5.9948 0.249824 1.41923 0.999133 0.041637 0  255 255 255 255
5.98726 0.39084 1.31623 0.997876 0.06514 0  255 255 255 255
5.9885 0.371357 0.391321 0.998083 0.061893 0  255 255 255 255
5.99852 0.13332 0.536883 0.999753 0.02222 0  255 255 255 255
5.99894 -0.112643 0.538442 0.999824 -0.018774 0  255 255 255 255
5.99875 0.122203 1.35202 0.999793 0.020367 0  255 255 255 255
5.99939 -0.085834 1.08704 0.999898 -0.014306 0  255 255 255 255
5.99895 0.112364 0.703052 0.999825 0.018727 0  255 255 255 255
5.99868 -0.125619 0.701722 0.999781 -0.020937 0  255 255 255 255
5.99916 0.100386 1.02025 0.99986 0.016731 0  255 255 255 255
5.99891 -0.114287 0.962239 0.999819 -0.019048 0  255 255 255 255
5.99826 0.144541 1.496 0.99971 0.02409 0  255 255 255 255
5.99007 -0.345113 0.330196 0.998344 -0.057519 0  255 255 255 255
5.97908 0.500648 0.303204 0.996513 0.083441 0  255 255 255 255
5.95953 0.695687 0.335726 0.993255 0.115948 0  255 255 255 255
5.94606 0.802755 0.401327 0.991009 0.133792 0  255 255 255 255
5.91787 0.989341 0.40972 0.986312 0.16489 0  255 255 255 255
5.85869 1.29452 0.369476 0.976448 0.215754 0  255 255 255 255
5.76718 1.65518 0.341174 0.961197 0.275863 0  255 255 255 255
5.61634 2.11109 0.385479 0.936057 0.351849 0  255 255 255 255
5.48134 2.44026 0.341889 0.913557 0.406711 0  255 255 255 255
5.32644 2.76207 0.375993 0.88774 0.460345 0  255 255 255 255
5.17533 3.03578 0.379991 0.862555 0.505964 0  255 255 255 255
4.96613 3.36713 0.360732 0.827688 0.561189 0  255 255 255 255
4.88822 3.47927 0.335173 0.814703 0.579879 0  255 255 255 255
4.74956 3.66628 0.378878 0.791594 0.611047 0  255 255 255 255
4.66495 3.77335 0.347385 0.777492 0.628892 0  255 255 255 255
4.46143 4.01193 0.436594 0.743572 0.668656 0  255 255 255 255
4.23778 4.2475 0.380292 0.706297 0.707916 0  255 255 255 255
3.97811 4.49162 0.334524 0.663019 0.748603 0  255 255 255 255
3.69268 4.72907 0.333191 0.615447 0.788178 0  255 255 255 255
3.3153 5.00088 0.384178 0.552549 0.83348 0  255 255 255 255
3.01488 5.18753 0.342292 0.50248 0.864589 0  255 255 255 255
2.70136 5.35748 0.378998 0.450227 0.892914 0  255 255 255 255
2.41686 5.4917 0.388065 0.40281 0.915284 0  255 255 255 255
2.08759 5.62512 0.384873 0.347931 0.93752 0  255 255 255 255
1.78035 5.72978 0.354256 0.296725 0.954963 0  255 255 255 255
1.45521 5.82086 0.343136 0.242535 0.970143 0  255 255 255 255
1.10375 5.8976 0.32245 0.183958 0.982934 0  255 255 255 255
0.7307 5.95534 0.325544 0.121783 0.992557 0  255 255 255 255
0.250021 5.99479 0.348719 0.04167 0.999131 0  255 255 255 255
-0.101047 5.99915 0.377578 -0.016841 0.999858 0  255 255 255 255
-0.409286 5.98602 0.356166 -0.068214 0.997671 0  255 255 255 255
-0.740932 5.95408 0.33966 -0.123489 0.992346 0  255 255 255 255
-1.07945 5.9021 0.320154 -0.179909 0.983683 0  255 255 255 255
-1.41271 5.83132 0.3325 -0.235452 0.971886 0  255 255 255 255
-1.76045 5.73592 0.319237 -0.293409 0.955987 0  255 255 255 255
-2.11466 5.615 0.328101 -0.352444 0.935833 0  255 255 255 255
-2.54452 5.43373 0.382171 -0.424087 0.905621 0  255 255 255 255
-2.85904 5.27502 0.337335 -0.476507 0.879171 0  255 255 255 255
-3.16768 5.09567 0.342618 -0.527946 0.849278 0  255 255 255 255
-3.4432 4.91369 0.3387 -0.573866 0.818949 0  255 255 255 255
-3.70471 4.71966 0.339055 -0.617451 0.786609 0  255 255 255 255
-3.97902 4.49082 0.320988 -0.663169 0.74847 0  255 255 255 255
-4.25374 4.23151 0.324071 -0.708957 0.705252 0  255 255 255 255
-4.58182 3.87388 0.340882 -0.763637 0.645646 0  255 255 255 255
-4.81121 3.58501 0.331108 -0.801868 0.597501 0  255 255 255 255
-5.08196 3.18962 0.349702 -0.846994 0.531603 0  255 255 255 255
-5.25896 2.88848 0.380839 -0.876494 0.481413 0  255 255 255 255
-5.40196 2.61129 0.388765 -0.900326 0.435216 0  255 255 255 255
-5.54583 2.28993 0.389622 -0.924305 0.381655 0  255 255 255 255
-5.66223 1.98474 0.390995 -0.943704 0.33079 0  255 255 255 255
-5.77073 1.64275 0.385701 -0.961789 0.273791 0  255 255 255 255
-5.85131 1.32745 0.35426 -0.975219 0.221242 0  255 255 255 255
-5.91677 0.995884 0.342126 -0.986129 0.165981 0  255 255 255 255
-5.9657 0.640611 0.318551 -0.994284 0.106769 0  255 255 255 255
-5.9933 0.283446 0.318219 -0.998884 0.047241 0  255 255 255 255
-5.99946 -0.080331 0.325316 -0.99991 -0.013389 0  255 255 255 255
-5.97388 -0.559283 0.348709 -0.995646 -0.093214 0  255 255 255 255
-5.93114 -0.906412 0.381235 -0.988523 -0.151069 0  255 255 255 255
-5.87596 -1.21371 0.389702 -0.979327 -0.202285 0  255 255 255 255
-5.79447 -1.55696 0.387327 -0.965745 -0.259493 0  255 255 255 255
-5.70259 -1.86559 0.358914 -0.950432 -0.310932 0  255 255 255 255
-5.58893 -2.18263 0.340615 -0.931488 -0.363771 0  255 255 255 255
-5.45513 -2.49832 0.320462 -0.909188 -0.416386 0  255 255 255 255
-5.30505 -2.80294 0.332524 -0.884174 -0.467157 0  255 255 255 255
-5.12879 -3.11376 0.319628 -0.854799 -0.518959 0  255 255 255 255
-4.93347 -3.41481 0.335708 -0.822245 -0.569134 0  255 255 255 255
-4.73537 -3.6846 0.358573 -0.789228 -0.614101 0  255 255 255 255
-4.51672 -3.94958 0.328811 -0.752787 -0.658264 0  255 255 255 255
-4.26432 -4.22085 0.334807 -0.71072 -0.703475 0  255 255 255 255
-3.92777 -4.53571 0.401233 -0.654628 -0.755951 0  255 255 255 255
-3.62293 -4.78271 0.363873 -0.603822 -0.797119 0  255 255 255 255
-3.51317 -4.86391 0.335185 -0.585528 -0.810652 0  255 255 255 255
-3.32366 -4.99533 0.373975 -0.553944 -0.832554 0  255 255 255 255
-3.21295 -5.06724 0.344408 -0.535492 -0.84454 0  255 255 255 255
-3.05632 -5.16322 0.391017 -0.509387 -0.860537 0  255 255 255 255
-2.879 -5.26416 0.412754 -0.479833 -0.87736 0  255 255 255 255
-2.76606 -5.32437 0.362415 -0.461009 -0.887395 0  255 255 255 255
-2.48243 -5.46237 0.440402 -0.413739 -0.910396 0  255 255 255 255
-2.18491 -5.58804 0.387286 -0.364152 -0.93134 0  255 255 255 255
-1.81052 -5.72031 0.365772 -0.301754 -0.953386 0  255 255 255 255
-1.67825 -5.76051 0.341376 -0.279709 -0.960085 0  255 255 255 255
-1.44965 -5.82224 0.394576 -0.241608 -0.970374 0  255 255 255 255
-1.32082 -5.85281 0.385507 -0.220137 -0.975469 0  255 255 255 255
-1.15372 -5.88803 0.447181 -0.192287 -0.981339 0  255 255 255 255
-0.859045 -5.93819 0.411921 -0.143174 -0.989698 0  255 255 255 255
-0.509965 -5.97829 0.343377 -0.084994 -0.996381 0  255 255 255 255
-0.138765 -5.99839 0.335706 -0.023128 -0.999733 0  255 255 255 255
0.327914 -5.99103 0.383397 0.054652 -0.998505 0  255 255 255 255
0.681805 -5.96114 0.335752 0.113634 -0.993523 0  255 255 255 255
1.04954 -5.90749 0.333468 0.174924 -0.984582 0  255 255 255 255
1.50536 -5.80809 0.382083 0.250894 -0.968015 0  255 255 255 255
1.84488 -5.70933 0.332841 0.30748 -0.951555 0  255 255 255 255
2.17807 -5.59071 0.330195 0.363012 -0.931784 0  255 255 255 255
2.4951 -5.4566 0.376245 0.41585 -0.909433 0  255 255 255 255
2.77627 -5.31905 0.387251 0.462712 -0.886509 0  255 255 255 255
3.08598 -5.14555 0.38458 0.514331 -0.857592 0  255 255 255 255
3.35971 -4.97115 0.353887 0.559952 -0.828525 0  255 255 255 255
3.63401 -4.7743 0.342022 0.605669 -0.795717 0  255 255 255 255
3.91249 -4.54889 0.318732 0.652082 -0.758148 0  255 255 255 255
4.17637 -4.30789 0.31954 0.696062 -0.717981 0  255 255 255 255
4.42822 -4.04857 0.333239 0.738036 -0.674761 0  255 255 255 255
4.72555 -3.69719 0.402186 0.787591 -0.616198 0  255 255 255 255
4.95742 -3.37995 0.367092 0.826236 -0.563324 0  255 255 255 255
5.03327 -3.26592 0.339149 0.838878 -0.544319 0  255 255 255 255
5.15633 -3.06795 0.38096 0.859388 -0.511324 0  255 255 255 255
5.2248 -2.94983 0.348673 0.8708 -0.491638 0  255 255 255 255
5.37186 -2.67267 0.437104 0.895309 -0.445445 0  255 255 255 255
5.50879 -2.37764 0.380223 0.918132 -0.396274 0  255 255 255 255
5.64065 -2.04525 0.333626 0.940109 -0.340875 0  255 255 255 255
5.75771 -1.68782 0.328844 0.959619 -0.281303 0  255 255 255 255
5.87814 -1.2031 0.351746 0.97969 -0.200516 0  255 255 255 255
5.93423 -0.885932 0.411939 0.989039 -0.147655 0  255 255 255 255
5.97434 -0.554357 0.292096 0.995723 -0.092393 0  255 255 255 255
5.96244 -0.670304 1.40934 0.99374 -0.111717 0  255 255 255 255
