ply
format ascii 1.0
comment VCGLIB generated
element vertex 1018
property float x
property float y
property float z
property float nx
property float ny
property float nz
property uchar red
property uchar green
property uchar blue
property uchar alpha
element face 0
property list uchar int vertex_indices
end_header
23.7659 -5.37028 19.3485 -0.941464 0 -0.337114  255 255 255 255
18.4286 -5.36774 21.6784 0.392847 0 -0.919604  255 255 255 255
18.4326 5.35787 21.6801 0.391858 0 -0.920026  255 255 255 255
23.7501 2.23079 19.3915 -0.937537 0 -0.347887  255 255 255 255
23.7718 -2.224 19.3316 -0.942961 0 -0.332903  255 255 255 255
16.2868 -4.22447 16.5126 0.928295 0 0.371844  255 255 255 255
16.2856 4.22146 16.5156 0.92859 0 0.371107  255 255 255 255
16.3549 8.24411 19.6472 0.911269 0 -0.411811  255 255 255 255
16.3547 -8.24637 19.6467 0.911328 0 -0.411682  255 255 255 255
16.5993 -8.55153 15.894 0.850168 0 0.526512  255 255 255 255
16.5992 8.55132 15.8941 0.85019 0 0.526477  255 255 255 255
22.7177 2.29278 20.935 -0.679432 0 -0.733738  255 255 255 255
22.857 -2.41049 20.7996 -0.714239 0 -0.699902  255 255 255 255
17.1325 -2.22119 20.7888 0.71687 0 -0.697207  255 255 255 255
17.0803 2.28201 20.7341 0.729923 0 -0.683529  255 255 255 255
22.8124 1.77088 20.8444 -0.70309 0 -0.711101  255 255 255 255
22.7438 -1.89703 20.9106 -0.685951 0 -0.727648  255 255 255 255
23.9997 1.31951 18.0501 -0.999922 0 -0.012528  255 255 255 255
24 -1.3726 17.9857 -0.999994 0 0.003581  255 255 255 255
16.0249 3.77784 18.4456 0.993777 0 -0.11139  255 255 255 255
16.0245 -3.78317 18.4422 0.99387 0 -0.110558  255 255 255 255
23.9051 3.24643 18.8661 -0.976278 0 -0.216521  255 255 255 255
23.9143 -3.25041 18.8234 -0.978584 0 -0.20585  255 255 255 255
22.8303 0.694838 20.8266 -0.707571 0 -0.706642  255 255 255 255
17.1203 1.09098 20.7762 0.719918 0 -0.694059  255 255 255 255
17.2516 -0.896291 20.9063 0.68709 0 -0.726572  255 255 255 255
23.7863 -0.468062 19.2899 -0.946575 0 -0.322485  255 255 255 255
23.9148 -7.33809 18.8214 -0.978691 0 -0.205338  255 255 255 255
23.9136 7.33818 18.8268 -0.978406 0 -0.206691  255 255 255 255
23.5905 6.42029 19.763 -0.897631 0 -0.440747  255 255 255 255
23.5955 -6.41933 19.7528 -0.89888 0 -0.438196  255 255 255 255
16.0454 -3.39884 18.6009 0.988652 0 -0.150222  255 255 255 255
16.0461 3.39504 18.6055 0.988477 0 -0.151369  255 255 255 255
23.4495 2.36727 20.025 -0.862381 0 -0.506261  255 255 255 255
23.4781 -2.37179 19.9755 -0.869532 0 -0.493877  255 255 255 255
23.4135 -8.5117 15.9149 -0.853381 0 0.521287  255 255 255 255
23.4138 8.51162 15.9153 -0.853445 0 0.521182  255 255 255 255
16.1901 7.39398 19.2185 0.952475 0 -0.304616  255 255 255 255
16.1898 -7.39836 19.2175 0.95255 0 -0.304383  255 255 255 255
23.6842 7.52907 19.5577 -0.921054 0 -0.389434  255 255 255 255
23.6862 -7.5287 19.5529 -0.921561 0 -0.388233  255 255 255 255
17.9567 7.5069 14.5612 0.510819 0 0.859688  255 255 255 255
17.9569 -7.5071 14.5611 0.510769 0 0.859718  255 255 255 255
16.411 -2.70874 19.7661 0.897253 0 -0.441517  255 255 255 255
16.4059 2.72463 19.7556 0.89853 0 -0.438912  255 255 255 255
16.6558 8.6637 20.1946 0.836051 0 -0.548652  255 255 255 255
16.6556 -8.66477 20.1944 0.83609 0 -0.548593  255 255 255 255
23.489 1.80905 19.9562 -0.872257 0 -0.489048  255 255 255 255
23.5073 -1.77591 19.9233 -0.876823 0 -0.480813  255 255 255 255
16.5058 2.27922 19.9469 0.873551 0 -0.486733  255 255 255 255
16.5098 -2.24034 19.9542 0.872541 0 -0.488541  255 255 255 255
23.4265 -8.4339 20.0637 -0.856629 0 -0.515933  255 255 255 255
23.4256 8.43411 20.0653 -0.856396 0 -0.51632  255 255 255 255
16.5711 -0.712397 20.0597 0.857238 0 -0.514921  255 255 255 255
16.872 8.45428 15.5069 0.782009 0 0.623267  255 255 255 255
16.8721 -8.45448 15.5068 0.781982 0 0.623301  255 255 255 255
16.5208 0.513893 19.9737 0.869794 0 -0.493416  255 255 255 255
23.9857 4.17184 18.3379 -0.996426 0 -0.084471  255 255 255 255
23.9878 -4.17469 18.312 -0.996953 0 -0.078001  255 255 255 255
21.5438 -7.46442 14.3099 -0.385943 0 0.922523  255 255 255 255
21.544 7.46436 14.31 -0.38599 0 0.922503  255 255 255 255
23.468 -0.277372 19.9932 -0.866998 0 -0.498311  255 255 255 255
23.4907 0.290409 19.9532 -0.872677 0 -0.488299  255 255 255 255
17.4467 5.08844 21.0791 0.638321 0 -0.76977  255 255 255 255
17.4406 -5.11852 21.074 0.639853 0 -0.768497  255 255 255 255
23.1203 5.67192 20.5027 -0.780079 0 -0.625681  255 255 255 255
23.131 -5.66902 20.4893 -0.78276 0 -0.622324  255 255 255 255
17.4399 8.61555 14.9266 0.640022 0 0.768357  255 255 255 255
17.44 -8.61563 14.9265 0.640005 0 0.76837  255 255 255 255
16.0215 6.16788 17.586 0.994629 0 0.103501  255 255 255 255
16.0217 -6.17158 17.5844 0.994587 0 0.103904  255 255 255 255
16.0806 5.04376 17.2012 0.979859 0 0.199689  255 255 255 255
16.0811 -5.04763 17.1986 0.979726 0 0.200344  255 255 255 255
18.0257 6.23164 21.4788 0.493583 0 -0.869699  255 255 255 255
18.0232 -6.24001 21.4774 0.494189 0 -0.869354  255 255 255 255
17.5054 4.34838 14.8732 0.623642 0 0.78171  255 255 255 255
17.5059 -4.34882 14.8728 0.623529 0 0.781801  255 255 255 255
23.477 5.50721 19.9775 -0.869245 0 -0.494382  255 255 255 255
23.4865 -5.50534 19.9607 -0.871626 0 -0.490171  255 255 255 255
16.279 -5.59031 19.4677 0.930252 0 -0.366921  255 255 255 255
16.279 5.57918 19.4678 0.930242 0 -0.366948  255 255 255 255
16.6188 7.30223 20.1371 0.845305 0 -0.534285  255 255 255 255
16.6181 -7.30821 20.136 0.845484 0 -0.534  255 255 255 255
23.9844 5.78217 18.3524 -0.996112 0 -0.088098  255 255 255 255
23.9855 -5.78279 18.3398 -0.996385 0 -0.084958  255 255 255 255
23.0913 -5.28338 15.4615 -0.772829 0 0.634614  255 255 255 255
23.0932 5.28273 15.4638 -0.773289 0 0.634054  255 255 255 255
22.7529 -0.705708 20.902 -0.688218 0 -0.725504  255 255 255 255
21.2948 -6.47442 14.2153 -0.323691 0 0.946163  255 255 255 255
21.2949 6.47436 14.2154 -0.323735 0 0.946148  255 255 255 255
23.5648 -5.01781 16.1856 -0.891204 0 0.453602  255 255 255 255
23.5676 5.01651 16.1911 -0.891903 0 0.452226  255 255 255 255
16.0057 7.42704 17.7863 0.998572 0 0.053421  255 255 255 255
16.0058 -7.42932 17.7854 0.99856 0 0.053642  255 255 255 255
21.2579 -8.47546 14.2029 -0.314484 0 0.949263  255 255 255 255
21.258 8.47544 14.203 -0.314496 0 0.949259  255 255 255 255
23.3086 -7.17496 20.2479 -0.827158 0 -0.56197  255 255 255 255
23.3049 7.17583 20.2534 -0.826221 0 -0.563346  255 255 255 255
23.7121 -8.2367 19.49 -0.928031 0 -0.372503  255 255 255 255
23.7112 8.23689 19.4924 -0.927793 0 -0.373095  255 255 255 255
21.9843 -8.60229 14.5269 -0.496074 0 0.868281  255 255 255 255
21.9844 8.60227 14.5269 -0.496093 0 0.86827  255 255 255 255
18.7216 4.68091 14.2098 0.319601 0 0.947552  255 255 255 255
18.7218 -4.68105 14.2097 0.31955 0 0.947569  255 255 255 255
22.6448 -5.07492 21.0009 -0.661194 0 -0.750215  255 255 255 255
22.6282 5.08097 21.0154 -0.657055 0 -0.753843  255 255 255 255
22.5611 -8.48348 14.9275 -0.640286 0 0.768136  255 255 255 255
22.5613 8.48343 14.9276 -0.640329 0 0.768101  255 255 255 255
16.0407 -5.94621 18.5689 0.989834 0 -0.142229  255 255 255 255
16.0408 5.93981 18.5702 0.989788 0 -0.142549  255 255 255 255
17.9431 4.65436 14.5694 0.514233 0 0.857651  255 255 255 255
17.9434 -4.65468 14.5692 0.51415 0 0.8577  255 255 255 255
17.2543 -7.89625 20.9088 0.686427 0 -0.727198  255 255 255 255
17.255 7.89295 20.9094 0.686258 0 -0.727359  255 255 255 255
18.0791 8.51464 14.4914 0.480236 0 0.877139  255 255 255 255
18.0791 -8.5147 14.4914 0.48022 0 0.877148  255 255 255 255
19.1656 8.44503 14.088 0.208595 0 0.978002  255 255 255 255
19.1657 -8.44506 14.088 0.208585 0 0.978004  255 255 255 255
16.9337 3.56538 20.5687 0.766565 0 -0.642167  255 255 255 255
16.9682 -3.58849 20.6092 0.757954 0 -0.652308  255 255 255 255
20.9268 -4.7385 14.1089 -0.23171 0 0.972785  255 255 255 255
20.9268 4.73855 14.1088 -0.231698 0 0.972788  255 255 255 255
22.164 4.3786 14.6359 -0.540997 0 0.841024  255 255 255 255
22.1637 -4.37865 14.6357 -0.540918 0 0.841075  255 255 255 255
21.6787 -4.73995 14.3693 -0.419667 0 0.907678  255 255 255 255
21.6788 4.73996 14.3694 -0.41971 0 0.907658  255 255 255 255
20.1583 8.33842 14.0031 -0.039575 0 0.999217  255 255 255 255
20.1583 -8.33844 14.0031 -0.039576 0 0.999217  255 255 255 255
16.2987 3.06036 16.4832 0.925314 0 0.379202  255 255 255 255
16.3006 -3.06391 16.4786 0.924838 0 0.380362  255 255 255 255
23.6994 3.58919 16.4787 -0.924854 0 0.380323  255 255 255 255
23.695 -3.59254 16.468 -0.923747 0 0.383004  255 255 255 255
23.77 2.56237 16.6633 -0.942511 0 0.334176  255 255 255 255
23.7642 -2.57027 16.647 -0.941058 0 0.338246  255 255 255 255
23.4694 3.73585 16.0091 -0.867341 0 0.497714  255 255 255 255
23.4658 -3.73792 16.0029 -0.86645 0 0.499264  255 255 255 255
21.4966 4.38255 21.7095 -0.374162 0 -0.927363  255 255 255 255
21.5085 -4.3743 21.7046 -0.377135 0 -0.926158  255 255 255 255
16.6356 3.18767 15.8364 0.841088 0 0.540898  255 255 255 255
16.6369 -3.18939 15.8345 0.840784 0 0.54137  255 255 255 255
16.0028 4.09211 18.1505 0.999292 0 -0.037633  255 255 255 255
16.0027 -4.09777 18.1471 0.999323 0 -0.036781  255 255 255 255
21.5512 2.61014 21.687 -0.387805 0 -0.921742  255 255 255 255
21.5282 -2.55482 21.6966 -0.382054 0 -0.92414  255 255 255 255
16.144 -1.33549 16.9363 0.963991 0 0.265935  255 255 255 255
16.1404 1.323 16.9495 0.964896 0 0.262632  255 255 255 255
23.801 0.879788 16.7541 -0.950256 0 0.311469  255 255 255 255
23.7972 -0.903634 16.7425 -0.949297 0 0.314381  255 255 255 255
23.9604 4.48804 17.4384 -0.990097 0 0.140388  255 255 255 255
23.9581 -4.49066 17.4227 -0.98953 0 0.144324  255 255 255 255
18.0237 1.39555 21.4777 0.494079 0 -0.869417  255 255 255 255
16.0243 -2.33309 17.5599 0.993928 0 0.110031  255 255 255 255
16.0227 2.3256 17.5747 0.994332 0 0.106323  255 255 255 255
16.9153 3.66943 15.4536 0.771184 0 0.636613  255 255 255 255
16.9161 -3.67046 15.4525 0.770976 0 0.636864  255 255 255 255
18.3185 -1.279 21.6294 0.420365 0 -0.907355  255 255 255 255
23.973 1.58626 17.5363 -0.993258 0 0.115927  255 255 255 255
23.9682 -1.61758 17.4965 -0.992046 0 0.125873  255 255 255 255
17.1108 2.74485 20.7663 0.722309 0 -0.69157  255 255 255 255
17.1731 -2.72464 20.8299 0.706727 0 -0.707486  255 255 255 255
22.6412 4.16936 21.004 -0.660311 0 -0.750992  255 255 255 255
22.6733 -4.15535 20.9755 -0.668318 0 -0.743876  255 255 255 255
21.6415 5.39423 21.6477 -0.410368 0 -0.91192  255 255 255 255
21.648 -5.39166 21.6447 -0.412009 0 -0.91118  255 255 255 255
16.0166 2.97441 17.636 0.995852 0 0.090988  255 255 255 255
16.0175 -2.97965 17.6263 0.995627 0 0.093414  255 255 255 255
23.9487 4.81957 18.6383 -0.987185 0 -0.159579  255 255 255 255
23.9521 -4.82082 18.6172 -0.988024 0 -0.1543  255 255 255 255
16.1114 4.0207 18.9375 0.972146 0 -0.234377  255 255 255 255
16.1117 -4.02763 18.9387 0.972077 0 -0.234662  255 255 255 255
18.3962 -0.293991 21.6644 0.400954 0 -0.916098  255 255 255 255
16.1575 8.16125 19.1113 0.960629 0 -0.277834  255 255 255 255
16.1573 -8.1634 19.1108 0.960667 0 -0.277703  255 255 255 255
23.8538 4.4571 16.9283 -0.96344 0 0.267923  255 255 255 255
23.8504 -4.4596 16.9164 -0.962606 0 0.270907  255 255 255 255
16.0051 5.71323 17.7981 0.998725 0 0.050477  255 255 255 255
16.0052 -5.71786 17.7962 0.998702 0 0.050941  255 255 255 255
16.3385 -7.0003 16.3896 0.915377 0 0.402599  255 255 255 255
16.3381 6.9989 16.3905 0.915471 0 0.402383  255 255 255 255
23.6029 3.43751 19.7375 -0.900733 0 -0.434372  255 255 255 255
23.6251 -3.4398 19.6908 -0.906273 0 -0.422693  255 255 255 255
16.0082 4.89668 18.2558 0.997953 0 -0.06395  255 255 255 255
16.0081 -4.90301 18.2539 0.997983 0 -0.063485  255 255 255 255
16.1589 -3.72846 16.8839 0.960282 0 0.27903  255 255 255 255
16.1576 3.72458 16.8883 0.960606 0 0.277913  255 255 255 255
21.2931 3.01949 21.7852 -0.32327 0 -0.946307  255 255 255 255
21.2925 -2.99366 21.7854 -0.323119 0 -0.946358  255 255 255 255
23.355 -6.88321 15.822 -0.838761 0 0.544499  255 255 255 255
23.3562 6.88282 15.8238 -0.839051 0 0.544053  255 255 255 255
16.016 6.74648 18.3578 0.995991 0 -0.089453  255 255 255 255
16.0159 -6.75081 18.3566 0.996018 0 -0.089156  255 255 255 255
21.5222 1.19671 21.699 -0.380557 0 -0.924758  255 255 255 255
21.4731 -1.19151 21.7189 -0.368267 0 -0.92972  255 255 255 255
23.5023 -2.93506 16.0676 -0.875563 0 0.483105  255 255 255 255
23.5062 2.93197 16.0748 -0.876553 0 0.481306  255 255 255 255
16.6185 -6.1305 15.8633 0.845368 0 0.534185  255 255 255 255
16.6179 6.12916 15.8642 0.845522 0 0.53394  255 255 255 255
16.9603 -3.99133 20.6 0.759927 0 -0.650008  255 255 255 255
16.9431 3.95915 20.5798 0.764215 0 -0.644961  255 255 255 255
16.7618 4.99985 20.3482 0.809545 0 -0.587057  255 255 255 255
16.7629 -5.02203 20.3497 0.809282 0 -0.58742  255 255 255 255
23.8273 3.98023 19.1626 -0.956831 0 -0.290643  255 255 255 255
23.8376 -3.98198 19.1281 -0.959405 0 -0.282031  255 255 255 255
18.4428 1.74422 21.6844 0.38931 0 -0.921107  255 255 255 255
23.3182 4.76722 20.2337 -0.829551 0 -0.558431  255 255 255 255
23.3352 -4.76378 20.2083 -0.8338 0 -0.552067  255 255 255 255
18.5286 -1.81208 21.7195 0.367858 0 -0.929882  255 255 255 255
16.4828 5.82005 16.0949 0.87929 0 0.476287  255 255 255 255
16.4835 -5.82178 16.0936 0.879118 0 0.476605  255 255 255 255
16.3122 -3.8831 19.5492 0.921954 0 -0.387299  255 255 255 255
16.3085 3.87497 19.5405 0.922868 0 -0.385115  255 255 255 255
23.0924 -0.308676 20.5371 -0.773101 0 -0.634283  255 255 255 255
23.9786 5.09262 17.5871 -0.994659 0 0.103213  255 255 255 255
23.9772 -5.09431 17.5738 -0.994308 0 0.106547  255 255 255 255
16.527 2.72533 16.0154 0.868243 0 0.49614  255 255 255 255
16.5286 -2.7276 16.0127 0.867857 0 0.496815  255 255 255 255
16.0947 3.22942 17.1346 0.976318 0 0.216342  255 255 255 255
16.0962 -3.23406 17.128 0.975948 0 0.218006  255 255 255 255
16.0717 8.57283 18.7538 0.982083 0 -0.188448  255 255 255 255
16.0716 -8.5738 18.7535 0.982096 0 -0.188383  255 255 255 255
23.5631 2.35733 16.1823 -0.890781 0 0.454432  255 255 255 255
23.5588 -2.36228 16.1738 -0.889701 0 0.456544  255 255 255 255
16.2491 8.60134 19.3894 0.937736 0 -0.347348  255 255 255 255
16.249 -8.60244 19.3891 0.93776 0 -0.347283  255 255 255 255
16.3324 0.99318 16.4036 0.916909 0 0.399096  255 255 255 255
16.3348 -1.00004 16.3981 0.916304 0 0.400484  255 255 255 255
18.525 1.21343 21.7181 0.368744 0 -0.929531  255 255 255 255
23.1918 3.29158 15.5891 -0.797948 0 0.602727  255 255 255 255
23.1896 -3.29276 15.5861 -0.797388 0 0.603467  255 255 255 255
21.9568 4.55731 14.5113 -0.489196 0 0.872174  255 255 255 255
21.9565 -4.55734 14.5112 -0.489134 0 0.872209  255 255 255 255
40 -0.059601 39.5242 1 0 0  255 255 255 255
40 -0 29.7763 1 0 0  255 255 255 255
40 0.995852 22.9211 1 0 0  255 255 255 255
40 2.4535 34.6441 1 0 0  255 255 255 255
40 -2.85863 34.9517 1 0 0  255 255 255 255
40 -3.01238 25.8006 1 0 0  255 255 255 255
40 -3.19055 43.2577 1 0 0  255 255 255 255
40 3.15555 43.2855 1 0 0  255 255 255 255
40 -3.13487 20.4003 1 0 0  255 255 255 255
40 3.44538 26.8914 1 0 0  255 255 255 255
40 3.72745 19.5721 1 0 0  255 255 255 255
40 -3.89943 31.0641 1 0 0  255 255 255 255
40 3.95176 38.4446 1 0 0  255 255 255 255
40 3.93144 30.8238 1 0 0  255 255 255 255
40 -3.82812 38.9469 1 0 0  255 255 255 255
40 4.39819 23.3461 1 0 0  255 255 255 255
40 0.236283 19.489 1 0 0  255 255 255 255
40 4.57219 46.3215 1 0 0  255 255 255 255
40 -4.58109 46.3157 1 0 0  255 255 255 255
40 0.039707 44.1788 1 0 0  255 255 255 255
40 0.189563 26.5422 1 0 0  255 255 255 255
40 -0.240595 32.8155 1 0 0  255 255 255 255
40 -4.798 22.9741 1 0 0  255 255 255 255
40 -4.84715 17.8015 1 0 0  255 255 255 255
40 -0.00591 36.4771 1 0 0  255 255 255 255
40 -5.18197 28.1942 1 0 0  255 255 255 255
40 5.07024 52.0716 1 0 0  255 255 255 255
40 -5.08147 52.0847 1 0 0  255 255 255 255
40 5.07016 41.1439 1 0 0  255 255 255 255
40 -1.84187 23.0901 1 0 0  255 255 255 255
40 5.14847 33.4603 1 0 0  255 255 255 255
40 5.12437 49.0814 1 0 0  255 255 255 255
40 -5.1328 49.0621 1 0 0  255 255 255 255
40 -5.12433 41.3423 1 0 0  255 255 255 255
40 5.17988 17.1469 1 0 0  255 255 255 255
40 -5.2108 33.5106 1 0 0  255 255 255 255
40 -5.18555 36.3284 1 0 0  255 255 255 255
40 2.42979 40.7481 1 0 0  255 255 255 255
40 5.31412 36.1342 1 0 0  255 255 255 255
40 -2.31619 28.4691 1 0 0  255 255 255 255
40 5.40163 28.5624 1 0 0  255 255 255 255
40 -2.1532 40.7273 1 0 0  255 255 255 255
40 -2.25792 45.6424 1 0 0  255 255 255 255
40 5.51159 3.52948 1 0 0  255 255 255 255
40 -5.51719 3.5253 1 0 0  255 255 255 255
40 5.56757 44.0787 1 0 0  255 255 255 255
40 -5.51877 43.9841 1 0 0  255 255 255 255
40 2.26478 45.5939 1 0 0  255 255 255 255
40 -5.43458 25.6058 1 0 0  255 255 255 255
40 -1.91423 18.2174 1 0 0  255 255 255 255
40 5.58137 21.2631 1 0 0  255 255 255 255
40 2.36372 29.1097 1 0 0  255 255 255 255
40 -5.53915 20.8493 1 0 0  255 255 255 255
40 5.64065 25.5647 1 0 0  255 255 255 255
40 0.367986 41.8128 1 0 0  255 255 255 255
40 2.07678 32.3616 1 0 0  255 255 255 255
40 -1.78253 37.9609 1 0 0  255 255 255 255
40 2.54341 24.6551 1 0 0  255 255 255 255
40 1.91243 18.1742 1 0 0  255 255 255 255
40 1.68579 38.0289 1 0 0  255 255 255 255
40 3.02957 21.7469 1 0 0  255 255 255 255
40 -2.50256 32.7106 1 0 0  255 255 255 255
40 -5.83658 15.8069 1 0 0  255 255 255 255
40 -5.85415 30.1631 1 0 0  255 255 255 255
40 -1.19915 21.1365 1 0 0  255 255 255 255
40 5.90007 19.1817 1 0 0  255 255 255 255
40 5.88509 39.2265 1 0 0  255 255 255 255
40 5.91081 31.4947 1 0 0  255 255 255 255
40 -1.73885 30.8333 1 0 0  255 255 255 255
40 -0.308514 24.4839 1 0 0  255 255 255 255
40 -5.95377 39.4874 1 0 0  255 255 255 255
40 3.30262 53.0167 1 0 0  255 255 255 255
40 -3.31072 53.0188 1 0 0  255 255 255 255
40 3.31462 36.5424 1 0 0  255 255 255 255
40 5.99323 15.3097 1 0 0  255 255 255 255
40 -3.63501 2.94171 1 0 0  255 255 255 255
40 3.63353 2.94031 1 0 0  255 255 255 255
40 -3.35378 36.8328 1 0 0  255 255 255 255
40 -1.27158 42.8637 1 0 0  255 255 255 255
40 6.06352 47.4114 1 0 0  255 255 255 255
40 -6.06867 47.396 1 0 0  255 255 255 255
40 0.642449 34.6508 1 0 0  255 255 255 255
40 -6.12973 31.9315 1 0 0  255 255 255 255
40 -3.80859 47.9634 1 0 0  255 255 255 255
40 1.29135 21.0292 1 0 0  255 255 255 255
40 3.78804 47.9676 1 0 0  255 255 255 255
40 -6.19106 19.072 1 0 0  255 255 255 255
40 -6.17617 50.5991 1 0 0  255 255 255 255
40 6.15336 50.6544 1 0 0  255 255 255 255
40 6.16464 5.21846 1 0 0  255 255 255 255
40 -6.18566 5.11392 1 0 0  255 255 255 255
40 4.17664 50.5136 1 0 0  255 255 255 255
40 -4.24343 50.429 1 0 0  255 255 255 255
40 6.21321 22.8157 1 0 0  255 255 255 255
40 6.05011 45.5257 1 0 0  255 255 255 255
40 -0.20694 17.8172 1 0 0  255 255 255 255
40 -6.05016 45.5057 1 0 0  255 255 255 255
40 6.25234 53.1817 1 0 0  255 255 255 255
40 1.65358 30.4771 1 0 0  255 255 255 255
40 -6.25226 53.19 1 0 0  255 255 255 255
40 3.39543 17.053 1 0 0  255 255 255 255
40 -3.23741 17.1272 1 0 0  255 255 255 255
40 0.750713 28.195 1 0 0  255 255 255 255
40 -3.39848 22.1743 1 0 0  255 255 255 255
40 6.40384 42.3346 1 0 0  255 255 255 255
40 -1.36705 26.7484 1 0 0  255 255 255 255
40 0.507198 45.797 1 0 0  255 255 255 255
40 -3.33595 24.1431 1 0 0  255 255 255 255
40 -6.25488 35.0033 1 0 0  255 255 255 255
40 1.31499 43.1896 1 0 0  255 255 255 255
40 -6.17963 37.6108 1 0 0  255 255 255 255
40 3.74685 44.8583 1 0 0  255 255 255 255
40 -3.7673 44.8639 1 0 0  255 255 255 255
40 -1.08807 34.4927 1 0 0  255 255 255 255
40 6.2603 34.7396 1 0 0  255 255 255 255
40 -6.27823 27.0213 1 0 0  255 255 255 255
40 -6.21524 23.9662 1 0 0  255 255 255 255
40 -3.66028 29.3504 1 0 0  255 255 255 255
40 6.2126 37.5429 1 0 0  255 255 255 255
40 6.24858 27.209 1 0 0  255 255 255 255
40 1.84876 26.2017 1 0 0  255 255 255 255
40 1.59915 36.0961 1 0 0  255 255 255 255
40 4.19711 34.9638 1 0 0  255 255 255 255
40 -4.37547 19.4625 1 0 0  255 255 255 255
40 -6.25573 22.2162 1 0 0  255 255 255 255
40 3.45347 33.137 1 0 0  255 255 255 255
40 -2.00478 2.66813 1 0 0  255 255 255 255
40 -6.36711 42.5609 1 0 0  255 255 255 255
40 -1.7167 36.2892 1 0 0  255 255 255 255
40 2.01255 2.62632 1 0 0  255 255 255 255
40 -6.30215 14.1541 1 0 0  255 255 255 255
40 6.26441 29.9024 1 0 0  255 255 255 255
40 -3.62554 41.7307 1 0 0  255 255 255 255
40 0.16807 31.3999 1 0 0  255 255 255 255
40 -3.55293 27.3083 1 0 0  255 255 255 255
40 4.48015 42.6734 1 0 0  255 255 255 255
40 -4.38068 35.0532 1 0 0  255 255 255 255
40 2.15932 19.5256 1 0 0  255 255 255 255
40 3.90305 40.0674 1 0 0  255 255 255 255
40 -6.4169 17.2413 1 0 0  255 255 255 255
40 4.01536 25.2861 1 0 0  255 255 255 255
40 3.8627 29.2635 1 0 0  255 255 255 255
40 -1.80648 24.7099 1 0 0  255 255 255 255
40 -6.44319 28.7055 1 0 0  255 255 255 255
40 -1.84926 53.4956 1 0 0  255 255 255 255
40 -0.223713 37.9638 1 0 0  255 255 255 255
40 6.4816 13.7901 1 0 0  255 255 255 255
40 0 2.48644 1 0 0  255 255 255 255
40 -0.540218 22.5495 1 0 0  255 255 255 255
40 -3.81935 32.6288 1 0 0  255 255 255 255
40 1.87422 53.5618 1 0 0  255 255 255 255
40 4.72216 53.5105 1 0 0  255 255 255 255
40 -1.59149 39.4865 1 0 0  255 255 255 255
40 -4.72453 53.5153 1 0 0  255 255 255 255
40 -0.904352 46.1634 1 0 0  255 255 255 255
40 -1.51796 44.3775 1 0 0  255 255 255 255
40 2.5588 46.9618 1 0 0  255 255 255 255
40 6.44427 24.3882 1 0 0  255 255 255 255
40 -0.776619 28.0842 1 0 0  255 255 255 255
40 -0.64271 40.9596 1 0 0  255 255 255 255
40 1.49861 39.5579 1 0 0  255 255 255 255
40 -2.60771 47.0672 1 0 0  255 255 255 255
40 6.50242 40.5875 1 0 0  255 255 255 255
40 -4.1341 40.2648 1 0 0  255 255 255 255
40 -1.76813 19.7293 1 0 0  255 255 255 255
40 3.46553 41.9078 1 0 0  255 255 255 255
40 3.0216 23.2327 1 0 0  255 255 255 255
40 -4.35734 15.9736 1 0 0  255 255 255 255
40 -4.69649 42.7309 1 0 0  255 255 255 255
40 6.41546 32.8294 1 0 0  255 255 255 255
40 6.48696 17.6759 1 0 0  255 255 255 255
40 6.70766 2.48816 1 0 0  255 255 255 255
40 -6.71056 2.4849 1 0 0  255 255 255 255
40 1.21245 24.9496 1 0 0  255 255 255 255
40 -6.59446 40.7589 1 0 0  255 255 255 255
40 -3.34671 18.5857 1 0 0  255 255 255 255
40 4.83433 27.2335 1 0 0  255 255 255 255
40 4.67736 15.7602 1 0 0  255 255 255 255
40 4.20457 18.1663 1 0 0  255 255 255 255
40 4.43456 32.1751 1 0 0  255 255 255 255
40 -6.56177 6.58773 1 0 0  255 255 255 255
40 -6.53478 33.2873 1 0 0  255 255 255 255
40 6.59219 48.7944 1 0 0  255 255 255 255
40 -6.59542 48.7732 1 0 0  255 255 255 255
40 6.58328 6.57621 1 0 0  255 255 255 255
40 4.40343 22.0399 1 0 0  255 255 255 255
40 -4.93694 37.7867 1 0 0  255 255 255 255
40 2.21813 27.6708 1 0 0  255 255 255 255
40 -3.37622 51.5473 1 0 0  255 255 255 255
40 -6.70729 52.088 1 0 0  255 255 255 255
40 -1.34457 29.432 1 0 0  255 255 255 255
40 3.34025 51.5706 1 0 0  255 255 255 255
40 -4.7633 26.986 1 0 0  255 255 255 255
40 6.71107 52.0847 1 0 0  255 255 255 255
40 1.5414 41.8833 1 0 0  255 255 255 255
40 1.51313 33.5572 1 0 0  255 255 255 255
40 -6.49141 36.2865 1 0 0  255 255 255 255
40 4.94855 37.4066 1 0 0  255 255 255 255
40 1.29522 44.6299 1 0 0  255 255 255 255
40 -1.33547 32.0373 1 0 0  255 255 255 255
40 6.56065 20.2468 1 0 0  255 255 255 255
40 4.86395 2.37849 1 0 0  255 255 255 255
40 -4.8641 2.38046 1 0 0  255 255 255 255
40 -4.22075 25.0652 1 0 0  255 255 255 255
40 -3.50444 33.8972 1 0 0  255 255 255 255
40 -3.60262 49.2942 1 0 0  255 255 255 255
40 6.62022 36.1228 1 0 0  255 255 255 255
40 3.63051 49.2995 1 0 0  255 255 255 255
40 4.95704 29.8172 1 0 0  255 255 255 255
40 1.25056 40.83 1 0 0  255 255 255 255
40 -2.7285 39.744 1 0 0  255 255 255 255
40 -4.32985 4.06001 1 0 0  255 255 255 255
40 2.86745 39.2327 1 0 0  255 255 255 255
40 -4.57451 21.778 1 0 0  255 255 255 255
40 -0.594089 53.7234 1 0 0  255 255 255 255
40 6.76828 28.5978 1 0 0  255 255 255 255
40 6.74843 16.4363 1 0 0  255 255 255 255
40 4.31659 4.0446 1 0 0  255 255 255 255
40 4.99375 20.0728 1 0 0  255 255 255 255
40 -2.35375 42.1415 1 0 0  255 255 255 255
40 6.8315 4.075 1 0 0  255 255 255 255
40 -6.69511 12.9401 1 0 0  255 255 255 255
40 -6.83262 4.06654 1 0 0  255 255 255 255
40 -0.840336 25.7051 1 0 0  255 255 255 255
40 0.878321 17.23 1 0 0  255 255 255 255
40 2.81156 30.1689 1 0 0  255 255 255 255
40 0.645125 53.6934 1 0 0  255 255 255 255
40 6.72027 44.4564 1 0 0  255 255 255 255
40 -6.691 20.2296 1 0 0  255 255 255 255
40 -6.7844 44.4086 1 0 0  255 255 255 255
40 -1.97394 16.953 1 0 0  255 255 255 255
40 4.02826 20.9246 1 0 0  255 255 255 255
40 6.83691 21.7063 1 0 0  255 255 255 255
40 -4.95154 45.1672 1 0 0  255 255 255 255
40 4.98773 45.1712 1 0 0  255 255 255 255
40 -6.72595 25.929 1 0 0  255 255 255 255
40 3.42418 28.0592 1 0 0  255 255 255 255
40 -3.38205 46.1 1 0 0  255 255 255 255
40 -5.1572 31.1997 1 0 0  255 255 255 255
40 2.54135 44.3881 1 0 0  255 255 255 255
40 3.34632 46.0345 1 0 0  255 255 255 255
40 6.76714 12.6127 1 0 0  255 255 255 255
40 2.89475 37.7513 1 0 0  255 255 255 255
40 -2.12308 21.8802 1 0 0  255 255 255 255
40 0.056479 20.7271 1 0 0  255 255 255 255
40 3.22566 31.8559 1 0 0  255 255 255 255
40 1.51838 46.564 1 0 0  255 255 255 255
40 -5.14235 47.8275 1 0 0  255 255 255 255
40 6.84745 26.0997 1 0 0  255 255 255 255
40 -3.02421 38.0321 1 0 0  255 255 255 255
40 5.13283 47.8382 1 0 0  255 255 255 255
40 -0.057718 43.0281 1 0 0  255 255 255 255
40 -0.807237 18.8224 1 0 0  255 255 255 255
40 -2.77608 31.5827 1 0 0  255 255 255 255
40 5.27973 24.5219 1 0 0  255 255 255 255
40 1.17879 29.4252 1 0 0  255 255 255 255
40 -6.7183 30.9559 1 0 0  255 255 255 255
40 -2.49435 29.8563 1 0 0  255 255 255 255
40 0.786448 18.4971 1 0 0  255 255 255 255
40 -4.35416 20.6346 1 0 0  255 255 255 255
40 -5.15014 24.3429 1 0 0  255 255 255 255
40 2.19634 16.8123 1 0 0  255 255 255 255
40 0.843491 32.4459 1 0 0  255 255 255 255
40 6.80066 7.68508 1 0 0  255 255 255 255
40 -4.7216 30.1124 1 0 0  255 255 255 255
40 -6.81164 7.71009 1 0 0  255 255 255 255
40 -2.18835 33.98 1 0 0  255 255 255 255
40 -2.67789 44.4013 1 0 0  255 255 255 255
40 3.06423 18.6198 1 0 0  255 255 255 255
40 4.38976 43.7942 1 0 0  255 255 255 255
40 1.86971 22.0577 1 0 0  255 255 255 255
40 1.61297 23.9026 1 0 0  255 255 255 255
40 0.993383 37.1141 1 0 0  255 255 255 255
40 -6.90158 16.2508 1 0 0  255 255 255 255
40 5.11134 40.0981 1 0 0  255 255 255 255
40 -4.32336 43.8889 1 0 0  255 255 255 255
40 0.681404 38.7016 1 0 0  255 255 255 255
40 -5.25632 14.6877 1 0 0  255 255 255 255
40 2.91907 25.7114 1 0 0  255 255 255 255
40 5.03643 4.97319 1 0 0  255 255 255 255
40 2.84813 20.6396 1 0 0  255 255 255 255
40 -6.87957 38.7127 1 0 0  255 255 255 255
40 6.88491 38.5173 1 0 0  255 255 255 255
40 3.64294 24.1992 1 0 0  255 255 255 255
40 6.8401 46.5904 1 0 0  255 255 255 255
40 -0.336581 35.2927 1 0 0  255 255 255 255
40 -5.05906 4.96252 1 0 0  255 255 255 255
40 -6.84593 46.5757 1 0 0  255 255 255 255
40 1.13212 27.1889 1 0 0  255 255 255 255
40 -6.9014 29.7159 1 0 0  255 255 255 255
40 -6.86718 11.8331 1 0 0  255 255 255 255
40 0.493163 21.8886 1 0 0  255 255 255 255
40 -5.14723 32.4337 1 0 0  255 255 255 255
40 -0.700047 30.6693 1 0 0  255 255 255 255
40 -6.93242 21.3572 1 0 0  255 255 255 255
40 6.87554 30.9128 1 0 0  255 255 255 255
40 6.91539 43.3539 1 0 0  255 255 255 255
40 1.01798 2.11462 1 0 0  255 255 255 255
40 -1.32076 33.2074 1 0 0  255 255 255 255
40 -1.0348 2.10339 1 0 0  255 255 255 255
40 -2.95191 2.09928 1 0 0  255 255 255 255
40 6.92311 11.2377 1 0 0  255 255 255 255
40 -0.681403 45.0932 1 0 0  255 255 255 255
40 2.96307 2.07877 1 0 0  255 255 255 255
40 -1.02461 37.1521 1 0 0  255 255 255 255
40 -1.28854 41.7444 1 0 0  255 255 255 255
40 -4.177 36.0878 1 0 0  255 255 255 255
40 -5.29906 16.767 1 0 0  255 255 255 255
40 5.23655 50.9897 1 0 0  255 255 255 255
40 -6.94217 49.8142 1 0 0  255 255 255 255
40 -5.20467 40.2852 1 0 0  255 255 255 255
40 -6.86503 18.1606 1 0 0  255 255 255 255
40 -2.71838 3.51262 1 0 0  255 255 255 255
40 -0.932435 23.5618 1 0 0  255 255 255 255
40 -2.82893 53.9738 1 0 0  255 255 255 255
40 6.84037 49.8104 1 0 0  255 255 255 255
40 5.37826 18.2171 1 0 0  255 255 255 255
40 -5.06157 38.8408 1 0 0  255 255 255 255
40 -2.37163 52.5394 1 0 0  255 255 255 255
40 -5.27767 51.0141 1 0 0  255 255 255 255
40 5.02126 38.5571 1 0 0  255 255 255 255
40 3.37005 35.3922 1 0 0  255 255 255 255
40 4.24022 35.945 1 0 0  255 255 255 255
40 2.84991 53.9765 1 0 0  255 255 255 255
40 -6.97036 9.17105 1 0 0  255 255 255 255
40 6.95564 14.7621 1 0 0  255 255 255 255
40 -5.3478 29.2246 1 0 0  255 255 255 255
40 -6.91772 15.1402 1 0 0  255 255 255 255
40 5.25971 34.9767 1 0 0  255 255 255 255
40 4.53553 26.2332 1 0 0  255 255 255 255
40 6.92365 41.5227 1 0 0  255 255 255 255
40 2.68283 3.45375 1 0 0  255 255 255 255
40 -6.96555 24.8501 1 0 0  255 255 255 255
40 -0.795287 19.9839 1 0 0  255 255 255 255
40 -1.57955 46.9174 1 0 0  255 255 255 255
40 0.540323 23.9529 1 0 0  255 255 255 255
40 6.98321 33.8045 1 0 0  255 255 255 255
40 -6.95722 39.8232 1 0 0  255 255 255 255
40 6.99762 18.7828 1 0 0  255 255 255 255
40 6.90057 39.5977 1 0 0  255 255 255 255
40 6.92883 8.83029 1 0 0  255 255 255 255
40 -1.94379 25.7462 1 0 0  255 255 255 255
40 -2.50106 27.3021 1 0 0  255 255 255 255
40 5.63256 46.5209 1 0 0  255 255 255 255
40 5.52004 14.3524 1 0 0  255 255 255 255
40 -5.64903 46.5005 1 0 0  255 255 255 255
40 -2.14291 20.8092 1 0 0  255 255 255 255
40 -6.88389 23.1352 1 0 0  255 255 255 255
40 2.34242 52.6007 1 0 0  255 255 255 255
40 -6.93382 10.6449 1 0 0  255 255 255 255
40 -0.905152 16.9595 1 0 0  255 255 255 255
40 -2.77195 19.412 1 0 0  255 255 255 255
40 -2.09075 43.4995 1 0 0  255 255 255 255
40 4.96133 31.1363 1 0 0  255 255 255 255
40 -7.00219 43.4007 1 0 0  255 255 255 255
40 -3.74677 23.1181 1 0 0  255 255 255 255
40 -3.90153 28.3299 1 0 0  255 255 255 255
40 7.05076 54.012 1 0 0  255 255 255 255
40 5.43135 32.4339 1 0 0  255 255 255 255
40 0.192856 25.4633 1 0 0  255 255 255 255
40 -7.05168 54.0134 1 0 0  255 255 255 255
40 -4.04342 26.1394 1 0 0  255 255 255 255
40 2.34443 31.2991 1 0 0  255 255 255 255
40 -2.32048 37.0599 1 0 0  255 255 255 255
40 -2.62808 35.9904 1 0 0  255 255 255 255
40 7.00005 31.9605 1 0 0  255 255 255 255
40 2.16207 36.9609 1 0 0  255 255 255 255
40 1.13205 20.0154 1 0 0  255 255 255 255
40 -7.0304 41.7844 1 0 0  255 255 255 255
40 5.19421 22.6362 1 0 0  255 255 255 255
40 6.99549 9.92707 1 0 0  255 255 255 255
40 0.766112 35.7085 1 0 0  255 255 255 255
40 1.58562 35.0746 1 0 0  255 255 255 255
40 5.58432 54.042 1 0 0  255 255 255 255
40 -3.83662 53.9922 1 0 0  255 255 255 255
40 4.17349 52.4994 1 0 0  255 255 255 255
40 -0.196283 34.0505 1 0 0  255 255 255 255
40 -5.59938 54.023 1 0 0  255 255 255 255
40 -4.18588 52.5095 1 0 0  255 255 255 255
40 3.89374 37.368 1 0 0  255 255 255 255
40 -1.02604 3.12687 1 0 0  255 255 255 255
40 4.10321 41.0748 1 0 0  255 255 255 255
40 -1.69806 35.2625 1 0 0  255 255 255 255
40 3.84989 54 1 0 0  255 255 255 255
40 -5.3332 35.3664 1 0 0  255 255 255 255
40 3.81359 46.9692 1 0 0  255 255 255 255
40 -6.95369 27.8298 1 0 0  255 255 255 255
40 2.54723 42.4599 1 0 0  255 255 255 255
40 -5.45717 19.807 1 0 0  255 255 255 255
40 4.43701 28.1704 1 0 0  255 255 255 255
40 -5.81275 18.1123 1 0 0  255 255 255 255
40 7.00625 23.5219 1 0 0  255 255 255 255
40 -0.751913 38.8279 1 0 0  255 255 255 255
40 4.76385 19.0225 1 0 0  255 255 255 255
40 2.80951 47.9907 1 0 0  255 255 255 255
40 3.63714 15.9135 1 0 0  255 255 255 255
40 5.68588 16.2723 1 0 0  255 255 255 255
40 -3.9701 2.02261 1 0 0  255 255 255 255
40 1.08097 3.05153 1 0 0  255 255 255 255
40 -6.94169 34.3742 1 0 0  255 255 255 255
40 -3.86983 46.9769 1 0 0  255 255 255 255
40 3.98023 2.01482 1 0 0  255 255 255 255
40 1.28727 31.4644 1 0 0  255 255 255 255
40 -0.136366 28.7846 1 0 0  255 255 255 255
40 -3.33477 16.0737 1 0 0  255 255 255 255
40 -7.03648 5.70826 1 0 0  255 255 255 255
40 -2.81321 48.011 1 0 0  255 255 255 255
40 -7.06442 51.062 1 0 0  255 255 255 255
40 -5.40776 50.0455 1 0 0  255 255 255 255
40 7.10861 5.77284 1 0 0  255 255 255 255
40 0.063302 27.481 1 0 0  255 255 255 255
40 7.06826 51.0632 1 0 0  255 255 255 255
40 6.99765 47.9022 1 0 0  255 255 255 255
40 -2.25155 38.8135 1 0 0  255 255 255 255
40 -7.01379 32.4688 1 0 0  255 255 255 255
40 3.43261 34.2846 1 0 0  255 255 255 255
40 -7.00066 47.8842 1 0 0  255 255 255 255
40 -3.23204 40.8237 1 0 0  255 255 255 255
40 -5.74099 6.08508 1 0 0  255 255 255 255
40 -5.78916 23.0965 1 0 0  255 255 255 255
40 2.60454 33.6227 1 0 0  255 255 255 255
40 5.40997 50.0399 1 0 0  255 255 255 255
40 -0.783775 43.6966 1 0 0  255 255 255 255
40 -4.18969 17.1109 1 0 0  255 255 255 255
40 2.07323 22.9892 1 0 0  255 255 255 255
40 5.60969 43.0889 1 0 0  255 255 255 255
40 5.31683 42.1003 1 0 0  255 255 255 255
40 -0.051265 46.5975 1 0 0  255 255 255 255
40 0.521692 30.4102 1 0 0  255 255 255 255
40 -2.96155 30.5673 1 0 0  255 255 255 255
40 0.709087 33.5246 1 0 0  255 255 255 255
40 -7.09337 35.4507 1 0 0  255 255 255 255
40 -7.03709 37.1713 1 0 0  255 255 255 255
40 -3.34171 50.8311 1 0 0  255 255 255 255
40 5.74778 1.96282 1 0 0  255 255 255 255
40 -5.74831 1.96287 1 0 0  255 255 255 255
40 -3.90704 37.74 1 0 0  255 255 255 255
40 5.78625 6.03209 1 0 0  255 255 255 255
40 5.55129 26.5524 1 0 0  255 255 255 255
40 0.19603 40.6148 1 0 0  255 255 255 255
40 7.03327 35.18 1 0 0  255 255 255 255
40 -7.11385 52.8294 1 0 0  255 255 255 255
40 -2.77919 22.9211 1 0 0  255 255 255 255
40 4.34903 51.458 1 0 0  255 255 255 255
40 7.11513 52.8268 1 0 0  255 255 255 255
40 -4.4282 3.17165 1 0 0  255 255 255 255
40 -2.37269 23.8945 1 0 0  255 255 255 255
40 -3.64071 21.2375 1 0 0  255 255 255 255
40 4.36891 16.7426 1 0 0  255 255 255 255
40 5.42662 52.8017 1 0 0  255 255 255 255
40 -2.77846 24.969 1 0 0  255 255 255 255
40 -5.80715 43.0944 1 0 0  255 255 255 255
40 -4.40204 48.6308 1 0 0  255 255 255 255
40 -5.43433 52.7774 1 0 0  255 255 255 255
40 -4.25175 23.973 1 0 0  255 255 255 255
40 4.43695 34.1149 1 0 0  255 255 255 255
40 -5.72725 27.8988 1 0 0  255 255 255 255
40 4.28303 39.2426 1 0 0  255 255 255 255
40 6.0013 41.3944 1 0 0  255 255 255 255
40 4.39174 48.6351 1 0 0  255 255 255 255
40 5.99514 33.8215 1 0 0  255 255 255 255
40 -7.13349 19.1822 1 0 0  255 255 255 255
40 6.97889 25.154 1 0 0  255 255 255 255
40 -4.28759 18.5055 1 0 0  255 255 255 255
40 -4.37269 51.4337 1 0 0  255 255 255 255
40 5.5658 23.5872 1 0 0  255 255 255 255
40 4.42453 3.16426 1 0 0  255 255 255 255
40 7.13382 45.4079 1 0 0  255 255 255 255
40 7.08966 22.4899 1 0 0  255 255 255 255
40 7.14441 27.792 1 0 0  255 255 255 255
40 7.04727 36.8064 1 0 0  255 255 255 255
40 3.30292 50.8576 1 0 0  255 255 255 255
40 1.67448 28.2205 1 0 0  255 255 255 255
40 -5.9859 34.1192 1 0 0  255 255 255 255
40 3.88077 22.832 1 0 0  255 255 255 255
40 -5.76003 48.369 1 0 0  255 255 255 255
40 -6.05111 41.6464 1 0 0  255 255 255 255
40 7.08874 29.3411 1 0 0  255 255 255 255
40 -7.1397 45.4079 1 0 0  255 255 255 255
40 -5.76847 21.965 1 0 0  255 255 255 255
40 -0.418063 42.35 1 0 0  255 255 255 255
40 -5.21721 18.9178 1 0 0  255 255 255 255
40 5.75536 48.3978 1 0 0  255 255 255 255
40 -1.63348 27.7514 1 0 0  255 255 255 255
40 -3.69531 42.7125 1 0 0  255 255 255 255
40 5.7177 4.47895 1 0 0  255 255 255 255
40 -4.47401 31.8626 1 0 0  255 255 255 255
40 4.52548 49.684 1 0 0  255 255 255 255
40 1.08668 26.0454 1 0 0  255 255 255 255
40 -4.54848 49.6758 1 0 0  255 255 255 255
40 3.04924 17.7639 1 0 0  255 255 255 255
40 -2.7323 17.8453 1 0 0  255 255 255 255
40 -5.72775 4.46565 1 0 0  255 255 255 255
40 7.07882 3.08396 1 0 0  255 255 255 255
40 5.87325 30.4681 1 0 0  255 255 255 255
40 2.24122 43.6609 1 0 0  255 255 255 255
40 -0.411696 21.5744 1 0 0  255 255 255 255
40 -7.08131 3.08026 1 0 0  255 255 255 255
40 5.70425 51.5785 1 0 0  255 255 255 255
40 -1.3608 22.3988 1 0 0  255 255 255 255
40 -3.48981 35.3463 1 0 0  255 255 255 255
40 -0.728881 26.9156 1 0 0  255 255 255 255
40 0.193587 16.8567 1 0 0  255 255 255 255
40 -4.62334 39.5892 1 0 0  255 255 255 255
40 -4.53211 15.1705 1 0 0  255 255 255 255
40 -1.06174 17.7436 1 0 0  255 255 255 255
40 2.49088 35.8539 1 0 0  255 255 255 255
40 1.56247 45.4271 1 0 0  255 255 255 255
40 -7.14323 4.69792 1 0 0  255 255 255 255
40 -5.9452 36.9349 1 0 0  255 255 255 255
40 -4.21515 33.9366 1 0 0  255 255 255 255
40 -3.48385 4.0886 1 0 0  255 255 255 255
40 1.72108 18.974 1 0 0  255 255 255 255
40 4.76977 15.0323 1 0 0  255 255 255 255
40 0.519651 44.9349 1 0 0  255 255 255 255
40 -7.02074 26.6874 1 0 0  255 255 255 255
40 -3.66248 19.7744 1 0 0  255 255 255 255
40 3.40889 4.0048 1 0 0  255 255 255 255
40 -5.69456 26.4374 1 0 0  255 255 255 255
40 1.93062 25.2871 1 0 0  255 255 255 255
40 5.58716 27.7284 1 0 0  255 255 255 255
40 6.07524 35.6471 1 0 0  255 255 255 255
40 7.106 15.7742 1 0 0  255 255 255 255
40 -4.30594 41.2045 1 0 0  255 255 255 255
40 5.92562 44.7637 1 0 0  255 255 255 255
40 5.78189 22.2108 1 0 0  255 255 255 255
40 -4.45216 36.9236 1 0 0  255 255 255 255
40 -5.66987 51.5919 1 0 0  255 255 255 255
40 -5.81756 44.7932 1 0 0  255 255 255 255
40 -1.40249 54.2717 1 0 0  255 255 255 255
40 2.02879 38.6079 1 0 0  255 255 255 255
40 0.847152 43.8728 1 0 0  255 255 255 255
40 7.14614 4.69661 1 0 0  255 255 255 255
40 3.73675 42.678 1 0 0  255 255 255 255
40 -6.09886 49.5041 1 0 0  255 255 255 255
40 1.09202 42.5491 1 0 0  255 255 255 255
40 -0.71325 36.0098 1 0 0  255 255 255 255
40 7.16606 42.5344 1 0 0  255 255 255 255
40 -0.37278 32.1255 1 0 0  255 255 255 255
40 -1.6421 40.4307 1 0 0  255 255 255 255
40 2.00074 29.7996 1 0 0  255 255 255 255
40 -6.95051 13.9842 1 0 0  255 255 255 255
40 5.87348 38.1744 1 0 0  255 255 255 255
40 2.02198 21.2507 1 0 0  255 255 255 255
40 1.35741 54.2017 1 0 0  255 255 255 255
40 -5.92716 38.5161 1 0 0  255 255 255 255
40 -6.04236 24.9772 1 0 0  255 255 255 255
40 5.63973 36.9285 1 0 0  255 255 255 255
40 -3.09632 28.6957 1 0 0  255 255 255 255
40 2.53751 41.5039 1 0 0  255 255 255 255
40 2.54508 26.7374 1 0 0  255 255 255 255
40 -5.98937 13.4399 1 0 0  255 255 255 255
40 6.11693 49.5211 1 0 0  255 255 255 255
40 -2.07613 1.57913 1 0 0  255 255 255 255
40 -5.11804 34.4822 1 0 0  255 255 255 255
40 3.24251 40.5989 1 0 0  255 255 255 255
40 3.17676 45.1213 1 0 0  255 255 255 255
40 4.75999 41.7047 1 0 0  255 255 255 255
40 7.09159 1.94132 1 0 0  255 255 255 255
40 4.14762 32.9726 1 0 0  255 255 255 255
40 -7.09305 1.9395 1 0 0  255 255 255 255
40 7.02402 19.5829 1 0 0  255 255 255 255
40 -5.7721 32.9794 1 0 0  255 255 255 255
40 -3.05504 45.3354 1 0 0  255 255 255 255
40 3.35481 44.1141 1 0 0  255 255 255 255
40 5.99666 29.09 1 0 0  255 255 255 255
40 -4.09728 45.6686 1 0 0  255 255 255 255
40 4.09691 45.6653 1 0 0  255 255 255 255
40 -0.685237 39.8096 1 0 0  255 255 255 255
40 -7.28136 24.153 1 0 0  255 255 255 255
40 -1.43894 45.5345 1 0 0  255 255 255 255
40 0.201759 22.9848 1 0 0  255 255 255 255
40 -3.47644 44.0705 1 0 0  255 255 255 255
40 5.95888 17.1468 1 0 0  255 255 255 255
40 2.07722 1.58091 1 0 0  255 255 255 255
40 7.23488 13.3269 1 0 0  255 255 255 255
40 -3.74626 17.7226 1 0 0  255 255 255 255
40 1.22781 53.0256 1 0 0  255 255 255 255
40 3.09278 48.8645 1 0 0  255 255 255 255
40 4.77924 21.1489 1 0 0  255 255 255 255
40 5.73994 20.4742 1 0 0  255 255 255 255
40 -5.33097 42.2315 1 0 0  255 255 255 255
40 -4.22321 27.4516 1 0 0  255 255 255 255
40 7.11797 17.1662 1 0 0  255 255 255 255
40 -3.26895 33.0739 1 0 0  255 255 255 255
40 -2.53998 16.2445 1 0 0  255 255 255 255
40 -3.7773 30.092 1 0 0  255 255 255 255
40 2.85169 32.6302 1 0 0  255 255 255 255
40 -2.52885 26.5348 1 0 0  255 255 255 255
40 2.66282 16.2816 1 0 0  255 255 255 255
40 1.91229 47.4433 1 0 0  255 255 255 255
40 0.000387 18.6223 1 0 0  255 255 255 255
40 -7.2552 22.2382 1 0 0  255 255 255 255
40 -7.20857 17.015 1 0 0  255 255 255 255
40 -7.18318 42.569 1 0 0  255 255 255 255
40 0.847616 39.7834 1 0 0  255 255 255 255
40 -1.72398 3.46722 1 0 0  255 255 255 255
40 -1.60976 28.6737 1 0 0  255 255 255 255
40 7.15213 26.6755 1 0 0  255 255 255 255
40 4.60378 29.1901 1 0 0  255 255 255 255
40 4.06642 27.3299 1 0 0  255 255 255 255
40 -3.03616 48.7188 1 0 0  255 255 255 255
40 -3.60715 31.7495 1 0 0  255 255 255 255
40 -4.23273 28.9153 1 0 0  255 255 255 255
40 7.08822 20.9366 1 0 0  255 255 255 255
40 -1.14511 53.1159 1 0 0  255 255 255 255
40 -3.28248 49.836 1 0 0  255 255 255 255
40 2.26452 39.8591 1 0 0  255 255 255 255
40 4.90601 25.205 1 0 0  255 255 255 255
40 -0.001985 54.2814 1 0 0  255 255 255 255
40 4.43197 36.7689 1 0 0  255 255 255 255
40 5.01878 47.0658 1 0 0  255 255 255 255
40 3.64252 30.0329 1 0 0  255 255 255 255
40 3.06629 29.3913 1 0 0  255 255 255 255
40 0.544703 37.5921 1 0 0  255 255 255 255
40 -1.05133 24.8733 1 0 0  255 255 255 255
40 -5.0355 47.0447 1 0 0  255 255 255 255
40 2.93703 30.9186 1 0 0  255 255 255 255
40 2.81667 19.3311 1 0 0  255 255 255 255
40 -7.36081 9.90603 1 0 0  255 255 255 255
40 5.73226 40.4083 1 0 0  255 255 255 255
40 7.05333 30.0881 1 0 0  255 255 255 255
40 3.29503 49.949 1 0 0  255 255 255 255
40 -2.7295 21.445 1 0 0  255 255 255 255
40 -7.17125 38.0216 1 0 0  255 255 255 255
40 -5.95483 31.2805 1 0 0  255 255 255 255
40 -3.69968 39.6144 1 0 0  255 255 255 255
40 -2.58028 51.7598 1 0 0  255 255 255 255
40 -7.2519 7.04289 1 0 0  255 255 255 255
40 6.08894 13.0857 1 0 0  255 255 255 255
40 4.41558 24.533 1 0 0  255 255 255 255
40 -6.0977 14.977 1 0 0  255 255 255 255
40 1.82362 20.397 1 0 0  255 255 255 255
40 -7.21527 28.9929 1 0 0  255 255 255 255
40 2.68829 51.913 1 0 0  255 255 255 255
40 6.16227 7.28536 1 0 0  255 255 255 255
40 -1.64791 24.0374 1 0 0  255 255 255 255
40 -2.11391 32.0123 1 0 0  255 255 255 255
40 -4.74319 25.988 1 0 0  255 255 255 255
40 -0.158626 45.6688 1 0 0  255 255 255 255
40 6.23446 3.08404 1 0 0  255 255 255 255
40 -7.16891 31.6076 1 0 0  255 255 255 255
40 -6.23829 3.07912 1 0 0  255 255 255 255
40 7.24966 7.05814 1 0 0  255 255 255 255
40 5.05981 34.1821 1 0 0  255 255 255 255
40 -3.17125 38.6637 1 0 0  255 255 255 255
40 -4.36882 42.0189 1 0 0  255 255 255 255
40 2.55896 23.8434 1 0 0  255 255 255 255
40 1.83513 3.53322 1 0 0  255 255 255 255
40 -0.199273 3.27833 1 0 0  255 255 255 255
40 0.792007 46.8002 1 0 0  255 255 255 255
40 2.73305 22.5857 1 0 0  255 255 255 255
40 -5.99691 35.8968 1 0 0  255 255 255 255
40 -3.31756 26.5604 1 0 0  255 255 255 255
40 -5.33949 22.5615 1 0 0  255 255 255 255
40 6.30865 25.0907 1 0 0  255 255 255 255
40 7.19176 37.8943 1 0 0  255 255 255 255
40 3.88144 26.0968 1 0 0  255 255 255 255
40 -5.99512 16.5732 1 0 0  255 255 255 255
40 5.54324 2.66913 1 0 0  255 255 255 255
40 -4.43024 33.2778 1 0 0  255 255 255 255
40 3.11577 38.4346 1 0 0  255 255 255 255
40 -5.54364 2.6673 1 0 0  255 255 255 255
40 -6.11858 43.6623 1 0 0  255 255 255 255
40 0.018621 53.2469 1 0 0  255 255 255 255
40 -4.27254 22.5432 1 0 0  255 255 255 255
40 -2.21894 46.5159 1 0 0  255 255 255 255
40 3.25896 24.9724 1 0 0  255 255 255 255
40 -2.1119 54.2872 1 0 0  255 255 255 255
40 4.94739 54.2514 1 0 0  255 255 255 255
40 6.09287 43.5874 1 0 0  255 255 255 255
40 7.4032 40.4443 1 0 0  255 255 255 255
40 -2.02426 44.8697 1 0 0  255 255 255 255
40 2.13316 54.2817 1 0 0  255 255 255 255
40 2.23564 46.3679 1 0 0  255 255 255 255
40 -2.89682 41.4953 1 0 0  255 255 255 255
40 0 1.70252 1 0 0  255 255 255 255
40 -5.54944 27.1248 1 0 0  255 255 255 255
40 -7.32963 8.45369 1 0 0  255 255 255 255
40 -4.94699 54.2497 1 0 0  255 255 255 255
40 1.74525 41.1014 1 0 0  255 255 255 255
40 2.8415 28.1862 1 0 0  255 255 255 255
40 1.45243 16.5728 1 0 0  255 255 255 255
40 0.045047 37.2158 1 0 0  255 255 255 255
40 -1.58576 18.9464 1 0 0  255 255 255 255
40 7.29868 11.9722 1 0 0  255 255 255 255
40 1.03742 41.5193 1 0 0  255 255 255 255
40 3.6907 32.4383 1 0 0  255 255 255 255
40 -6.00375 29.3715 1 0 0  255 255 255 255
40 -2.09977 29.1422 1 0 0  255 255 255 255
40 -6.09122 52.5659 1 0 0  255 255 255 255
40 6.08937 52.558 1 0 0  255 255 255 255
40 -2.88748 27.7954 1 0 0  255 255 255 255
40 3.54963 39.4593 1 0 0  255 255 255 255
40 -1.1403 31.3118 1 0 0  255 255 255 255
40 -0.987873 38.0919 1 0 0  255 255 255 255
40 -0.083286 41.2006 1 0 0  255 255 255 255
40 -2.13058 47.7128 1 0 0  255 255 255 255
40 -5.74215 40.8922 1 0 0  255 255 255 255
40 -0.639452 46.9012 1 0 0  255 255 255 255
40 -2.03416 40.0175 1 0 0  255 255 255 255
40 6.33088 21.0373 1 0 0  255 255 255 255
40 7.33099 32.6307 1 0 0  255 255 255 255
40 -6.21768 7.29076 1 0 0  255 255 255 255
40 6.4215 11.846 1 0 0  255 255 255 255
40 -5.46251 45.7796 1 0 0  255 255 255 255
40 -2.68847 18.6436 1 0 0  255 255 255 255
40 4.51312 44.5502 1 0 0  255 255 255 255
40 -7.27299 40.4996 1 0 0  255 255 255 255
40 0.982414 19.2389 1 0 0  255 255 255 255
40 -2.98175 42.6073 1 0 0  255 255 255 255
40 1.50257 32.7583 1 0 0  255 255 255 255
40 7.34579 24.334 1 0 0  255 255 255 255
40 7.37733 10.5691 1 0 0  255 255 255 255
40 4.45283 17.4638 1 0 0  255 255 255 255
40 4.01735 53.2511 1 0 0  255 255 255 255
40 -1.52827 38.7314 1 0 0  255 255 255 255
40 -2.60267 53.2652 1 0 0  255 255 255 255
40 -6.31153 54.3091 1 0 0  255 255 255 255
40 6.30963 54.3096 1 0 0  255 255 255 255
40 6.00512 18.4136 1 0 0  255 255 255 255
40 4.36725 47.4829 1 0 0  255 255 255 255
40 -4.01556 53.2515 1 0 0  255 255 255 255
40 5.4696 45.7921 1 0 0  255 255 255 255
40 -0.503872 29.3218 1 0 0  255 255 255 255
40 -6.48491 8.52286 1 0 0  255 255 255 255
40 -5.03988 15.7489 1 0 0  255 255 255 255
40 3.75339 21.645 1 0 0  255 255 255 255
40 -5.73566 17.3634 1 0 0  255 255 255 255
40 1.8174 34.3429 1 0 0  255 255 255 255
40 7.27306 34.585 1 0 0  255 255 255 255
40 4.28208 4.84368 1 0 0  255 255 255 255
40 3.08422 39.9046 1 0 0  255 255 255 255
40 -6.27695 12.2977 1 0 0  255 255 255 255
40 -3.41265 34.6494 1 0 0  255 255 255 255
40 -3.25784 47.4414 1 0 0  255 255 255 255
40 -1.34967 30.2075 1 0 0  255 255 255 255
40 1.88839 42.611 1 0 0  255 255 255 255
40 3.94276 31.5889 1 0 0  255 255 255 255
40 7.17201 18.0215 1 0 0  255 255 255 255
40 3.00409 27.4484 1 0 0  255 255 255 255
40 -7.26202 49.1369 1 0 0  255 255 255 255
40 7.3136 14.1229 1 0 0  255 255 255 255
40 6.20209 39.877 1 0 0  255 255 255 255
40 7.26078 49.1505 1 0 0  255 255 255 255
40 7.3207 43.9825 1 0 0  255 255 255 255
40 5.09068 21.8509 1 0 0  255 255 255 255
40 -1.24332 20.469 1 0 0  255 255 255 255
40 -5.05931 4.11364 1 0 0  255 255 255 255
40 1.46093 40.1881 1 0 0  255 255 255 255
40 2.00404 44.8995 1 0 0  255 255 255 255
40 -6.30589 20.8795 1 0 0  255 255 255 255
40 -3.7336 15.5763 1 0 0  255 255 255 255
40 -5.47376 13.9967 1 0 0  255 255 255 255
40 -7.29236 30.3952 1 0 0  255 255 255 255
40 5.05642 4.11389 1 0 0  255 255 255 255
40 -2.45853 20.083 1 0 0  255 255 255 255
40 -0.083557 38.7452 1 0 0  255 255 255 255
40 4.17729 20.1718 1 0 0  255 255 255 255
40 3.77131 17.6475 1 0 0  255 255 255 255
40 -7.25391 14.4869 1 0 0  255 255 255 255
40 6.31732 32.1284 1 0 0  255 255 255 255
40 6.22487 14.59 1 0 0  255 255 255 255
40 -4.90543 24.9706 1 0 0  255 255 255 255
40 -4.47256 44.6079 1 0 0  255 255 255 255
40 2.60073 53.2951 1 0 0  255 255 255 255
40 3.79178 18.872 1 0 0  255 255 255 255
40 5.72687 33.1603 1 0 0  255 255 255 255
40 -0.772717 33.8153 1 0 0  255 255 255 255
40 -6.16964 40.2054 1 0 0  255 255 255 255
40 5.13291 31.778 1 0 0  255 255 255 255
40 1.59859 43.8093 1 0 0  255 255 255 255
40 0.623327 43.1332 1 0 0  255 255 255 255
40 0.498474 24.6035 1 0 0  255 255 255 255
40 -7.30449 33.3337 1 0 0  255 255 255 255
40 -7.37044 51.7401 1 0 0  255 255 255 255
40 -4.36158 47.4789 1 0 0  255 255 255 255
40 -7.2599 12.4542 1 0 0  255 255 255 255
40 6.28461 23.5941 1 0 0  255 255 255 255
40 3.24675 47.4479 1 0 0  255 255 255 255
40 -1.93872 42.8288 1 0 0  255 255 255 255
40 -3.51118 25.2364 1 0 0  255 255 255 255
40 7.3735 51.7399 1 0 0  255 255 255 255
40 -7.26562 20.6915 1 0 0  255 255 255 255
40 3.43047 20.2961 1 0 0  255 255 255 255
40 -7.26183 47.1864 1 0 0  255 255 255 255
40 -4.32886 4.84439 1 0 0  255 255 255 255
