ply
format ascii 1.0
comment VCGLIB generated
element vertex 1092
property float x
property float y
property float z
property float nx
property float ny
property float nz
property uchar red
property uchar green
property uchar blue
property uchar alpha
element face 0
property list uchar int vertex_indices
end_header
-16 6.30147 10.0397 -1 0 0  255 255 255 255
-16 30.038 4.79658 -1 0 0  255 255 255 255
-16 30.038 -4.79658 -1 0 0  255 255 255 255
-16 11.4664 -3.23434 -1 0 0  255 255 255 255
-16 19.8387 -11.4262 -1 0 0  255 255 255 255
-16 5.19154 -0.380286 -1 0 0  255 255 255 255
-16 10.631 -0.012747 -1 0 0  255 255 255 255
-16 4.03116 -11.02 -1 0 0  255 255 255 255
-16 19.9842 -1.84203 -1 0 0  255 255 255 255
-16 19.9842 1.84203 -1 0 0  255 255 255 255
-16 8.75537 2.03684 -1 0 0  255 255 255 255
-16 15.9111 -12.8226 -1 0 0  255 255 255 255
-16 31.1204 10.062 -1 0 0  255 255 255 255
-16 31.1204 -10.062 -1 0 0  255 255 255 255
-16 3.73014 0.799336 -1 0 0  255 255 255 255
-16 29.6304 -15.5907 -1 0 0  255 255 255 255
-16 16.0491 5.35615 -1 0 0  255 255 255 255
-16 12.6111 -9.59357 -1 0 0  255 255 255 255
-16 15.5048 -11.7764 -1 0 0  255 255 255 255
-16 8.72691 4.10289 -1 0 0  255 255 255 255
-16 11.7216 8.71204 -1 0 0  255 255 255 255
-16 7.16304 -13.585 -1 0 0  255 255 255 255
-16 27.3144 0.360015 -1 0 0  255 255 255 255
-16 9.16652 -2.48426 -1 0 0  255 255 255 255
-16 29.1552 1.28321 -1 0 0  255 255 255 255
-16 21.4121 -13.9174 -1 0 0  255 255 255 255
-16 15.1258 -9.97727 -1 0 0  255 255 255 255
-16 14.4262 -6.5387 -1 0 0  255 255 255 255
-16 21.4173 13.9035 -1 0 0  255 255 255 255
-16 30.4462 4.73172 -1 0 0  255 255 255 255
-16 30.4462 -4.73172 -1 0 0  255 255 255 255
-16 4.10288 5.77544 -1 0 0  255 255 255 255
-16 29.5329 0.939585 -1 0 0  255 255 255 255
-16 12.1509 -1.95578 -1 0 0  255 255 255 255
-16 18.042 -9.89273 -1 0 0  255 255 255 255
-16 30.1263 11.1896 -1 0 0  255 255 255 255
-16 30.1263 -11.1896 -1 0 0  255 255 255 255
-16 25.1126 2.46325 -1 0 0  255 255 255 255
-16 25.1126 -2.46325 -1 0 0  255 255 255 255
-16 16.109 -12.139 -1 0 0  255 255 255 255
-16 27.1094 7.83478 -1 0 0  255 255 255 255
-16 27.1094 -7.83478 -1 0 0  255 255 255 255
-16 7.32631 7.21312 -1 0 0  255 255 255 255
-16 27.3504 -0.770897 -1 0 0  255 255 255 255
-16 24.323 2.3636 -1 0 0  255 255 255 255
-16 24.323 -2.3636 -1 0 0  255 255 255 255
-16 12.2882 13.3479 -1 0 0  255 255 255 255
-16 11.4036 -12.3953 -1 0 0  255 255 255 255
-16 19.517 10.2905 -1 0 0  255 255 255 255
-16 16.5693 -5.86614 -1 0 0  255 255 255 255
-16 13.2644 3.95894 -1 0 0  255 255 255 255
-16 6.40625 3.62917 -1 0 0  255 255 255 255
-16 8.53276 -12.5965 -1 0 0  255 255 255 255
-16 4.0197 11.0285 -1 0 0  255 255 255 255
-16 14.2511 -9.75395 -1 0 0  255 255 255 255
-16 5.02569 9.6761 -1 0 0  255 255 255 255
-16 4.94445 -6.69908 -1 0 0  255 255 255 255
-16 18.0581 7.28301 -1 0 0  255 255 255 255
-16 22.7364 -9.65588 -1 0 0  255 255 255 255
-16 21.4804 -8.08197 -1 0 0  255 255 255 255
-16 8.88182 -15.6654 -1 0 0  255 255 255 255
-16 12.5749 8.51866 -1 0 0  255 255 255 255
-16 19.4222 3.43151 -1 0 0  255 255 255 255
-16 17.0847 4.73373 -1 0 0  255 255 255 255
-16 13.0866 -9.63257 -1 0 0  255 255 255 255
-16 30.0282 0.363554 -1 0 0  255 255 255 255
-16 2.82671 -5.78877 -1 0 0  255 255 255 255
-16 8.73387 -11.4294 -1 0 0  255 255 255 255
-16 11.8722 1.384 -1 0 0  255 255 255 255
-16 5.19266 0.353297 -1 0 0  255 255 255 255
-16 5.34942 0.827622 -1 0 0  255 255 255 255
-16 22.9432 -7.39615 -1 0 0  255 255 255 255
-16 22.9433 7.39609 -1 0 0  255 255 255 255
-16 15.9526 -5.33645 -1 0 0  255 255 255 255
-16 30.5917 -13.6114 -1 0 0  255 255 255 255
-16 16.3967 -13.3642 -1 0 0  255 255 255 255
-16 12.7129 -11.0542 -1 0 0  255 255 255 255
-16 18.3909 -11.8138 -1 0 0  255 255 255 255
-16 17.8992 -14.0095 -1 0 0  255 255 255 255
-16 3.95277 -12.8387 -1 0 0  255 255 255 255
-16 31.6089 14.1437 -1 0 0  255 255 255 255
-16 17.1817 15.0888 -1 0 0  255 255 255 255
-16 9.47353 -9.04129 -1 0 0  255 255 255 255
-16 18.7257 3.34835 -1 0 0  255 255 255 255
-16 31.1784 -4.69043 -1 0 0  255 255 255 255
-16 31.1784 4.69043 -1 0 0  255 255 255 255
-16 21.0231 -14.5222 -1 0 0  255 255 255 255
-16 17.0047 -4.7557 -1 0 0  255 255 255 255
-16 11.9665 11.1847 -1 0 0  255 255 255 255
-16 30.5432 2.45945 -1 0 0  255 255 255 255
-16 30.5041 -2.51927 -1 0 0  255 255 255 255
-16 28.6192 2.40488 -1 0 0  255 255 255 255
-16 28.6192 -2.40488 -1 0 0  255 255 255 255
-16 7.0405 -2.64592 -1 0 0  255 255 255 255
-16 23.5072 -15.2421 -1 0 0  255 255 255 255
-16 23.5072 15.2422 -1 0 0  255 255 255 255
-16 20.0862 -7.08045 -1 0 0  255 255 255 255
-16 6.57188 -2.5943 -1 0 0  255 255 255 255
-16 8.00989 2.18291 -1 0 0  255 255 255 255
-16 2.89406 8.40624 -1 0 0  255 255 255 255
-16 2.83905 -0.885609 -1 0 0  255 255 255 255
-16 19.2513 -13.7603 -1 0 0  255 255 255 255
-16 22.7976 -15.2404 -1 0 0  255 255 255 255
-16 4.17507 1.25039 -1 0 0  255 255 255 255
-16 13.6895 4.29892 -1 0 0  255 255 255 255
-16 10.877 15.0373 -1 0 0  255 255 255 255
-16 22.7965 15.2401 -1 0 0  255 255 255 255
-16 19.6675 -14.2837 -1 0 0  255 255 255 255
-16 4.09559 12.3543 -1 0 0  255 255 255 255
-16 24.2318 -15.0867 -1 0 0  255 255 255 255
-16 4.53552 -10.43 -1 0 0  255 255 255 255
-16 24.2318 15.0867 -1 0 0  255 255 255 255
-16 18.8157 11.4092 -1 0 0  255 255 255 255
-16 11.7278 -15.187 -1 0 0  255 255 255 255
-16 13.1612 -12.2562 -1 0 0  255 255 255 255
-16 26.1938 10.8752 -1 0 0  255 255 255 255
-16 26.1938 -10.8752 -1 0 0  255 255 255 255
-16 28.7224 4.59012 -1 0 0  255 255 255 255
-16 28.7224 -4.59012 -1 0 0  255 255 255 255
-16 27.4976 -2.82627 -1 0 0  255 255 255 255
-16 27.4857 2.8132 -1 0 0  255 255 255 255
-16 20.0918 -13.6267 -1 0 0  255 255 255 255
-16 20.0533 -14.1273 -1 0 0  255 255 255 255
-16 8.17062 -11.0676 -1 0 0  255 255 255 255
-16 22.7728 11.4285 -1 0 0  255 255 255 255
-16 9.26323 -15.0975 -1 0 0  255 255 255 255
-16 6.10477 -10.3325 -1 0 0  255 255 255 255
-16 10.153 3.53496 -1 0 0  255 255 255 255
-16 10.8651 13.8543 -1 0 0  255 255 255 255
-16 17.6531 15.7083 -1 0 0  255 255 255 255
-16 8.01527 10.5325 -1 0 0  255 255 255 255
-16 13.1428 12.3972 -1 0 0  255 255 255 255
-16 17.2669 -11.336 -1 0 0  255 255 255 255
-16 4.28282 15.6204 -1 0 0  255 255 255 255
-16 5.13601 -9.18178 -1 0 0  255 255 255 255
-16 29.0814 -1.8485 -1 0 0  255 255 255 255
-16 5.57218 8.59955 -1 0 0  255 255 255 255
-16 19.7072 14.2636 -1 0 0  255 255 255 255
-16 21.6776 -11.935 -1 0 0  255 255 255 255
-16 13.5902 -6.60677 -1 0 0  255 255 255 255
-16 4.7115 -3.13395 -1 0 0  255 255 255 255
-16 5.79059 -9.621 -1 0 0  255 255 255 255
-16 19.4069 -7.54155 -1 0 0  255 255 255 255
-16 30.9621 14.1958 -1 0 0  255 255 255 255
-16 5.68864 6.70348 -1 0 0  255 255 255 255
-16 21.7075 11.9718 -1 0 0  255 255 255 255
-16 30.0298 4.06648 -1 0 0  255 255 255 255
-16 30.0299 -4.0665 -1 0 0  255 255 255 255
-16 5.42806 11.5058 -1 0 0  255 255 255 255
-16 23.6823 6.3737 -1 0 0  255 255 255 255
-16 23.6823 -6.3737 -1 0 0  255 255 255 255
-16 28.9217 9.84573 -1 0 0  255 255 255 255
-16 28.9217 -9.84573 -1 0 0  255 255 255 255
-16 19.2265 11.3778 -1 0 0  255 255 255 255
-16 20.5125 -10.9281 -1 0 0  255 255 255 255
-16 10.4949 -8.20072 -1 0 0  255 255 255 255
-16 25.0066 -8.81551 -1 0 0  255 255 255 255
-16 25.0066 8.8155 -1 0 0  255 255 255 255
-16 17.0546 12.5307 -1 0 0  255 255 255 255
-16 9.80409 2.26741 -1 0 0  255 255 255 255
-16 14.3362 -9.29878 -1 0 0  255 255 255 255
-16 3.75468 -3.92728 -1 0 0  255 255 255 255
-16 9.32912 2.37202 -1 0 0  255 255 255 255
-16 25.3404 -12.8033 -1 0 0  255 255 255 255
-16 25.3404 12.8033 -1 0 0  255 255 255 255
-16 28.039 -6.46613 -1 0 0  255 255 255 255
-16 28.039 6.46613 -1 0 0  255 255 255 255
-16 14.8708 -10.5619 -1 0 0  255 255 255 255
-16 2.81255 -2.51045 -1 0 0  255 255 255 255
-16 26.8173 2.74992 -1 0 0  255 255 255 255
-16 26.8091 -2.74421 -1 0 0  255 255 255 255
-16 19.9734 -10.3397 -1 0 0  255 255 255 255
-16 20.0975 14.1812 -1 0 0  255 255 255 255
-16 16.9996 14.3864 -1 0 0  255 255 255 255
-16 28.0755 10.6291 -1 0 0  255 255 255 255
-16 28.0755 -10.6291 -1 0 0  255 255 255 255
-16 3.38057 -15.6691 -1 0 0  255 255 255 255
-16 11.8894 2.59609 -1 0 0  255 255 255 255
-16 11.8498 -14.4731 -1 0 0  255 255 255 255
-16 9.33094 -7.71914 -1 0 0  255 255 255 255
-16 9.47283 -3.15774 -1 0 0  255 255 255 255
-16 27.1148 -2.99913 -1 0 0  255 255 255 255
-16 27.1147 3.00059 -1 0 0  255 255 255 255
-16 26.4986 3.32404 -1 0 0  255 255 255 255
-16 26.4986 -3.32404 -1 0 0  255 255 255 255
-16 7.46585 2.63946 -1 0 0  255 255 255 255
-16 20.2353 13.5453 -1 0 0  255 255 255 255
-16 27.4776 8.36541 -1 0 0  255 255 255 255
-16 27.4776 -8.36541 -1 0 0  255 255 255 255
-16 8.13828 -11.7052 -1 0 0  255 255 255 255
-16 9.83924 14.3684 -1 0 0  255 255 255 255
-16 30.3591 -2.05236 -1 0 0  255 255 255 255
-16 5.82571 -7.88423 -1 0 0  255 255 255 255
-16 17.8766 5.98415 -1 0 0  255 255 255 255
-16 26.1696 -15.2696 -1 0 0  255 255 255 255
-16 26.1696 15.2696 -1 0 0  255 255 255 255
-16 18.3089 6.17061 -1 0 0  255 255 255 255
-16 15.0927 4.75105 -1 0 0  255 255 255 255
-16 4.52969 10.4296 -1 0 0  255 255 255 255
-16 8.72904 2.80197 -1 0 0  255 255 255 255
-16 8.09592 4.16667 -1 0 0  255 255 255 255
-16 30.4776 -11.3268 -1 0 0  255 255 255 255
-16 30.4776 11.3268 -1 0 0  255 255 255 255
-16 9.31868 1.65358 -1 0 0  255 255 255 255
-16 18.3647 -6.12225 -1 0 0  255 255 255 255
-16 30.9875 -5.71892 -1 0 0  255 255 255 255
-16 30.9875 5.71892 -1 0 0  255 255 255 255
-16 3.37588 15.6739 -1 0 0  255 255 255 255
-16 30.4644 1.50803 -1 0 0  255 255 255 255
-16 18.8154 -4.01536 -1 0 0  255 255 255 255
-16 5.10054 -10.8311 -1 0 0  255 255 255 255
-16 29.6034 3.54993 -1 0 0  255 255 255 255
-16 29.6037 -3.55005 -1 0 0  255 255 255 255
-16 25.2768 -14.4114 -1 0 0  255 255 255 255
-16 30.8274 -9.69537 -1 0 0  255 255 255 255
-16 30.8274 9.69537 -1 0 0  255 255 255 255
-16 25.2768 14.4114 -1 0 0  255 255 255 255
-16 20.0704 -2.60139 -1 0 0  255 255 255 255
-16 20.0666 2.60498 -1 0 0  255 255 255 255
-16 10.5055 -15.1003 -1 0 0  255 255 255 255
-16 29.5741 5.35935 -1 0 0  255 255 255 255
-16 29.5741 -5.35935 -1 0 0  255 255 255 255
-16 10.1229 0.540679 -1 0 0  255 255 255 255
-16 10.3514 -2.20302 -1 0 0  255 255 255 255
-16 11.4688 3.77394 -1 0 0  255 255 255 255
-16 19.1998 -12.0468 -1 0 0  255 255 255 255
-16 7.28276 13.5584 -1 0 0  255 255 255 255
-16 10.5056 2.95763 -1 0 0  255 255 255 255
-16 8.77325 -12.9698 -1 0 0  255 255 255 255
-16 18.6943 -3.3117 -1 0 0  255 255 255 255
-16 14.8672 6.11692 -1 0 0  255 255 255 255
-16 14.7151 12.5074 -1 0 0  255 255 255 255
-16 30.1626 -0.016166 -1 0 0  255 255 255 255
-16 29.4416 2.95298 -1 0 0  255 255 255 255
-16 29.448 -2.95416 -1 0 0  255 255 255 255
-16 13.7064 -9.47081 -1 0 0  255 255 255 255
-16 4.01174 8.53983 -1 0 0  255 255 255 255
-16 6.89069 -8.42903 -1 0 0  255 255 255 255
-16 4.18949 -0.469126 -1 0 0  255 255 255 255
-16 4.49754 6.85617 -1 0 0  255 255 255 255
-16 6.70007 -6.09602 -1 0 0  255 255 255 255
-16 12.1814 1.99902 -1 0 0  255 255 255 255
-16 15.1806 11.6305 -1 0 0  255 255 255 255
-16 5.84872 -5.2552 -1 0 0  255 255 255 255
-16 13.2891 -3.34045 -1 0 0  255 255 255 255
-16 15.0395 -4.73896 -1 0 0  255 255 255 255
-16 2.82839 7.43494 -1 0 0  255 255 255 255
-16 26.3156 11.5535 -1 0 0  255 255 255 255
-16 26.3156 -11.5535 -1 0 0  255 255 255 255
-16 5.12124 2.9493 -1 0 0  255 255 255 255
-16 2.78228 3.58621 -1 0 0  255 255 255 255
-16 7.70562 -5.77092 -1 0 0  255 255 255 255
-16 20.3318 0.662571 -1 0 0  255 255 255 255
-16 20.3318 -0.662571 -1 0 0  255 255 255 255
-16 3.73207 -7.37223 -1 0 0  255 255 255 255
-16 22.5616 -8.40104 -1 0 0  255 255 255 255
-16 13.0891 -7.93649 -1 0 0  255 255 255 255
-16 29.3183 -1.39057 -1 0 0  255 255 255 255
-16 22.5718 8.40602 -1 0 0  255 255 255 255
-16 3.87084 3.07868 -1 0 0  255 255 255 255
-16 17.9829 -13.2471 -1 0 0  255 255 255 255
-16 12.3012 -4.67874 -1 0 0  255 255 255 255
-16 13.9136 -11.8241 -1 0 0  255 255 255 255
-16 17.4479 12.6467 -1 0 0  255 255 255 255
-16 7.57179 14.7779 -1 0 0  255 255 255 255
-16 12.0739 -11.1774 -1 0 0  255 255 255 255
-16 25.0519 9.23573 -1 0 0  255 255 255 255
-16 25.0519 -9.23574 -1 0 0  255 255 255 255
-16 6.32516 -14.6517 -1 0 0  255 255 255 255
-16 16.9438 -13.8399 -1 0 0  255 255 255 255
-16 31.0058 -8.03886 -1 0 0  255 255 255 255
-16 31.0058 8.03886 -1 0 0  255 255 255 255
-16 30.7863 12.2859 -1 0 0  255 255 255 255
-16 30.787 -12.2916 -1 0 0  255 255 255 255
-16 18.6683 13.1924 -1 0 0  255 255 255 255
-16 5.75047 2.80719 -1 0 0  255 255 255 255
-16 4.31455 -7.02034 -1 0 0  255 255 255 255
-16 2.78052 9.65517 -1 0 0  255 255 255 255
-16 6.72519 -14.7396 -1 0 0  255 255 255 255
-16 20.2948 13.1815 -1 0 0  255 255 255 255
-16 15.3728 12.9722 -1 0 0  255 255 255 255
-16 14.2444 6.0708 -1 0 0  255 255 255 255
-16 7.4436 7.66294 -1 0 0  255 255 255 255
-16 21.2759 -15.2174 -1 0 0  255 255 255 255
-16 11.7667 -1.84469 -1 0 0  255 255 255 255
-16 20.28 -13.1815 -1 0 0  255 255 255 255
-16 21.28 15.2236 -1 0 0  255 255 255 255
-16 24.322 7.78634 -1 0 0  255 255 255 255
-16 24.3216 -7.78672 -1 0 0  255 255 255 255
-16 30.6136 13.6244 -1 0 0  255 255 255 255
-16 6.59589 -5.75753 -1 0 0  255 255 255 255
-16 5.81433 3.97934 -1 0 0  255 255 255 255
-16 12.1631 -15.6989 -1 0 0  255 255 255 255
-16 15.0605 -5.49808 -1 0 0  255 255 255 255
-16 20.3713 -12.499 -1 0 0  255 255 255 255
-16 4.83167 -4.649 -1 0 0  255 255 255 255
-16 6.3356 -10.9165 -1 0 0  255 255 255 255
-16 7.5296 -5.20704 -1 0 0  255 255 255 255
-16 13.6116 -7.36649 -1 0 0  255 255 255 255
-16 27.8475 10.9545 -1 0 0  255 255 255 255
-16 27.8475 -10.9545 -1 0 0  255 255 255 255
-16 27.9164 -1.96605 -1 0 0  255 255 255 255
-16 27.8956 1.98605 -1 0 0  255 255 255 255
-16 4.11228 -15.6103 -1 0 0  255 255 255 255
-16 8.73499 -7.18695 -1 0 0  255 255 255 255
-16 22.144 -8.3512 -1 0 0  255 255 255 255
-16 7.84877 -13.8649 -1 0 0  255 255 255 255
-16 22.1536 8.34882 -1 0 0  255 255 255 255
-16 19.4086 -3.4726 -1 0 0  255 255 255 255
-16 19.382 7.03019 -1 0 0  255 255 255 255
-16 31.7188 -0.555369 -1 0 0  255 255 255 255
-16 20.5162 -3.86696 -1 0 0  255 255 255 255
-16 10.5111 -0.95858 -1 0 0  255 255 255 255
-16 29.3498 2.28822 -1 0 0  255 255 255 255
-16 20.4561 -11.6826 -1 0 0  255 255 255 255
-16 14.3589 4.58487 -1 0 0  255 255 255 255
-16 17.7883 -9.22398 -1 0 0  255 255 255 255
-16 20.3011 -9.66386 -1 0 0  255 255 255 255
-16 5.26239 -15.2511 -1 0 0  255 255 255 255
-16 7.0073 3.04469 -1 0 0  255 255 255 255
-16 27.5378 0.669485 -1 0 0  255 255 255 255
-16 9.74626 -15.2092 -1 0 0  255 255 255 255
-16 18.314 4.67222 -1 0 0  255 255 255 255
-16 12.1413 15.7077 -1 0 0  255 255 255 255
-16 9.74827 -7.87251 -1 0 0  255 255 255 255
-16 19.1095 -6.35793 -1 0 0  255 255 255 255
-16 8.28468 10.3551 -1 0 0  255 255 255 255
-16 20.7876 -13.748 -1 0 0  255 255 255 255
-16 26.7299 -0.275051 -1 0 0  255 255 255 255
-16 18.6699 -8.67821 -1 0 0  255 255 255 255
-16 30.432 14.8147 -1 0 0  255 255 255 255
-16 20.4227 -2.00641 -1 0 0  255 255 255 255
-16 20.4256 2.00496 -1 0 0  255 255 255 255
-16 27.2654 -2.19562 -1 0 0  255 255 255 255
-16 27.2628 2.17168 -1 0 0  255 255 255 255
-16 17.7519 10.1786 -1 0 0  255 255 255 255
-16 13.7453 14.8577 -1 0 0  255 255 255 255
-16 17.6453 6.68795 -1 0 0  255 255 255 255
-16 10.7202 -2.97551 -1 0 0  255 255 255 255
-16 9.04235 -10.8588 -1 0 0  255 255 255 255
-16 23.4863 -11.1948 -1 0 0  255 255 255 255
-16 23.4825 11.1921 -1 0 0  255 255 255 255
-16 20.5209 3.86846 -1 0 0  255 255 255 255
-16 27.7551 -0.773139 -1 0 0  255 255 255 255
-16 31.6341 9.55244 -1 0 0  255 255 255 255
-16 31.6341 -9.55244 -1 0 0  255 255 255 255
-14 26.6272 10.685 1 0 0  255 255 255 255
-14 26.7138 -10.7054 1 0 0  255 255 255 255
-14 7.1185 11.3396 1 0 0  255 255 255 255
-14 7.15734 -11.345 1 0 0  255 255 255 255
-14 11.2847 11.6706 1 0 0  255 255 255 255
-14 20.9743 11.7123 1 0 0  255 255 255 255
-14 22.5195 -11.6652 1 0 0  255 255 255 255
-14 27.6922 6.45521 1 0 0  255 255 255 255
-14 27.5698 -6.58529 1 0 0  255 255 255 255
-14 11.3296 -11.8117 1 0 0  255 255 255 255
-14 28.4353 3.05454 1 0 0  255 255 255 255
-14 28.4353 -3.05454 1 0 0  255 255 255 255
-14 19.0928 -12.5259 1 0 0  255 255 255 255
-14 5.84535 8.25433 1 0 0  255 255 255 255
-14 14.2952 12.7766 1 0 0  255 255 255 255
-14 5.81021 -8.1529 1 0 0  255 255 255 255
-14 24.0865 12.6239 1 0 0  255 255 255 255
-14 17.5192 12.8299 1 0 0  255 255 255 255
-14 14.3881 -12.7957 1 0 0  255 255 255 255
-14 5.53747 4.95668 1 0 0  255 255 255 255
-14 28.8995 12.8995 1 0 0  255 255 255 255
-14 28.8536 -12.8968 1 0 0  255 255 255 255
-14 29.0147 -0.000146 1 0 0  255 255 255 255
-14 5.59229 -4.28709 1 0 0  255 255 255 255
-14 25.1587 -13.0706 1 0 0  255 255 255 255
-14 29.1063 9.08945 1 0 0  255 255 255 255
-14 29.1063 -9.08945 1 0 0  255 255 255 255
-14 23.9938 9.77831 1 0 0  255 255 255 255
-14 9.09483 13.2685 1 0 0  255 255 255 255
-14 25.5224 -8.14952 1 0 0  255 255 255 255
-14 5.25723 13.2402 1 0 0  255 255 255 255
-14 26.0459 -4.36096 1 0 0  255 255 255 255
-14 26.0577 4.37385 1 0 0  255 255 255 255
-14 20.4294 -10.033 1 0 0  255 255 255 255
-14 5.29579 -13.2919 1 0 0  255 255 255 255
-14 9.02939 -13.261 1 0 0  255 255 255 255
-14 9.32929 10.0075 1 0 0  255 255 255 255
-14 9.43001 -10.0056 1 0 0  255 255 255 255
-14 25.4092 7.78741 1 0 0  255 255 255 255
-14 26.4397 13.506 1 0 0  255 255 255 255
-14 12.1693 9.65238 1 0 0  255 255 255 255
-14 16.7908 -13.4972 1 0 0  255 255 255 255
-14 4.98082 10.4562 1 0 0  255 255 255 255
-14 4.97082 -10.4661 1 0 0  255 255 255 255
-14 23.4613 -9.49716 1 0 0  255 255 255 255
-14 19.9873 9.49397 1 0 0  255 255 255 255
-14 12.0878 -9.52732 1 0 0  255 255 255 255
-14 12.1344 13.7628 1 0 0  255 255 255 255
-14 29.5693 5.10962 1 0 0  255 255 255 255
-14 29.5693 -5.10962 1 0 0  255 255 255 255
-14 21.2027 -13.5323 1 0 0  255 255 255 255
-14 4.75899 2.76183 1 0 0  255 255 255 255
-14 19.5805 13.6674 1 0 0  255 255 255 255
-14 21.9933 13.7347 1 0 0  255 255 255 255
-14 12.3776 -13.7763 1 0 0  255 255 255 255
-14 4.57485 -6.43339 1 0 0  255 255 255 255
-14 4.68364 -2.29933 1 0 0  255 255 255 255
-14 7.8227 8.5812 1 0 0  255 255 255 255
-14 13.6137 10.9417 1 0 0  255 255 255 255
-14 27.0426 -13.9343 1 0 0  255 255 255 255
-14 29.9734 11.1033 1 0 0  255 255 255 255
-14 29.9744 -11.1035 1 0 0  255 255 255 255
-14 18.4775 11.0245 1 0 0  255 255 255 255
-14 29.9778 -7.23172 1 0 0  255 255 255 255
-14 29.9778 7.23172 1 0 0  255 255 255 255
-14 23.2349 -13.9817 1 0 0  255 255 255 255
-14 4.52809 6.71847 1 0 0  255 255 255 255
-14 7.19405 14.0247 1 0 0  255 255 255 255
-14 6.66714 6.51833 1 0 0  255 255 255 255
-14 7.88425 -8.62146 1 0 0  255 255 255 255
-14 15.8151 13.9778 1 0 0  255 255 255 255
-14 21.8959 10.024 1 0 0  255 255 255 255
-14 13.4879 -10.9664 1 0 0  255 255 255 255
-14 24.6624 -11.1398 1 0 0  255 255 255 255
-14 15.9012 11.7522 1 0 0  255 255 255 255
-14 7.18051 -13.9726 1 0 0  255 255 255 255
-14 30.0597 -1.76025 1 0 0  255 255 255 255
-14 30.0597 1.76025 1 0 0  255 255 255 255
-14 7.07527 3.69746 1 0 0  255 255 255 255
-14 17.374 -11.6954 1 0 0  255 255 255 255
-14 27.2064 8.76479 1 0 0  255 255 255 255
-14 25.4087 -6.28864 1 0 0  255 255 255 255
-14 6.6764 -6.5154 1 0 0  255 255 255 255
-14 27.5299 -1.36424 1 0 0  255 255 255 255
-14 27.53 1.36404 1 0 0  255 255 255 255
-14 4.37414 0.946413 1 0 0  255 255 255 255
-14 27.2673 -8.91351 1 0 0  255 255 255 255
-14 7.26164 -3.5357 1 0 0  255 255 255 255
-14 18.4443 -14.238 1 0 0  255 255 255 255
-14 10.6058 -14.2497 1 0 0  255 255 255 255
-14 29.9526 14.1346 1 0 0  255 255 255 255
-14 30.0219 -14.1624 1 0 0  255 255 255 255
-14 27.8733 4.80761 1 0 0  255 255 255 255
-14 27.8196 -4.74886 1 0 0  255 255 255 255
-14 20.752 -11.8554 1 0 0  255 255 255 255
-14 25.3073 5.99774 1 0 0  255 255 255 255
-14 10.5548 14.2619 1 0 0  255 255 255 255
-14 18.656 -10.4623 1 0 0  255 255 255 255
-14 22.6497 11.6273 1 0 0  255 255 255 255
-14 4.2332 8.88647 1 0 0  255 255 255 255
-14 24.8262 14.2362 1 0 0  255 255 255 255
-14 25.0465 11.2428 1 0 0  255 255 255 255
-14 9.56889 11.622 1 0 0  255 255 255 255
-14 30.247 3.45234 1 0 0  255 255 255 255
-14 30.247 -3.45234 1 0 0  255 255 255 255
-14 6.64028 9.68737 1 0 0  255 255 255 255
-14 26.4203 -2.67184 1 0 0  255 255 255 255
-14 26.4203 2.67184 1 0 0  255 255 255 255
-14 24.4877 -3.50428 1 0 0  255 255 255 255
-14 24.5225 3.53777 1 0 0  255 255 255 255
-14 4.23289 -8.88243 1 0 0  255 255 255 255
-14 19.5153 -8.54068 1 0 0  255 255 255 255
-14 15.2867 -14.3225 1 0 0  255 255 255 255
-14 15.5466 -11.5126 1 0 0  255 255 255 255
-14 13.748 14.3499 1 0 0  255 255 255 255
-14 13.8165 5.21975 1 0 0  255 255 255 255
-14 27.9316 14.2998 1 0 0  255 255 255 255
-14 18.1713 5.21658 1 0 0  255 255 255 255
-14 9.63532 -11.6917 1 0 0  255 255 255 255
-14 18.1 -5.23168 1 0 0  255 255 255 255
-14 10.8125 2.13432 1 0 0  255 255 255 255
-14 10.6836 9.09799 1 0 0  255 255 255 255
-14 21.8108 -9.16057 1 0 0  255 255 255 255
-14 4.11218 11.9221 1 0 0  255 255 255 255
-14 10.7591 -2.17655 1 0 0  255 255 255 255
-14 28.2245 11.3778 1 0 0  255 255 255 255
-14 28.1993 -11.4201 1 0 0  255 255 255 255
-14 25.5822 9.46964 1 0 0  255 255 255 255
-14 13.8361 -5.22263 1 0 0  255 255 255 255
-14 6.48809 -9.82342 1 0 0  255 255 255 255
-14 21.2757 -2.1463 1 0 0  255 255 255 255
-14 21.2757 2.1463 1 0 0  255 255 255 255
-14 4.20468 -11.9265 1 0 0  255 255 255 255
-14 18.062 14.3787 1 0 0  255 255 255 255
-14 12.7325 12.2378 1 0 0  255 255 255 255
-14 4.13055 -0.717277 1 0 0  255 255 255 255
-14 12.6513 8.10419 1 0 0  255 255 255 255
-14 26.5378 -12.34 1 0 0  255 255 255 255
-14 4.11312 4.15593 1 0 0  255 255 255 255
-14 4.12235 -14.4121 1 0 0  255 255 255 255
-14 4.06851 14.3471 1 0 0  255 255 255 255
-14 30.4463 12.6278 1 0 0  255 255 255 255
-14 30.4463 -12.6278 1 0 0  255 255 255 255
-14 4.18378 -4.88642 1 0 0  255 255 255 255
-14 23.926 8.19367 1 0 0  255 255 255 255
-14 28.5581 -14.4147 1 0 0  255 255 255 255
-14 5.66445 11.7814 1 0 0  255 255 255 255
-14 30.475 -0.031788 1 0 0  255 255 255 255
-14 25.4937 -9.75085 1 0 0  255 255 255 255
-14 10.6473 -9.00458 1 0 0  255 255 255 255
-14 5.70367 -11.8341 1 0 0  255 255 255 255
-14 19.3645 8.11709 1 0 0  255 255 255 255
-14 23.3311 14.4707 1 0 0  255 255 255 255
-14 13.7411 -14.4852 1 0 0  255 255 255 255
-14 7.15799 5.19279 1 0 0  255 255 255 255
-14 12.5215 -8.12501 1 0 0  255 255 255 255
-14 12.7833 -12.3233 1 0 0  255 255 255 255
-14 19.384 12.2633 1 0 0  255 255 255 255
-14 23.9822 -8.07682 1 0 0  255 255 255 255
-14 25.7463 -14.5664 1 0 0  255 255 255 255
-14 30.5042 -9.73967 1 0 0  255 255 255 255
-14 30.496 9.69042 1 0 0  255 255 255 255
-14 20.0148 -14.5716 1 0 0  255 255 255 255
-14 10.5522 12.8583 1 0 0  255 255 255 255
-14 7.10442 -5.09992 1 0 0  255 255 255 255
-14 6.06072 -2.71379 1 0 0  255 255 255 255
-14 7.98055 12.6527 1 0 0  255 255 255 255
-14 27.0244 12.1124 1 0 0  255 255 255 255
-14 10.8262 -10.4392 1 0 0  255 255 255 255
-14 23.8109 -12.5967 1 0 0  255 255 255 255
-14 28.684 7.92402 1 0 0  255 255 255 255
-14 28.6996 -7.94785 1 0 0  255 255 255 255
-14 20.7098 14.459 1 0 0  255 255 255 255
-14 8.45237 14.5461 1 0 0  255 255 255 255
-14 7.95765 -10.0336 1 0 0  255 255 255 255
-14 7.89508 -12.7774 1 0 0  255 255 255 255
-14 5.85695 14.5637 1 0 0  255 255 255 255
-14 17.1011 11.0442 1 0 0  255 255 255 255
-14 5.8868 -14.6286 1 0 0  255 255 255 255
-14 7.9481 10.191 1 0 0  255 255 255 255
-14 8.42492 -14.4811 1 0 0  255 255 255 255
-14 22.6501 8.73094 1 0 0  255 255 255 255
-14 10.5873 10.4534 1 0 0  255 255 255 255
-14 21.6971 -10.5773 1 0 0  255 255 255 255
-14 14.8776 10.9279 1 0 0  255 255 255 255
-14 3.89229 -7.52344 1 0 0  255 255 255 255
-14 27.9854 9.95837 1 0 0  255 255 255 255
-14 26.7536 -7.57465 1 0 0  255 255 255 255
-14 9.22475 8.61502 1 0 0  255 255 255 255
-14 3.93419 -3.47997 1 0 0  255 255 255 255
-14 26.635 5.65839 1 0 0  255 255 255 255
-14 7.70939 7.26012 1 0 0  255 255 255 255
-14 26.6731 -5.62872 1 0 0  255 255 255 255
-14 12.3205 10.8569 1 0 0  255 255 255 255
-14 21.1686 8.75973 1 0 0  255 255 255 255
-14 25.4198 12.5399 1 0 0  255 255 255 255
-14 27.2931 -0.000704 1 0 0  255 255 255 255
-14 8.35367 3.18796 1 0 0  255 255 255 255
-14 3.84455 5.57558 1 0 0  255 255 255 255
-14 10.4059 -12.8327 1 0 0  255 255 255 255
-14 24.8282 -5.02108 1 0 0  255 255 255 255
-14 28.019 -9.97531 1 0 0  255 255 255 255
-14 30.6283 -6.0783 1 0 0  255 255 255 255
-14 30.6283 6.0783 1 0 0  255 255 255 255
-14 6.16705 2.55678 1 0 0  255 255 255 255
-14 22.0193 -14.6555 1 0 0  255 255 255 255
-14 13.4856 9.74844 1 0 0  255 255 255 255
-14 9.22114 -8.66273 1 0 0  255 255 255 255
-14 30.6161 -8.20865 1 0 0  255 255 255 255
-14 30.6161 8.20865 1 0 0  255 255 255 255
-14 24.2097 -14.6189 1 0 0  255 255 255 255
-14 19.8503 10.7936 1 0 0  255 255 255 255
-14 20.9098 12.994 1 0 0  255 255 255 255
-14 26.8072 7.54948 1 0 0  255 255 255 255
-14 7.67078 -7.40145 1 0 0  255 255 255 255
-14 18.6397 9.67378 1 0 0  255 255 255 255
-14 6.48083 12.8809 1 0 0  255 255 255 255
-14 12.2067 -10.8179 1 0 0  255 255 255 255
-14 22.2701 -12.998 1 0 0  255 255 255 255
-14 28.9987 6.26303 1 0 0  255 255 255 255
-14 28.9987 -6.26303 1 0 0  255 255 255 255
-14 24.6737 4.83573 1 0 0  255 255 255 255
-14 17.292 -14.6999 1 0 0  255 255 255 255
-14 8.5005 -3.10407 1 0 0  255 255 255 255
-14 13.3367 -9.67563 1 0 0  255 255 255 255
-14 23.4727 -10.8148 1 0 0  255 255 255 255
-14 6.4022 -12.7434 1 0 0  255 255 255 255
-14 15.7413 -12.7858 1 0 0  255 255 255 255
-14 26.0786 14.6889 1 0 0  255 255 255 255
-14 13.2759 6.30212 1 0 0  255 255 255 255
-14 5.71989 -5.52189 1 0 0  255 255 255 255
-14 9.5577 2.69997 1 0 0  255 255 255 255
-14 23.3458 -3.02161 1 0 0  255 255 255 255
-14 23.3458 3.02161 1 0 0  255 255 255 255
-14 3.76808 2.02007 1 0 0  255 255 255 255
-14 3.62033 7.7701 1 0 0  255 255 255 255
-14 17.8315 -12.7263 1 0 0  255 255 255 255
-14 24.5223 7.04217 1 0 0  255 255 255 255
-14 27.2893 3.59934 1 0 0  255 255 255 255
-14 27.2757 -3.58593 1 0 0  255 255 255 255
-14 16.9642 14.6653 1 0 0  255 255 255 255
-14 28.9078 1.21517 1 0 0  255 255 255 255
-14 28.9081 -1.21528 1 0 0  255 255 255 255
-14 23.7543 10.9685 1 0 0  255 255 255 255
-14 19.0474 -7.3655 1 0 0  255 255 255 255
-14 3.73037 13.1778 1 0 0  255 255 255 255
-14 18.8615 6.92163 1 0 0  255 255 255 255
-14 3.74375 -13.1917 1 0 0  255 255 255 255
-14 13.2767 -6.66501 1 0 0  255 255 255 255
-14 14.9258 14.7114 1 0 0  255 255 255 255
-14 3.70068 10.029 1 0 0  255 255 255 255
-14 8.4309 -11.3145 1 0 0  255 255 255 255
-14 19.6366 -11.3365 1 0 0  255 255 255 255
-14 8.35123 11.3926 1 0 0  255 255 255 255
-14 15.5039 12.8586 1 0 0  255 255 255 255
-14 5.56688 3.69586 1 0 0  255 255 255 255
-14 5.43228 9.38956 1 0 0  255 255 255 255
-14 3.73948 -10.0599 1 0 0  255 255 255 255
-14 30.7667 4.58114 1 0 0  255 255 255 255
-14 30.7667 -4.58114 1 0 0  255 255 255 255
-14 11.6324 14.8161 1 0 0  255 255 255 255
-14 27.7595 -12.8183 1 0 0  255 255 255 255
-14 5.64282 7.10151 1 0 0  255 255 255 255
-14 5.35179 1.54406 1 0 0  255 255 255 255
-14 11.7875 2.87469 1 0 0  255 255 255 255
-14 10.9261 0.958407 1 0 0  255 255 255 255
-14 10.9023 -0.937302 1 0 0  255 255 255 255
-14 16.9421 5.1831 1 0 0  255 255 255 255
-14 13.049 4.2816 1 0 0  255 255 255 255
-14 11.6953 -14.7858 1 0 0  255 255 255 255
-14 14.9484 5.10182 1 0 0  255 255 255 255
-14 19.8998 -13.3119 1 0 0  255 255 255 255
-14 18.9543 -4.35357 1 0 0  255 255 255 255
-14 18.9501 4.30295 1 0 0  255 255 255 255
-14 29.0848 14.8114 1 0 0  255 255 255 255
-14 9.65903 -2.71154 1 0 0  255 255 255 255
-14 20.2782 -2.99609 1 0 0  255 255 255 255
-14 20.2784 2.99547 1 0 0  255 255 255 255
-14 22.691 -8.42912 1 0 0  255 255 255 255
-14 22.8266 12.8236 1 0 0  255 255 255 255
-14 11.7137 -2.92586 1 0 0  255 255 255 255
-14 17.0365 -5.14142 1 0 0  255 255 255 255
-14 21.0463 -0.972066 1 0 0  255 255 255 255
-14 21.0463 0.972066 1 0 0  255 255 255 255
-14 24.4776 -6.94587 1 0 0  255 255 255 255
-14 20.7508 -8.57026 1 0 0  255 255 255 255
-14 15.0731 -5.201 1 0 0  255 255 255 255
-14 5.47007 -9.43366 1 0 0  255 255 255 255
-14 11.6741 12.7015 1 0 0  255 255 255 255
-14 12.9773 -4.26639 1 0 0  255 255 255 255
-14 13.2526 13.2514 1 0 0  255 255 255 255
-14 5.24079 -1.23062 1 0 0  255 255 255 255
-14 28.861 4.26492 1 0 0  255 255 255 255
-14 28.8664 -4.25275 1 0 0  255 255 255 255
-14 14.6557 -10.7781 1 0 0  255 255 255 255
-14 19.2151 14.8136 1 0 0  255 255 255 255
-14 27.7437 13.0954 1 0 0  255 255 255 255
-14 9.64483 -14.7935 1 0 0  255 255 255 255
-14 11.5548 8.38128 1 0 0  255 255 255 255
-14 5.63073 -7.08767 1 0 0  255 255 255 255
-14 18.7336 13.001 1 0 0  255 255 255 255
-14 11.459 -12.8948 1 0 0  255 255 255 255
-14 31.0246 13.7819 1 0 0  255 255 255 255
-14 31.0119 -13.689 1 0 0  255 255 255 255
-14 6.00897 10.7144 1 0 0  255 255 255 255
-14 22.0612 14.8747 1 0 0  255 255 255 255
-14 18.4184 -6.45048 1 0 0  255 255 255 255
-14 20.8143 10.2527 1 0 0  255 255 255 255
-14 3.63417 -1.82549 1 0 0  255 255 255 255
-14 25.4135 -11.968 1 0 0  255 255 255 255
-14 24.5185 -9.1489 1 0 0  255 255 255 255
-14 30.8189 -2.47498 1 0 0  255 255 255 255
-14 30.8189 2.47498 1 0 0  255 255 255 255
-14 9.57537 14.8282 1 0 0  255 255 255 255
-14 3.64113 -5.91557 1 0 0  255 255 255 255
-14 6.95331 7.98907 1 0 0  255 255 255 255
-14 18.7263 -9.28965 1 0 0  255 255 255 255
-14 22.2189 2.94047 1 0 0  255 255 255 255
-14 22.2189 -2.94047 1 0 0  255 255 255 255
-14 12.7601 14.8925 1 0 0  255 255 255 255
-14 29.0607 10.2099 1 0 0  255 255 255 255
-14 21.7371 12.4406 1 0 0  255 255 255 255
-14 3.62493 3.14766 1 0 0  255 255 255 255
-14 30.8885 -1.05575 1 0 0  255 255 255 255
-14 30.815 1.01729 1 0 0  255 255 255 255
-14 30.9422 11.5857 1 0 0  255 255 255 255
-14 30.9422 -11.5857 1 0 0  255 255 255 255
-14 4.86061 7.78751 1 0 0  255 255 255 255
-14 4.97034 0.022933 1 0 0  255 255 255 255
-14 11.4012 -8.3291 1 0 0  255 255 255 255
-14 25.2491 -2.7303 1 0 0  255 255 255 255
-14 25.2491 2.7303 1 0 0  255 255 255 255
-14 5.6714 6.12604 1 0 0  255 255 255 255
-14 13.4553 -13.3925 1 0 0  255 255 255 255
-14 14.9129 13.5345 1 0 0  255 255 255 255
-14 5.89831 -10.8383 1 0 0  255 255 255 255
-14 27.4927 2.51648 1 0 0  255 255 255 255
-14 27.4927 -2.51648 1 0 0  255 255 255 255
-14 14.3023 11.7068 1 0 0  255 255 255 255
-14 29.098 -10.217 1 0 0  255 255 255 255
-14 18.3873 -11.5864 1 0 0  255 255 255 255
-14 16.193 -14.906 1 0 0  255 255 255 255
-14 27.5026 -14.9747 1 0 0  255 255 255 255
-14 29.416 -15.0296 1 0 0  255 255 255 255
-14 26.0993 11.5673 1 0 0  255 255 255 255
-14 17.4786 -10.4722 1 0 0  255 255 255 255
-14 4.87923 -3.38217 1 0 0  255 255 255 255
-14 20.9547 -14.9336 1 0 0  255 255 255 255
-14 26.5085 -1.59367 1 0 0  255 255 255 255
-14 26.5085 1.59367 1 0 0  255 255 255 255
-14 8.54817 7.7505 1 0 0  255 255 255 255
-14 29.4697 -2.70107 1 0 0  255 255 255 255
-14 29.4697 2.70107 1 0 0  255 255 255 255
-14 26.1551 6.63983 1 0 0  255 255 255 255
-14 23.0656 10.279 1 0 0  255 255 255 255
-14 16.4986 -10.8136 1 0 0  255 255 255 255
-14 18.2888 12.0793 1 0 0  255 255 255 255
-14 21.5464 10.958 1 0 0  255 255 255 255
-14 3.56664 0.175369 1 0 0  255 255 255 255
-14 12.8166 -15.0132 1 0 0  255 255 255 255
-14 29.1406 11.9043 1 0 0  255 255 255 255
-14 29.1463 -11.8875 1 0 0  255 255 255 255
-14 14.2027 -11.6856 1 0 0  255 255 255 255
-14 6.98178 -8.11606 1 0 0  255 255 255 255
-14 3.51977 11.0869 1 0 0  255 255 255 255
-14 16.4871 13.1541 1 0 0  255 255 255 255
-14 7.57779 6.0653 1 0 0  255 255 255 255
-14 26.1367 -13.3137 1 0 0  255 255 255 255
-14 14.2915 10.1842 1 0 0  255 255 255 255
-14 3.51926 -11.0906 1 0 0  255 255 255 255
-14 27.0957 14.9846 1 0 0  255 255 255 255
-14 16.5869 -12.5384 1 0 0  255 255 255 255
-14 24.212 -10.1256 1 0 0  255 255 255 255
-14 8.77481 12.1966 1 0 0  255 255 255 255
-14 29.8059 -0.674813 1 0 0  255 255 255 255
-14 29.8059 0.674813 1 0 0  255 255 255 255
-14 13.3226 8.75604 1 0 0  255 255 255 255
-14 7.78368 4.41211 1 0 0  255 255 255 255
-14 17.7217 10.2598 1 0 0  255 255 255 255
-14 15.8299 10.7332 1 0 0  255 255 255 255
-14 7.4979 14.954 1 0 0  255 255 255 255
-14 24.6522 8.994 1 0 0  255 255 255 255
-14 8.58024 9.36345 1 0 0  255 255 255 255
-14 30.9847 -7.16327 1 0 0  255 255 255 255
-14 30.9847 7.16327 1 0 0  255 255 255 255
-14 4.82403 -8.01093 1 0 0  255 255 255 255
-14 23.1633 -14.9869 1 0 0  255 255 255 255
-14 26.5253 -9.67398 1 0 0  255 255 255 255
-14 29.6647 -8.14741 1 0 0  255 255 255 255
-14 29.6647 8.14741 1 0 0  255 255 255 255
-14 24.1583 -13.6519 1 0 0  255 255 255 255
-14 6.81756 -14.9578 1 0 0  255 255 255 255
-14 22.5135 -9.92987 1 0 0  255 255 255 255
-14 3.44476 6.43291 1 0 0  255 255 255 255
-14 11.5518 10.2412 1 0 0  255 255 255 255
-14 16.9632 11.9443 1 0 0  255 255 255 255
-14 6.45627 4.38106 1 0 0  255 255 255 255
-14 26.6142 9.67574 1 0 0  255 255 255 255
-14 26.311 8.51741 1 0 0  255 255 255 255
-14 8.76555 -12.2753 1 0 0  255 255 255 255
-14 27.2972 -11.5322 1 0 0  255 255 255 255
-14 25.7944 -7.22858 1 0 0  255 255 255 255
-14 8.13943 13.6232 1 0 0  255 255 255 255
-14 30.8977 10.6552 1 0 0  255 255 255 255
-14 30.8703 -10.6907 1 0 0  255 255 255 255
-14 8.5559 -7.91186 1 0 0  255 255 255 255
-14 25.6267 -10.7436 1 0 0  255 255 255 255
-14 4.9299 15.0004 1 0 0  255 255 255 255
-14 25.7125 10.4611 1 0 0  255 255 255 255
-14 28.1782 8.66516 1 0 0  255 255 255 255
-14 15.9185 15.0462 1 0 0  255 255 255 255
-14 23.9938 13.6982 1 0 0  255 255 255 255
-14 20.376 8.19321 1 0 0  255 255 255 255
-14 8.0822 -13.6258 1 0 0  255 255 255 255
-14 4.96732 -15.0368 1 0 0  255 255 255 255
-14 7.4704 2.7415 1 0 0  255 255 255 255
-14 17.2779 13.7986 1 0 0  255 255 255 255
-14 7.53039 -5.97648 1 0 0  255 255 255 255
-14 12.7413 7.10667 1 0 0  255 255 255 255
-14 21.3312 -12.6487 1 0 0  255 255 255 255
-14 11.2139 13.5342 1 0 0  255 255 255 255
-14 24.1804 14.9683 1 0 0  255 255 255 255
-14 28.7269 -5.32014 1 0 0  255 255 255 255
-14 28.7253 5.32092 1 0 0  255 255 255 255
-14 18.1937 6.25011 1 0 0  255 255 255 255
-14 26.5733 -15.0258 1 0 0  255 255 255 255
-14 19.0502 -15.0207 1 0 0  255 255 255 255
-14 28.1636 -8.61943 1 0 0  255 255 255 255
-14 29.9369 15.0674 1 0 0  255 255 255 255
-14 28.137 0.427526 1 0 0  255 255 255 255
-14 28.1379 -0.429675 1 0 0  255 255 255 255
-14 15.9861 4.90285 1 0 0  255 255 255 255
-14 14.59 -14.9549 1 0 0  255 255 255 255
-14 7.83224 -4.44239 1 0 0  255 255 255 255
-14 24.459 -6.0074 1 0 0  255 255 255 255
-14 12.3521 3.63004 1 0 0  255 255 255 255
-14 29.1743 13.8029 1 0 0  255 255 255 255
-14 15.9986 -4.90589 1 0 0  255 255 255 255
-14 4.84189 5.65787 1 0 0  255 255 255 255
-14 26.5615 -6.60796 1 0 0  255 255 255 255
-14 12.4359 -3.56288 1 0 0  255 255 255 255
-14 14.377 -13.9111 1 0 0  255 255 255 255
-14 25.7429 -5.31963 1 0 0  255 255 255 255
-14 19.4713 -3.4576 1 0 0  255 255 255 255
-14 21.0489 -0.005608 1 0 0  255 255 255 255
-14 19.4718 3.45425 1 0 0  255 255 255 255
-14 6.64708 -4.28727 1 0 0  255 255 255 255
-14 11.0357 -0.00487 1 0 0  255 255 255 255
-14 25.4759 13.4771 1 0 0  255 255 255 255
-14 7.07359 -2.6131 1 0 0  255 255 255 255
-14 10.0972 8.35606 1 0 0  255 255 255 255
-14 8.56471 -9.41004 1 0 0  255 255 255 255
-14 26.2883 -8.75912 1 0 0  255 255 255 255
-14 23.9111 -11.6385 1 0 0  255 255 255 255
-14 25.7995 -3.4903 1 0 0  255 255 255 255
-14 25.8254 3.46336 1 0 0  255 255 255 255
-14 18.6563 8.74707 1 0 0  255 255 255 255
-14 29.1626 -13.7927 1 0 0  255 255 255 255
-14 19.5028 -9.94974 1 0 0  255 255 255 255
-14 3.38108 1.12115 1 0 0  255 255 255 255
-14 3.47458 -8.3615 1 0 0  255 255 255 255
-14 24.7767 10.2918 1 0 0  255 255 255 255
-14 30.2648 -15.0484 1 0 0  255 255 255 255
-14 30.8075 14.5535 1 0 0  255 255 255 255
-14 27.6478 -7.8884 1 0 0  255 255 255 255
-14 28.3649 2.10976 1 0 0  255 255 255 255
-14 28.3649 -2.10976 1 0 0  255 255 255 255
-14 10.5213 -11.3219 1 0 0  255 255 255 255
-14 3.4051 -15.0789 1 0 0  255 255 255 255
-14 7.52911 9.45121 1 0 0  255 255 255 255
-14 3.40535 15.0795 1 0 0  255 255 255 255
-14 28.1765 12.2918 1 0 0  255 255 255 255
-14 19.0615 -13.3309 1 0 0  255 255 255 255
-14 10.4247 11.3396 1 0 0  255 255 255 255
-14 15.0793 12.0907 1 0 0  255 255 255 255
-14 6.55681 8.80678 1 0 0  255 255 255 255
-14 9.79413 10.7297 1 0 0  255 255 255 255
-14 21.6305 -11.5689 1 0 0  255 255 255 255
-14 20.8232 -10.9345 1 0 0  255 255 255 255
-14 19.993 -12.3637 1 0 0  255 255 255 255
-14 27.6628 7.88781 1 0 0  255 255 255 255
-14 24.1703 -4.37682 1 0 0  255 255 255 255
-14 28.2495 -13.5567 1 0 0  255 255 255 255
-14 9.9523 13.5684 1 0 0  255 255 255 255
-14 17.6679 -13.7711 1 0 0  255 255 255 255
-14 13.3223 -8.74435 1 0 0  255 255 255 255
-14 6.08137 13.6659 1 0 0  255 255 255 255
-14 10.47 -15.1186 1 0 0  255 255 255 255
-14 12.6132 -7.20538 1 0 0  255 255 255 255
-14 3.37609 8.55216 1 0 0  255 255 255 255
-14 18.1296 -15.078 1 0 0  255 255 255 255
-14 24.3437 5.69965 1 0 0  255 255 255 255
-14 29.8279 13.2938 1 0 0  255 255 255 255
-14 23.5197 11.9553 1 0 0  255 255 255 255
-14 27.4438 5.66763 1 0 0  255 255 255 255
-14 4.91632 11.3165 1 0 0  255 255 255 255
-14 26.8713 4.77107 1 0 0  255 255 255 255
-14 9.81343 -13.8964 1 0 0  255 255 255 255
-14 5.02181 -5.00155 1 0 0  255 255 255 255
-14 13.594 12.2498 1 0 0  255 255 255 255
-14 4.98612 12.3873 1 0 0  255 255 255 255
-14 6.57371 15.1154 1 0 0  255 255 255 255
-14 6.24805 -13.7651 1 0 0  255 255 255 255
-14 3.40692 -4.24657 1 0 0  255 255 255 255
-14 5.95902 -1.80826 1 0 0  255 255 255 255
-14 3.36029 4.78183 1 0 0  255 255 255 255
-14 3.45428 -2.71549 1 0 0  255 255 255 255
-14 27.6282 -5.62538 1 0 0  255 255 255 255
-14 26.8427 -4.75938 1 0 0  255 255 255 255
-14 5.00083 -12.3625 1 0 0  255 255 255 255
-14 13.3677 7.68706 1 0 0  255 255 255 255
-14 4.96319 -11.4181 1 0 0  255 255 255 255
-14 25.2167 15.0912 1 0 0  255 255 255 255
-14 7.69695 -15.1441 1 0 0  255 255 255 255
-14 11.4756 -13.8621 1 0 0  255 255 255 255
-14 10.3932 2.95624 1 0 0  255 255 255 255
-14 9.81466 9.22766 1 0 0  255 255 255 255
-14 9.63323 12.521 1 0 0  255 255 255 255
-14 13.0574 -5.60955 1 0 0  255 255 255 255
-14 31.1322 -3.78232 1 0 0  255 255 255 255
-14 31.1322 3.78232 1 0 0  255 255 255 255
-14 25.8084 5.25151 1 0 0  255 255 255 255
-14 14.0569 -6.10406 1 0 0  255 255 255 255
-14 23.545 9.00628 1 0 0  255 255 255 255
-14 24.2014 2.68768 1 0 0  255 255 255 255
-14 24.2014 -2.68768 1 0 0  255 255 255 255
-14 26.236 -11.4834 1 0 0  255 255 255 255
-14 20.0828 15.1639 1 0 0  255 255 255 255
-14 24.6097 -12.3439 1 0 0  255 255 255 255
-14 9.22637 -10.886 1 0 0  255 255 255 255
-14 25.1775 -4.19162 1 0 0  255 255 255 255
-14 6.29726 5.40124 1 0 0  255 255 255 255
-14 10.8775 15.1655 1 0 0  255 255 255 255
-14 24.6337 12.1092 1 0 0  255 255 255 255
-14 3.32421 12.3491 1 0 0  255 255 255 255
-14 29.7526 4.2406 1 0 0  255 255 255 255
-14 29.7526 -4.2406 1 0 0  255 255 255 255
-14 6.45548 7.33773 1 0 0  255 255 255 255
-14 29.8343 -13.2651 1 0 0  255 255 255 255
-14 6.51758 -7.4425 1 0 0  255 255 255 255
-14 7.05151 10.4394 1 0 0  255 255 255 255
-14 26.6696 0.767302 1 0 0  255 255 255 255
-14 26.6696 -0.767302 1 0 0  255 255 255 255
-14 12.9015 11.384 1 0 0  255 255 255 255
-14 3.33018 -12.3494 1 0 0  255 255 255 255
-14 18.9191 5.72082 1 0 0  255 255 255 255
-14 22.5253 -10.8307 1 0 0  255 255 255 255
-14 23.9338 4.2135 1 0 0  255 255 255 255
-14 3.35803 -6.79143 1 0 0  255 255 255 255
-14 5.06625 -14.1461 1 0 0  255 255 255 255
-14 27.3346 11.3273 1 0 0  255 255 255 255
-14 17.676 15.1619 1 0 0  255 255 255 255
-14 27.6227 -10.7551 1 0 0  255 255 255 255
-14 4.96485 14.1548 1 0 0  255 255 255 255
-14 23.0955 7.98734 1 0 0  255 255 255 255
-14 18.7537 -8.19897 1 0 0  255 255 255 255
-14 15.9234 -13.7262 1 0 0  255 255 255 255
-14 7.41858 -9.44674 1 0 0  255 255 255 255
-14 12.9998 10.4007 1 0 0  255 255 255 255
-14 11.4511 1.61864 1 0 0  255 255 255 255
-14 12.1112 11.6661 1 0 0  255 255 255 255
-14 28.2071 15.1383 1 0 0  255 255 255 255
-14 4.58659 9.6189 1 0 0  255 255 255 255
-14 14.174 6.0622 1 0 0  255 255 255 255
-14 7.15297 -10.4431 1 0 0  255 255 255 255
-14 21.8679 8.34805 1 0 0  255 255 255 255
-14 3.37494 -9.22491 1 0 0  255 255 255 255
-14 25.194 4.11736 1 0 0  255 255 255 255
-14 4.5753 -4.20228 1 0 0  255 255 255 255
-14 22.8811 13.7077 1 0 0  255 255 255 255
-14 14.1592 -10.0063 1 0 0  255 255 255 255
-14 11.3983 -1.61867 1 0 0  255 255 255 255
-14 28.314 -12.2346 1 0 0  255 255 255 255
-14 30.8876 -14.4754 1 0 0  255 255 255 255
-14 20.1459 -9.22636 1 0 0  255 255 255 255
-14 19.8499 -7.68996 1 0 0  255 255 255 255
-14 6.55137 11.9697 1 0 0  255 255 255 255
-14 22.0988 -1.8762 1 0 0  255 255 255 255
-14 22.0988 1.8762 1 0 0  255 255 255 255
-14 12.9834 5.31598 1 0 0  255 255 255 255
-14 21.2647 -9.84643 1 0 0  255 255 255 255
-14 9.90055 1.95982 1 0 0  255 255 255 255
-14 6.56574 -11.9735 1 0 0  255 255 255 255
-14 14.1162 15.1345 1 0 0  255 255 255 255
-14 13.3382 -7.67218 1 0 0  255 255 255 255
-14 5.1057 8.6964 1 0 0  255 255 255 255
-14 10.225 -1.49127 1 0 0  255 255 255 255
-14 20.4315 -1.65647 1 0 0  255 255 255 255
-14 20.4315 1.65647 1 0 0  255 255 255 255
-14 6.45404 -8.89099 1 0 0  255 255 255 255
-14 27.17 14.012 1 0 0  255 255 255 255
-14 19.9487 12.8491 1 0 0  255 255 255 255
-14 15.5575 -10.6281 1 0 0  255 255 255 255
-14 8.7392 10.4924 1 0 0  255 255 255 255
-14 26.2761 12.6142 1 0 0  255 255 255 255
-14 31.1346 -9.03414 1 0 0  255 255 255 255
-14 31.1346 9.03414 1 0 0  255 255 255 255
-14 17.8639 -4.45668 1 0 0  255 255 255 255
-14 13.6118 -12.2645 1 0 0  255 255 255 255
-14 25.032 -15.1362 1 0 0  255 255 255 255
-14 17.9168 4.41284 1 0 0  255 255 255 255
-14 11.1713 -9.61387 1 0 0  255 255 255 255
-14 4.96724 4.27275 1 0 0  255 255 255 255
-14 13.9029 4.35497 1 0 0  255 255 255 255
-14 3.35584 13.9484 1 0 0  255 255 255 255
-14 3.35711 -13.9467 1 0 0  255 255 255 255
-14 19.0869 -5.18169 1 0 0  255 255 255 255
-14 11.5127 9.15894 1 0 0  255 255 255 255
-14 21.1978 -3.03778 1 0 0  255 255 255 255
-14 21.1977 3.03779 1 0 0  255 255 255 255
-14 4.61211 -9.66313 1 0 0  255 255 255 255
-14 30.0344 -8.98807 1 0 0  255 255 255 255
-14 30.0357 8.98507 1 0 0  255 255 255 255
-14 10.5412 -3.01435 1 0 0  255 255 255 255
-14 15.0496 -12.2367 1 0 0  255 255 255 255
-14 5.39083 0.746513 1 0 0  255 255 255 255
-14 24.9774 -13.9627 1 0 0  255 255 255 255
-14 13.0021 14.024 1 0 0  255 255 255 255
-14 10.0151 -8.37882 1 0 0  255 255 255 255
-14 21.8401 -8.32535 1 0 0  255 255 255 255
-14 25.3395 6.92139 1 0 0  255 255 255 255
-14 14.0869 -4.40433 1 0 0  255 255 255 255
-14 14.0167 13.547 1 0 0  255 255 255 255
-14 10.2628 -9.78868 1 0 0  255 255 255 255
-14 17.6482 -5.93319 1 0 0  255 255 255 255
-14 19.1308 10.4705 1 0 0  255 255 255 255
-14 22.3256 -13.8541 1 0 0  255 255 255 255
-14 9.18357 14.1102 1 0 0  255 255 255 255
-14 24.7701 -7.73887 1 0 0  255 255 255 255
-14 29.8534 6.32338 1 0 0  255 255 255 255
-14 29.8534 -6.32338 1 0 0  255 255 255 255
-14 12.1061 -11.6069 1 0 0  255 255 255 255
-14 9.58593 -12.6502 1 0 0  255 255 255 255
-14 17.4621 5.80173 1 0 0  255 255 255 255
-14 28.0904 3.83293 1 0 0  255 255 255 255
-14 28.0978 -3.82247 1 0 0  255 255 255 255
-14 5.95807 -3.59059 1 0 0  255 255 255 255
-14 23.6828 7.37318 1 0 0  255 255 255 255
-14 30.1141 11.8946 1 0 0  255 255 255 255
-14 30.1121 -11.8976 1 0 0  255 255 255 255
-14 12.232 8.7589 1 0 0  255 255 255 255
-14 18.8077 13.8829 1 0 0  255 255 255 255
-14 3.34961 -0.818826 1 0 0  255 255 255 255
-14 31.2009 5.28872 1 0 0  255 255 255 255
-14 31.2009 -5.28872 1 0 0  255 255 255 255
-14 29.0542 -11.0371 1 0 0  255 255 255 255
-14 4.67563 -7.20612 1 0 0  255 255 255 255
-14 4.64447 3.49324 1 0 0  255 255 255 255
-14 15.4067 -15.1904 1 0 0  255 255 255 255
-14 17.9883 -9.81224 1 0 0  255 255 255 255
-14 22.7877 15.1284 1 0 0  255 255 255 255
-14 24.6822 13.2196 1 0 0  255 255 255 255
-14 4.60803 1.89852 1 0 0  255 255 255 255
-14 3.31435 -5.14772 1 0 0  255 255 255 255
-14 12.8937 -10.3818 1 0 0  255 255 255 255
-14 9.97824 -10.6277 1 0 0  255 255 255 255
-14 21.8829 9.15866 1 0 0  255 255 255 255
-14 25.7353 -1.99931 1 0 0  255 255 255 255
-14 25.7353 1.99931 1 0 0  255 255 255 255
-14 18.6319 7.74057 1 0 0  255 255 255 255
-14 29.1409 -7.12457 1 0 0  255 255 255 255
-14 29.1409 7.12459 1 0 0  255 255 255 255
-14 3.32575 3.91712 1 0 0  255 255 255 255
-14 23.1281 -13.1452 1 0 0  255 255 255 255
-14 28.5597 -15.2709 1 0 0  255 255 255 255
-14 20.4397 13.7574 1 0 0  255 255 255 255
-14 29.0728 11.0406 1 0 0  255 255 255 255
-14 4.43038 -1.50791 1 0 0  255 255 255 255
-14 19.6074 7.33318 1 0 0  255 255 255 255
-14 24.7848 8.18111 1 0 0  255 255 255 255
-14 12.477 12.9698 1 0 0  255 255 255 255
-14 19.2077 11.3839 1 0 0  255 255 255 255
-14 29.3511 -3.47728 1 0 0  255 255 255 255
-14 29.3511 3.47728 1 0 0  255 255 255 255
-14 20.0439 11.6502 1 0 0  255 255 255 255
-14 31.2035 -12.8836 1 0 0  255 255 255 255
-14 31.2035 12.8836 1 0 0  255 255 255 255
-14 7.82394 -11.8597 1 0 0  255 255 255 255
-14 11.9611 7.72215 1 0 0  255 255 255 255
-14 4.4501 4.87405 1 0 0  255 255 255 255
-14 23.2454 -7.7651 1 0 0  255 255 255 255
-14 21.3075 15.1873 1 0 0  255 255 255 255
-14 29.9244 10.2462 1 0 0  255 255 255 255
-14 7.74966 11.8354 1 0 0  255 255 255 255
-14 6.54758 -5.69736 1 0 0  255 255 255 255
-14 3.30699 9.35651 1 0 0  255 255 255 255
-14 16.4437 -11.6981 1 0 0  255 255 255 255
-14 27.2622 -10.044 1 0 0  255 255 255 255
-14 9.04326 3.33059 1 0 0  255 255 255 255
-14 23.5602 -3.80213 1 0 0  255 255 255 255
-14 18.5091 15.2427 1 0 0  255 255 255 255
-14 15.1603 -13.3637 1 0 0  255 255 255 255
-14 11.4222 -11.0306 1 0 0  255 255 255 255
-14 26.9494 6.39923 1 0 0  255 255 255 255
-14 26.9408 -13.0692 1 0 0  255 255 255 255
-14 10.5922 12.0889 1 0 0  255 255 255 255
-14 7.99086 6.71578 1 0 0  255 255 255 255
-14 19.4373 8.91203 1 0 0  255 255 255 255
-14 28.3765 13.5518 1 0 0  255 255 255 255
-14 6.15287 1.8158 1 0 0  255 255 255 255
-14 22.5867 9.5381 1 0 0  255 255 255 255
-14 8.91493 -15.2218 1 0 0  255 255 255 255
-14 16.1427 12.4661 1 0 0  255 255 255 255
-14 17.808 11.3958 1 0 0  255 255 255 255
-14 4.44895 -5.57865 1 0 0  255 255 255 255
-14 11.9513 -7.67746 1 0 0  255 255 255 255
-14 8.44099 3.93178 1 0 0  255 255 255 255
-14 31.2056 -0.362208 1 0 0  255 255 255 255
-14 8.76441 2.51107 1 0 0  255 255 255 255
-14 6.33463 3.42846 1 0 0  255 255 255 255
-14 8.36386 -3.85174 1 0 0  255 255 255 255
-14 8.91533 -2.42247 1 0 0  255 255 255 255
-14 29.2099 -1.94711 1 0 0  255 255 255 255
-14 29.2099 1.94711 1 0 0  255 255 255 255
-14 8.87584 15.244 1 0 0  255 255 255 255
-14 18.0218 13.5635 1 0 0  255 255 255 255
-14 31.2144 1.79851 1 0 0  255 255 255 255
-14 31.2144 -1.79851 1 0 0  255 255 255 255
-14 29.9617 -10.2501 1 0 0  255 255 255 255
-14 7.21275 13.1959 1 0 0  255 255 255 255
-14 7.82362 -2.62028 1 0 0  255 255 255 255
-14 12.5457 -8.90861 1 0 0  255 255 255 255
-14 29.6572 -12.4749 1 0 0  255 255 255 255
-14 12.3552 -12.9804 1 0 0  255 255 255 255
-14 10.9153 9.8218 1 0 0  255 255 255 255
-14 5.74548 12.5876 1 0 0  255 255 255 255
-14 25.3317 -8.96057 1 0 0  255 255 255 255
-14 16.5921 10.5199 1 0 0  255 255 255 255
-14 21.207 13.8319 1 0 0  255 255 255 255
-14 27.7715 -14.1711 1 0 0  255 255 255 255
-14 10.8426 8.30303 1 0 0  255 255 255 255
-14 5.85898 -6.34744 1 0 0  255 255 255 255
-14 12.9489 -11.5383 1 0 0  255 255 255 255
-14 20.6721 9.46898 1 0 0  255 255 255 255
-14 7.17279 -13.1999 1 0 0  255 255 255 255
-14 25.3799 8.67538 1 0 0  255 255 255 255
-14 6.24552 -4.94287 1 0 0  255 255 255 255
-14 13.7408 -15.2604 1 0 0  255 255 255 255
-14 22.4364 10.8259 1 0 0  255 255 255 255
-14 19.2051 -6.59044 1 0 0  255 255 255 255
-14 4.47435 -13.4937 1 0 0  255 255 255 255
-14 19.289 -14.1429 1 0 0  255 255 255 255
-14 4.46913 13.4965 1 0 0  255 255 255 255
-14 27.4976 10.5582 1 0 0  255 255 255 255
-14 23.5466 -8.72278 1 0 0  255 255 255 255
-14 11.6446 -10.268 1 0 0  255 255 255 255
