ply
format ascii 1.0
comment VCGLIB generated
element vertex 743
property float x
property float y
property float z
property float nx
property float ny
property float nz
property uchar red
property uchar green
property uchar blue
property uchar alpha
element face 0
property list uchar int vertex_indices
end_header
0.799551 0.439798 -24.8375 0.619564 0.340794 -0.707107  255 255 255 255
0.799552 -0.439801 -24.8375 0.619563 -0.340796 -0.707107  255 255 255 255
0.715169 0.583792 -24.8268 0.547775 0.447149 -0.707107  255 255 255 255
0.715167 -0.583801 -24.8268 0.547771 -0.447154 -0.707107  255 255 255 255
-0.88995 0.348308 -24.7943 -0.658471 0.257712 -0.707107  255 255 255 255
0.421761 0.883208 -24.7713 0.304707 0.638086 -0.707107  255 255 255 255
0.4217 -0.883294 -24.7712 0.304647 -0.638115 -0.707107  255 255 255 255
-0.585437 0.776054 -24.7779 -0.425844 0.564497 -0.707107  255 255 255 255
-0.598879 -0.773207 -24.772 -0.432992 -0.559033 -0.707107  255 255 255 255
-0.922425 0.142787 -24.8166 -0.698784 0.108169 -0.707107  255 255 255 255
2.1471 -0.11166 0.1 0.706153 -0.036723 -0.707107  255 255 255 255
2.1471 0.11166 0.1 0.706153 0.036723 -0.707107  255 255 255 255
-1.75566 1.24104 0.1 -0.577412 0.408161 -0.707107  255 255 255 255
-1.75566 -1.24104 0.1 -0.577412 -0.408161 -0.707107  255 255 255 255
0.58422 2.0691 0.1 0.192142 0.680501 -0.707107  255 255 255 255
0.58422 -2.0691 0.1 0.192142 -0.680501 -0.707107  255 255 255 255
-1.1784 0.137569 2.38931 0.612372 -0.353553 0.707107  255 255 255 255
-0.708337 0.951736 2.38931 0.612372 -0.353553 0.707107  255 255 255 255
-0.950896 0.549 2.398 0.612372 -0.353553 0.707107  255 255 255 255
-1.27032 0.094392 2.44733 0.612372 -0.353553 0.707107  255 255 255 255
-0.716907 1.05293 2.44733 0.612372 -0.353553 0.707107  255 255 255 255
-0.826946 0.763456 2.39788 0.612372 -0.353553 0.707107  255 255 255 255
-1.07465 0.334428 2.39788 0.612372 -0.353553 0.707107  255 255 255 255
0.470059 1.08931 2.38931 0 -0.707107 0.707107  255 255 255 255
-0.470059 1.08931 2.38931 0 -0.707107 0.707107  255 255 255 255
0 1.098 2.398 0 -0.707107 0.707107  255 255 255 255
-0.553414 1.14733 2.44733 0 -0.707107 0.707107  255 255 255 255
0.553414 1.14733 2.44733 0 -0.707107 0.707107  255 255 255 255
-0.247699 1.09788 2.39788 0 -0.707107 0.707107  255 255 255 255
0.247699 1.09788 2.39788 0 -0.707107 0.707107  255 255 255 255
2.1471 0.11166 2.4 0.706153 0.036723 0.707107  255 255 255 255
2.1471 -0.11166 2.4 0.706153 -0.036723 0.707107  255 255 255 255
-1.75566 1.24104 2.4 -0.577412 0.408161 0.707107  255 255 255 255
-1.75566 -1.24104 2.4 -0.577412 -0.408161 0.707107  255 255 255 255
0.58422 2.0691 2.4 0.192142 0.680501 0.707107  255 255 255 255
0.58422 -2.0691 2.4 0.192142 -0.680501 0.707107  255 255 255 255
1.1784 -0.137569 2.38931 -0.612372 0.353553 0.707107  255 255 255 255
0.708337 -0.951736 2.38931 -0.612372 0.353553 0.707107  255 255 255 255
0.950896 -0.549 2.398 -0.612372 0.353553 0.707107  255 255 255 255
0.716907 -1.05293 2.44733 -0.612372 0.353553 0.707107  255 255 255 255
1.27032 -0.094392 2.44733 -0.612372 0.353553 0.707107  255 255 255 255
0.826946 -0.763456 2.39788 -0.612372 0.353553 0.707107  255 255 255 255
1.07465 -0.334428 2.39788 -0.612372 0.353553 0.707107  255 255 255 255
0.005111 -0.017963 -25 0 0 -1  255 255 255 255
0.098542 -0.346338 -25 0 0 -1  255 255 255 255
0.373078 -0.031403 -25 0 0 -1  255 255 255 255
0.143798 0.338897 -25 0 0 -1  255 255 255 255
-0.300666 -0.2231 -25 0 0 -1  255 255 255 255
-0.300666 0.212436 -25 0 0 -1  255 255 255 255
-0.472505 -0.006094 -25 0 0 -1  255 255 255 255
0.40494 0.243561 -25 0 0 -1  255 255 255 255
0.369284 -0.332497 -25 0 0 -1  255 255 255 255
-0.138935 -0.477098 -25 0 0 -1  255 255 255 255
-0.135055 0.47467 -25 0 0 -1  255 255 255 255
0.191289 0.096538 -25 0 0 -1  255 255 255 255
-0.213458 -0.018622 -25 0 0 -1  255 255 255 255
0.162651 -0.141242 -25 0 0 -1  255 255 255 255
-0.064459 -0.20406 -25 0 0 -1  255 255 255 255
-0.05882 0.20673 -25 0 0 -1  255 255 255 255
0.550445 0.075347 -25 0 0 -1  255 255 255 255
0.315139 0.460138 -25 0 0 -1  255 255 255 255
-0.510168 0.225318 -25 0 0 -1  255 255 255 255
-0.507663 -0.225711 -25 0 0 -1  255 255 255 255
0.153289 -0.538754 -25 0 0 -1  255 255 255 255
0.554183 -0.114163 -25 0 0 -1  255 255 255 255
-0.411077 -0.388804 -25 0 0 -1  255 255 255 255
0.145673 0.54523 -25 0 0 -1  255 255 255 255
-0.410881 0.386877 -25 0 0 -1  255 255 255 255
1.04372 0.687854 -12.1333 0.834978 0.550284 0  255 255 255 255
0.803097 0.957881 -12.4849 0.642477 0.766305 0  255 255 255 255
0.627826 1.08089 -12.1647 0.502261 0.864716 0  255 255 255 255
0.644318 -1.07115 -12.3322 0.515455 -0.856917 0  255 255 255 255
0.814067 -0.948575 -12.0167 0.651253 -0.75886 0  255 255 255 255
1.04781 -0.681613 -12.3659 0.838247 -0.54529 0  255 255 255 255
1.06763 0.650137 -11.8781 0.8541 0.520109 0  255 255 255 255
0.901503 0.865906 -12.2486 0.721202 0.692725 0  255 255 255 255
0.752353 0.998231 -12.2755 0.601883 0.798585 0  255 255 255 255
0.50157 1.14496 -12.2976 0.401256 0.915966 0  255 255 255 255
0.31005 1.21094 -12.2376 0.24804 0.96875 0  255 255 255 255
0.024732 1.24976 -12.2165 0.019785 0.999804 0  255 255 255 255
-0.24648 1.22546 -12.3659 -0.197184 0.980367 0  255 255 255 255
-0.544804 1.12503 -12.2678 -0.435843 0.900023 0  255 255 255 255
-0.79473 0.964834 -12.2842 -0.635784 0.771867 0  255 255 255 255
-0.992354 0.760088 -12.3274 -0.793883 0.608071 0  255 255 255 255
-1.14825 0.493987 -12.2886 -0.9186 0.39519 0  255 255 255 255
-1.23131 0.215364 -12.3167 -0.985046 0.172292 0  255 255 255 255
-1.24819 -0.067252 -12.2705 -0.998552 -0.053802 0  255 255 255 255
-1.20124 -0.345703 -12.2782 -0.960996 -0.276563 0  255 255 255 255
-1.09831 -0.596841 -12.2373 -0.878646 -0.477473 0  255 255 255 255
-0.951803 -0.810291 -12.2285 -0.761442 -0.648233 0  255 255 255 255
-0.760367 -0.99214 -12.2738 -0.608293 -0.793712 0  255 255 255 255
-0.544233 -1.1253 -12.2434 -0.435387 -0.900244 0  255 255 255 255
-0.282709 -1.21761 -12.2486 -0.226167 -0.974088 0  255 255 255 255
0.04447 -1.24921 -12.2456 0.035576 -0.999367 0  255 255 255 255
0.339396 -1.20304 -12.2535 0.271517 -0.962434 0  255 255 255 255
0.524249 -1.13475 -12.1996 0.419399 -0.907802 0  255 255 255 255
0.765131 -0.98847 -12.2237 0.612105 -0.790776 0  255 255 255 255
0.909282 -0.857733 -12.251 0.727426 -0.686187 0  255 255 255 255
1.07099 -0.644571 -12.6204 0.856795 -0.515657 0  255 255 255 255
1.21236 0.304452 -16.8569 0.969885 0.243561 0  255 255 255 255
1.2122 -0.305069 -7.6442 0.969761 -0.244055 0  255 255 255 255
1.19781 0.357439 -17.4661 0.958244 0.285951 0  255 255 255 255
1.19729 -0.359144 -7.0325 0.957836 -0.287315 0  255 255 255 255
1.23337 0.203251 -20.7389 0.986692 0.162601 0  255 255 255 255
1.23337 -0.203252 -3.76069 0.986692 -0.162601 0  255 255 255 255
1.2331 0.204822 -22.943 0.986484 0.163857 0  255 255 255 255
1.23312 -0.204725 -1.55693 0.986497 -0.16378 0  255 255 255 255
1.23891 0.166153 -23.7082 0.991126 0.132922 0  255 255 255 255
1.23898 -0.165589 -23.7311 0.991187 -0.132472 0  255 255 255 255
1.23891 -0.166128 -0.791782 0.991129 -0.132902 0  255 255 255 255
1.23898 0.16559 -0.768922 0.991187 0.132472 0  255 255 255 255
1.06825 0.649101 -18.7966 0.854604 0.519281 0  255 255 255 255
0.946262 0.816754 -16.5992 0.75701 0.653403 0  255 255 255 255
0.780123 0.976682 -16.4497 0.624098 0.781346 0  255 255 255 255
0.601715 1.09564 -18.7538 0.481372 0.876516 0  255 255 255 255
0.251387 1.22446 -16.474 0.20111 0.979569 0  255 255 255 255
-0.012536 1.24994 -16.4657 -0.010029 0.99995 0  255 255 255 255
-0.247128 1.22533 -16.5477 -0.197702 0.980262 0  255 255 255 255
-0.585501 1.1044 -16.5203 -0.468401 0.883516 0  255 255 255 255
-0.802708 0.958207 -16.5144 -0.642166 0.766565 0  255 255 255 255
-0.994365 0.757455 -16.5148 -0.795492 0.605964 0  255 255 255 255
-1.13872 0.515565 -16.519 -0.910979 0.412452 0  255 255 255 255
-1.2252 0.247763 -16.5243 -0.980159 0.19821 0  255 255 255 255
-1.24961 -0.03115 -16.5304 -0.999689 -0.02492 0  255 255 255 255
-1.21188 -0.30636 -16.5373 -0.969501 -0.245088 0  255 255 255 255
-1.11613 -0.562801 -16.5435 -0.892907 -0.450241 0  255 255 255 255
-0.97951 -0.776569 -16.5332 -0.783608 -0.621255 0  255 255 255 255
-0.756759 -0.994895 -16.5109 -0.605407 -0.795916 0  255 255 255 255
-0.547236 -1.12385 -16.5089 -0.437789 -0.899078 0  255 255 255 255
-0.298333 -1.21388 -16.5156 -0.238666 -0.971102 0  255 255 255 255
-0.039019 -1.24939 -16.5335 -0.031215 -0.999513 0  255 255 255 255
0.217968 -1.23085 -16.547 0.174374 -0.984679 0  255 255 255 255
0.461896 -1.16153 -16.5392 0.369517 -0.929224 0  255 255 255 255
1.13367 -0.52659 -19.1849 0.906934 -0.421272 0  255 255 255 255
1.06809 -0.649375 -5.69786 0.85447 -0.5195 0  255 255 255 255
0.947791 -0.81498 -7.90733 0.758233 -0.651984 0  255 255 255 255
0.604798 -1.09395 -5.73508 0.483838 -0.875157 0  255 255 255 255
0.784872 -0.97287 -8.05614 0.627898 -0.778296 0  255 255 255 255
0.213219 -1.23168 -8.03654 0.170575 -0.985345 0  255 255 255 255
-0.032668 -1.24957 -7.98979 -0.026134 -0.999658 0  255 255 255 255
-0.355414 -1.19841 -7.92545 -0.284331 -0.958726 0  255 255 255 255
-0.581571 -1.10647 -7.91147 -0.465257 -0.885176 0  255 255 255 255
-0.833647 -0.931414 -7.91507 -0.666918 -0.745131 0  255 255 255 255
-1.00127 -0.748301 -7.9058 -0.801018 -0.59864 0  255 255 255 255
-1.13188 -0.53042 -7.8996 -0.905505 -0.424336 0  255 255 255 255
-1.22885 -0.228948 -7.9174 -0.983083 -0.183158 0  255 255 255 255
-1.25 0.001789 -7.93814 -0.999999 0.001431 0  255 255 255 255
-1.21244 0.304141 -7.975 -0.969948 0.243313 0  255 255 255 255
-1.13586 0.521835 -7.99745 -0.908692 0.417468 0  255 255 255 255
-0.973955 0.783525 -8.01583 -0.779164 0.62682 0  255 255 255 255
-0.810997 0.951201 -8.02584 -0.648798 0.760961 0  255 255 255 255
-0.54705 1.12394 -8.01822 -0.43764 0.89915 0  255 255 255 255
-0.317668 1.20896 -7.9982 -0.254135 0.967169 0  255 255 255 255
-0.061627 1.24848 -7.97982 -0.049301 0.998784 0  255 255 255 255
0.205278 1.23303 -7.96951 0.164222 0.986423 0  255 255 255 255
0.457136 1.16341 -7.97263 0.365708 0.930729 0  255 255 255 255
1.13225 0.529633 -5.31597 0.905799 0.423707 0  255 255 255 255
1.21971 -0.273495 -20.8839 0.975771 -0.218796 0  255 255 255 255
1.21968 0.273643 -3.61602 0.975744 0.218914 0  255 255 255 255
1.238 -0.17278 -14.8276 0.990401 -0.138224 0  255 255 255 255
1.23802 0.172677 -9.67223 0.990413 0.138141 0  255 255 255 255
1.24036 -0.154928 -15.1821 0.992289 -0.123942 0  255 255 255 255
1.24039 0.154696 -9.31787 0.992313 0.123757 0  255 255 255 255
1.2296 -0.224897 -15.5488 0.983682 -0.179918 0  255 255 255 255
1.22969 0.224429 -8.95143 0.98375 0.179543 0  255 255 255 255
1.23765 0.175256 -14.5372 0.990123 0.140205 0  255 255 255 255
1.23777 -0.17439 -9.96209 0.99022 -0.139512 0  255 255 255 255
1.23591 -0.18712 -2.5272 0.988732 -0.149696 0  255 255 255 255
1.2359 0.187247 -21.9725 0.988717 0.149798 0  255 255 255 255
1.23584 -0.187607 -22.6729 0.988673 -0.150085 0  255 255 255 255
1.23584 0.187608 -1.82713 0.988673 0.150086 0  255 255 255 255
1.0638 -0.656371 -19.4141 0.851043 -0.525097 0  255 255 255 255
1.0614 0.660256 -5.08627 0.849117 0.528204 0  255 255 255 255
0.895374 0.872241 -20.7313 0.7163 0.697793 0  255 255 255 255
0.895576 -0.872035 -3.76582 0.71646 -0.697628 0  255 255 255 255
0.414514 1.17927 -20.6123 0.331611 0.943416 0  255 255 255 255
0.177676 1.23731 -20.5883 0.142141 0.989846 0  255 255 255 255
-0.076166 1.24768 -20.5995 -0.060932 0.998142 0  255 255 255 255
-0.334169 1.2045 -20.5277 -0.267335 0.963604 0  255 255 255 255
-0.588641 1.10273 -20.5071 -0.470912 0.88218 0  255 255 255 255
-0.824768 0.939286 -20.531 -0.659814 0.751429 0  255 255 255 255
-1.01489 0.729731 -20.4934 -0.811909 0.583785 0  255 255 255 255
-1.15276 0.483377 -20.5167 -0.922205 0.386702 0  255 255 255 255
-1.23147 0.214416 -20.4807 -0.985178 0.171533 0  255 255 255 255
-1.24827 -0.065772 -20.4994 -0.998615 -0.052618 0  255 255 255 255
-1.20251 -0.341268 -20.4521 -0.96201 -0.273015 0  255 255 255 255
-1.10048 -0.592833 -20.4354 -0.880381 -0.474266 0  255 255 255 255
-0.946234 -0.816787 -20.427 -0.756987 -0.653429 0  255 255 255 255
-0.748053 -1.00146 -20.4222 -0.598443 -0.801166 0  255 255 255 255
-0.516911 -1.13811 -20.4244 -0.413529 -0.910491 0  255 255 255 255
-0.255335 -1.22364 -20.4532 -0.204268 -0.978915 0  255 255 255 255
0.013134 -1.24993 -20.4087 0.010507 -0.999945 0  255 255 255 255
0.268184 -1.22089 -20.3884 0.214548 -0.976714 0  255 255 255 255
0.507625 -1.14229 -20.3664 0.4061 -0.913829 0  255 255 255 255
0.413991 -1.17945 -3.88256 0.331193 -0.943563 0  255 255 255 255
0.175951 -1.23756 -3.90627 0.140761 -0.990044 0  255 255 255 255
-0.079643 -1.24746 -3.89602 -0.063715 -0.997968 0  255 255 255 255
-0.338007 -1.20343 -3.97031 -0.270406 -0.962746 0  255 255 255 255
-0.59187 -1.10099 -3.99256 -0.473496 -0.880796 0  255 255 255 255
-0.826941 -0.937373 -3.96896 -0.661553 -0.749899 0  255 255 255 255
-1.01596 -0.728235 -4.00539 -0.812768 -0.582588 0  255 255 255 255
-1.15319 -0.482347 -3.98057 -0.92255 -0.385878 0  255 255 255 255
-1.23156 -0.213894 -4.01432 -0.985251 -0.171116 0  255 255 255 255
-1.24827 0.065716 -3.99419 -0.998617 0.052573 0  255 255 255 255
-1.20271 0.340587 -4.04011 -0.962164 0.27247 0  255 255 255 255
-1.10099 0.591882 -4.05677 -0.880791 0.473506 0  255 255 255 255
-0.946817 0.816111 -4.06534 -0.757454 0.652889 0  255 255 255 255
-0.748337 1.00125 -4.06943 -0.59867 0.800996 0  255 255 255 255
-0.516939 1.1381 -4.06611 -0.413551 0.910481 0  255 255 255 255
-0.255679 1.22357 -4.03682 -0.204543 0.978858 0  255 255 255 255
0.011825 1.24994 -4.08113 0.00946 0.999955 0  255 255 255 255
0.265993 1.22137 -4.10328 0.212794 0.977097 0  255 255 255 255
0.505148 1.14338 -4.12769 0.404119 0.914707 0  255 255 255 255
1.07495 -0.637957 -20.3712 0.859958 -0.510365 0  255 255 255 255
1.07438 0.638912 -4.1281 0.859504 0.511129 0  255 255 255 255
1.1603 -0.464975 -20.7679 0.928241 -0.37198 0  255 255 255 255
1.16017 0.465312 -3.73185 0.928133 0.37225 0  255 255 255 255
1.06124 0.66051 -14.9227 0.848991 0.528408 0  255 255 255 255
1.06362 -0.656672 -9.5743 0.850894 -0.525338 0  255 255 255 255
0.904191 0.863098 -21.9769 0.723353 0.690478 0  255 255 255 255
0.414708 1.1792 -22.0669 0.331767 0.943361 0  255 255 255 255
0.116258 1.24458 -22.049 0.093006 0.995666 0  255 255 255 255
-0.078657 1.24752 -22.1267 -0.062926 0.998018 0  255 255 255 255
-0.414907 1.17913 -22.098 -0.331926 0.943306 0  255 255 255 255
-0.595319 1.09913 -22.157 -0.476255 0.879307 0  255 255 255 255
-0.87988 0.887869 -22.089 -0.703904 0.710295 0  255 255 255 255
-1.01294 0.732433 -22.1601 -0.81035 0.585946 0  255 255 255 255
-1.17632 0.422811 -22.099 -0.941057 0.338249 0  255 255 255 255
-1.23222 0.210064 -22.1233 -0.985778 0.168051 0  255 255 255 255
-1.24032 -0.15522 -21.9704 -0.99226 -0.124176 0  255 255 255 255
-1.19551 -0.365034 -21.9651 -0.95641 -0.292027 0  255 255 255 255
-0.14759 -1.24126 -22.0575 -0.118072 -0.993005 0  255 255 255 255
0.057746 -1.24866 -22.1634 0.046197 -0.998932 0  255 255 255 255
0.288274 -1.21631 -22.2027 0.230619 -0.973044 0  255 255 255 255
0.856011 -0.910903 -21.999 0.684809 -0.728723 0  255 255 255 255
0.905502 -0.861723 -2.52038 0.724401 -0.689379 0  255 255 255 255
0.422125 -1.17657 -2.42569 0.3377 -0.941254 0  255 255 255 255
0.133037 -1.2429 -2.44024 0.10643 -0.99432 0  255 255 255 255
-0.063203 -1.2484 -2.37305 -0.050562 -0.998721 0  255 255 255 255
-0.411011 -1.1805 -2.41622 -0.328809 -0.944397 0  255 255 255 255
-0.595677 -1.09894 -2.35235 -0.476541 -0.879152 0  255 255 255 255
-0.881426 -0.886334 -2.41622 -0.705141 -0.709068 0  255 255 255 255
-1.01383 -0.731192 -2.34332 -0.811067 -0.584954 0  255 255 255 255
-1.17663 -0.421956 -2.40277 -0.941302 -0.337564 0  255 255 255 255
-1.23231 -0.209524 -2.37787 -0.985852 -0.167619 0  255 255 255 255
-1.2403 0.155393 -2.53007 -0.992243 0.124314 0  255 255 255 255
-1.1955 0.365082 -2.53519 -0.956398 0.292065 0  255 255 255 255
-0.147622 1.24125 -2.44231 -0.118097 0.993002 0  255 255 255 255
0.057716 1.24867 -2.33643 0.046173 0.998933 0  255 255 255 255
0.288244 1.21631 -2.29714 0.230595 0.97305 0  255 255 255 255
0.855976 0.910937 -2.50087 0.684781 0.728749 0  255 255 255 255
0.824442 0.939572 -9.34839 0.659553 0.751658 0  255 255 255 255
0.822742 -0.941061 -15.1507 0.658193 -0.752849 0  255 255 255 255
0.762868 0.990219 -8.45889 0.610294 0.792175 0  255 255 255 255
0.760743 -0.991852 -16.0458 0.608594 -0.793481 0  255 255 255 255
1.00081 0.748925 -15.8344 0.800645 0.59914 0  255 255 255 255
1.00223 -0.747024 -8.67039 0.80178 -0.597619 0  255 255 255 255
0.181573 1.23674 -8.57633 0.145258 0.989394 0  255 255 255 255
-0.054455 1.24881 -8.55628 -0.043564 0.999051 0  255 255 255 255
-0.066856 -1.24821 -15.9081 -0.053485 -0.998569 0  255 255 255 255
0.152092 -1.24071 -15.9462 0.121674 -0.99257 0  255 255 255 255
1.19774 0.357663 -7.76264 0.958191 0.28613 0  255 255 255 255
1.19776 -0.357578 -16.7388 0.958211 -0.286062 0  255 255 255 255
1.20078 0.347314 -10.4236 0.960624 0.277851 0  255 255 255 255
1.20102 -0.346494 -14.0755 0.960814 -0.277195 0  255 255 255 255
1.13576 0.522059 -10.2784 0.908609 0.417647 0  255 255 255 255
1.13618 -0.521148 -14.2202 0.908944 -0.416918 0  255 255 255 255
0.83045 0.934266 -14.2169 0.66436 0.747412 0  255 255 255 255
0.925316 0.84041 -10.3471 0.740253 0.672328 0  255 255 255 255
0.514775 1.13908 -14.1079 0.41182 0.911265 0  255 255 255 255
0.658842 1.06228 -10.2823 0.527073 0.84982 0  255 255 255 255
0.276907 1.21894 -14.2346 0.221526 0.975155 0  255 255 255 255
0.004778 1.24999 -14.281 0.003822 0.999993 0  255 255 255 255
0.125475 1.24369 -10.2518 0.10038 0.994949 0  255 255 255 255
-0.510234 1.14112 -14.3144 -0.408187 0.912898 0  255 255 255 255
-0.396181 1.18555 -10.1826 -0.316945 0.948444 0  255 255 255 255
-0.258586 1.22296 -14.3037 -0.206869 0.978369 0  255 255 255 255
-0.133554 1.24285 -10.2042 -0.106843 0.994276 0  255 255 255 255
-0.742191 1.00581 -14.3182 -0.593753 0.804648 0  255 255 255 255
-0.64284 1.07203 -10.1716 -0.514272 0.857627 0  255 255 255 255
-0.942361 0.821252 -14.3193 -0.753889 0.657002 0  255 255 255 255
-0.859615 0.907504 -10.167 -0.687692 0.726003 0  255 255 255 255
-1.09927 0.595075 -14.3199 -0.879413 0.47606 0  255 255 255 255
-1.03564 0.699962 -10.1669 -0.828513 0.55997 0  255 255 255 255
-1.20345 0.337932 -14.321 -0.962763 0.270346 0  255 255 255 255
-1.16232 0.459912 -10.1703 -0.929854 0.36793 0  255 255 255 255
-1.2484 0.063281 -14.3228 -0.998718 0.050624 0  255 255 255 255
-1.23398 0.199468 -10.1765 -0.987186 0.159574 0  255 255 255 255
-1.2316 -0.213708 -14.3248 -0.985277 -0.170966 0  255 255 255 255
-1.24805 -0.069697 -10.1858 -0.998444 -0.055757 0  255 255 255 255
-1.15519 -0.477536 -14.3266 -0.92415 -0.382029 0  255 255 255 255
-1.20348 -0.337854 -10.1952 -0.962781 -0.270283 0  255 255 255 255
-0.84883 -0.917599 -14.3227 -0.679064 -0.734079 0  255 255 255 255
-0.942512 -0.821079 -10.1951 -0.754009 -0.656864 0  255 255 255 255
-1.02532 -0.714989 -14.327 -0.82026 -0.571991 0  255 255 255 255
-1.10022 -0.593316 -10.1986 -0.880173 -0.474653 0  255 255 255 255
-0.633348 -1.07767 -14.3145 -0.506679 -0.862135 0  255 255 255 255
-0.739147 -1.00805 -10.1905 -0.591317 -0.806439 0  255 255 255 255
-0.388355 -1.18814 -14.3029 -0.310684 -0.950513 0  255 255 255 255
-0.500464 -1.14544 -10.1902 -0.400371 -0.916353 0  255 255 255 255
-0.12706 -1.24353 -14.2831 -0.101648 -0.99482 0  255 255 255 255
-0.240376 -1.22667 -10.1983 -0.192301 -0.981336 0  255 255 255 255
0.130234 -1.2432 -14.2381 0.104187 -0.994558 0  255 255 255 255
0.011046 -1.24995 -10.2108 0.008837 -0.999961 0  255 255 255 255
0.315796 -1.20945 -10.2448 0.252637 -0.967561 0  255 255 255 255
0.661261 -1.06077 -14.2126 0.529009 -0.848616 0  255 255 255 255
0.525773 -1.13405 -10.3611 0.420619 -0.907238 0  255 255 255 255
0.926782 -0.838794 -14.1499 0.741425 -0.671035 0  255 255 255 255
0.833087 -0.931915 -10.2699 0.66647 -0.745532 0  255 255 255 255
0.407149 1.18183 -9.58286 0.325719 0.945467 0  255 255 255 255
0.172204 1.23808 -9.59546 0.137763 0.990465 0  255 255 255 255
0.172437 -1.23805 -14.8956 0.13795 -0.990439 0  255 255 255 255
0.405595 -1.18237 -14.9115 0.324476 -0.945894 0  255 255 255 255
0.986689 0.767428 -14.1751 0.789351 0.613942 0  255 255 255 255
0.987975 -0.765772 -10.3169 0.79038 -0.612617 0  255 255 255 255
0.999806 0.750258 -14.6916 0.799845 0.600206 0  255 255 255 255
1.00268 -0.746416 -9.80278 0.802143 -0.597133 0  255 255 255 255
1.22912 0.227511 -22.6104 0.983297 0.182009 0  255 255 255 255
1.22915 -0.22736 -1.88939 0.983319 -0.181888 0  255 255 255 255
1.22459 -0.250745 -19.3943 0.979674 -0.200596 0  255 255 255 255
1.22438 0.251777 -5.10593 0.979505 0.201421 0  255 255 255 255
1.24358 -0.126556 -9.71707 0.994862 -0.101245 0  255 255 255 255
1.24351 0.127265 -14.7826 0.994804 0.101812 0  255 255 255 255
1.23997 -0.158011 -8.56705 0.991978 -0.126409 0  255 255 255 255
1.2399 0.158544 -15.9339 0.991924 0.126835 0  255 255 255 255
1.23802 -0.172675 -9.48285 0.990413 -0.13814 0  255 255 255 255
1.23787 0.173682 -15.0169 0.9903 0.138946 0  255 255 255 255
1.23256 -0.208093 -9.18142 0.986046 -0.166474 0  255 255 255 255
1.23236 0.209239 -15.3188 0.985891 0.167391 0  255 255 255 255
1.21702 0.285232 -14.7892 0.973618 0.228185 0  255 255 255 255
1.21739 -0.283659 -9.70983 0.973912 -0.226928 0  255 255 255 255
1.23795 -0.173138 -7.18229 0.990361 -0.138511 0  255 255 255 255
1.23805 0.172391 -17.3174 0.990444 0.137913 0  255 255 255 255
1.23961 0.1608 -21.5827 0.991691 0.12864 0  255 255 255 255
1.23962 -0.160715 -2.91705 0.9917 -0.128572 0  255 255 255 255
1.23853 0.168939 -19.5953 0.990825 0.135151 0  255 255 255 255
1.24421 -0.12018 -19.5187 0.995367 -0.096144 0  255 255 255 255
1.23852 -0.169003 -4.90406 0.990818 -0.135202 0  255 255 255 255
1.24417 0.120616 -4.9814 0.995334 0.096493 0  255 255 255 255
1.2443 -0.119245 -19.3161 0.995439 -0.095396 0  255 255 255 255
1.23996 -0.158096 -5.15477 0.99197 -0.126477 0  255 255 255 255
1.24425 0.119744 -5.18401 0.995401 0.095795 0  255 255 255 255
1.23997 0.158016 -19.3445 0.991978 0.126413 0  255 255 255 255
1.23949 -0.161796 -4.32528 0.991588 -0.129437 0  255 255 255 255
1.23949 0.16176 -20.1743 0.991591 0.129408 0  255 255 255 255
1.2389 -0.166211 -22.3838 0.99112 -0.132969 0  255 255 255 255
1.2389 0.166214 -2.11624 0.99112 0.132971 0  255 255 255 255
1.23755 -0.175978 -14.2255 0.990041 -0.140782 0  255 255 255 255
1.23751 0.176278 -10.2741 0.990006 0.141022 0  255 255 255 255
1.24463 0.115727 -23.4133 0.995705 0.092582 0  255 255 255 255
1.24119 -0.148135 -23.3837 0.992953 -0.118508 0  255 255 255 255
1.24463 -0.1157 -1.08672 0.995707 -0.09256 0  255 255 255 255
1.24119 0.148135 -1.11629 0.992953 0.118508 0  255 255 255 255
0.93646 0.827975 -21.6553 0.749168 0.66238 0  255 255 255 255
0.93742 -0.826888 -2.8419 0.749936 -0.66151 0  255 255 255 255
0.772363 0.98283 -21.7304 0.617891 0.786264 0  255 255 255 255
0.774516 -0.981134 -2.7651 0.619613 -0.784907 0  255 255 255 255
0.548754 1.12311 -21.8203 0.439003 0.898486 0  255 255 255 255
0.275185 1.21933 -21.8274 0.220148 0.975467 0  255 255 255 255
-0.009642 1.24996 -21.7781 -0.007713 0.99997 0  255 255 255 255
-0.260858 1.22248 -21.8857 -0.208687 0.977983 0  255 255 255 255
-0.507623 1.14229 -21.839 -0.406099 0.913829 0  255 255 255 255
-0.744427 1.00416 -21.8863 -0.595542 0.803324 0  255 255 255 255
-0.954076 0.807613 -21.7723 -0.763261 0.64609 0  255 255 255 255
-1.10418 0.585913 -21.9479 -0.883341 0.46873 0  255 255 255 255
-1.1961 0.363094 -21.7777 -0.956883 0.290475 0  255 255 255 255
-1.24894 0.051567 -21.808 -0.999149 0.041254 0  255 255 255 255
-1.2335 -0.202445 -21.6681 -0.986798 -0.161956 0  255 255 255 255
-1.15561 -0.476511 -21.6705 -0.924489 -0.381209 0  255 255 255 255
-1.02347 -0.717644 -21.6988 -0.818775 -0.574115 0  255 255 255 255
-0.810564 -0.95157 -21.7404 -0.648451 -0.761256 0  255 255 255 255
-0.569083 -1.11294 -21.6329 -0.455267 -0.890355 0  255 255 255 255
-0.383744 -1.18964 -21.8984 -0.306995 -0.951711 0  255 255 255 255
-0.09488 -1.24639 -21.691 -0.075904 -0.997115 0  255 255 255 255
0.180502 -1.2369 -21.8804 0.144402 -0.989519 0  255 255 255 255
0.446482 -1.16754 -21.9673 0.357185 -0.934034 0  255 255 255 255
0.662052 -1.06028 -21.736 0.529641 -0.848222 0  255 255 255 255
0.553724 -1.12066 -2.67232 0.442979 -0.896532 0  255 255 255 255
0.287342 -1.21653 -2.65926 0.229874 -0.973221 0  255 255 255 255
0.027217 -1.2497 -2.6921 0.021774 -0.999763 0  255 255 255 255
-0.247321 -1.22529 -2.64358 -0.197857 -0.980231 0  255 255 255 255
-0.512555 -1.14008 -2.67671 -0.410044 -0.912066 0  255 255 255 255
-0.747869 -1.0016 -2.62191 -0.598295 -0.801276 0  255 255 255 255
-0.956222 -0.805072 -2.73237 -0.764977 -0.644057 0  255 255 255 255
-1.10494 -0.584463 -2.55486 -0.883956 -0.467571 0  255 255 255 255
-1.19642 -0.36204 -2.72398 -0.957138 -0.289632 0  255 255 255 255
-1.24895 -0.051121 -2.69276 -0.999163 -0.040896 0  255 255 255 255
-1.23347 0.202596 -2.83216 -0.986778 0.162077 0  255 255 255 255
-1.15562 0.476498 -2.82949 -0.924493 0.381198 0  255 255 255 255
-1.02351 0.717589 -2.80095 -0.818805 0.574071 0  255 255 255 255
-0.81061 0.951531 -2.75921 -0.648488 0.761225 0  255 255 255 255
-0.569119 1.11293 -2.86647 -0.455295 0.890341 0  255 255 255 255
-0.383779 1.18963 -2.60122 -0.307023 0.951702 0  255 255 255 255
-0.094928 1.24639 -2.80827 -0.075942 0.997112 0  255 255 255 255
0.180447 1.23691 -2.61914 0.144357 0.989526 0  255 255 255 255
0.446427 1.16756 -2.53246 0.357142 0.93405 0  255 255 255 255
0.661957 1.06034 -2.76363 0.529566 0.848269 0  255 255 255 255
0.867921 -0.899563 -21.6867 0.694337 -0.71965 0  255 255 255 255
0.867841 0.89964 -2.81298 0.694273 0.719712 0  255 255 255 255
1.10102 -0.591831 -21.7448 0.880813 -0.473465 0  255 255 255 255
1.10099 0.591885 -2.75511 0.88079 0.473508 0  255 255 255 255
1.21063 -0.311249 -22.2101 0.968504 -0.248999 0  255 255 255 255
1.21063 0.311257 -2.28994 0.968502 0.249005 0  255 255 255 255
1.18721 0.391195 -22.3465 0.949768 0.312956 0  255 255 255 255
1.18732 -0.390855 -2.15297 0.949857 -0.312684 0  255 255 255 255
1.0342 0.702088 -10.1427 0.827361 0.56167 0  255 255 255 255
1.03476 -0.701265 -14.3553 0.827808 -0.561012 0  255 255 255 255
0.708234 1.03 -17.026 0.566587 0.824002 0  255 255 255 255
0.3315 1.20524 -17.1541 0.2652 0.964193 0  255 255 255 255
0.537649 -1.12847 -17.135 0.430119 -0.902772 0  255 255 255 255
0.752409 -0.998188 -17.0489 0.601928 -0.798551 0  255 255 255 255
0.703871 -1.03299 -7.50327 0.563097 -0.826391 0  255 255 255 255
0.386359 -1.18879 -7.36645 0.309087 -0.951034 0  255 255 255 255
0.52842 1.13282 -7.37594 0.422736 0.906253 0  255 255 255 255
0.748202 1.00135 -7.45883 0.598562 0.801077 0  255 255 255 255
1.00318 -0.745742 -17.0045 0.802544 -0.596594 0  255 255 255 255
1.00214 0.747143 -7.49952 0.801709 0.597714 0  255 255 255 255
0.792812 0.966411 -14.483 0.634249 0.773129 0  255 255 255 255
0.721842 1.02051 -10.0018 0.577473 0.81641 0  255 255 255 255
0.722645 -1.01994 -14.4942 0.578116 -0.815955 0  255 255 255 255
0.79772 -0.962363 -10.0051 0.638176 -0.76989 0  255 255 255 255
1.14826 -0.493964 -17.4017 0.918607 -0.395171 0  255 255 255 255
1.14765 0.495384 -7.10076 0.918118 0.396307 0  255 255 255 255
1.07172 0.643366 -13.1496 0.857375 0.514693 0  255 255 255 255
1.07305 -0.641147 -11.3508 0.858438 -0.512918 0  255 255 255 255
1.20177 0.343871 -14.5793 0.961417 0.275096 0  255 255 255 255
1.20226 -0.342169 -9.91898 0.961805 -0.273735 0  255 255 255 255
0.998537 0.751947 -11.059 0.798829 0.601558 0  255 255 255 255
1.00143 -0.74809 -13.438 0.801144 -0.598472 0  255 255 255 255
1.13144 -0.531363 -22.6163 0.905151 -0.425091 0  255 255 255 255
1.13144 0.531368 -1.88369 0.905149 0.425095 0  255 255 255 255
0.666097 1.05774 -17.4711 0.532878 0.846192 0  255 255 255 255
0.265347 1.22151 -17.5967 0.212278 0.977209 0  255 255 255 255
0.0515 1.24894 -17.5696 0.0412 0.999151 0  255 255 255 255
-0.207493 1.23266 -17.5352 -0.165994 0.986127 0  255 255 255 255
-0.635744 1.07626 -17.4867 -0.508595 0.861006 0  255 255 255 255
-0.883687 0.88408 -17.4936 -0.706949 0.707264 0  255 255 255 255
-1.06318 0.657379 -17.4973 -0.850544 0.525903 0  255 255 255 255
-1.18396 0.400917 -17.4996 -0.947169 0.320734 0  255 255 255 255
-1.24361 0.126266 -17.5015 -0.994885 0.101013 0  255 255 255 255
-1.24057 -0.153244 -17.5031 -0.992457 -0.122595 0  255 255 255 255
-1.17536 -0.425466 -17.5029 -0.94029 -0.340373 0  255 255 255 255
-1.04369 -0.687907 -17.4913 -0.83495 -0.550326 0  255 255 255 255
-0.720175 -1.02169 -17.4629 -0.57614 -0.817351 0  255 255 255 255
-0.450252 -1.16609 -17.4713 -0.360202 -0.932874 0  255 255 255 255
-0.182234 -1.23664 -17.4674 -0.145787 -0.989316 0  255 255 255 255
0.07673 -1.24764 -17.4469 0.061384 -0.998114 0  255 255 255 255
0.64112 -1.07306 -6.99795 0.512896 -0.858451 0  255 255 255 255
0.305438 -1.21211 -6.86606 0.244351 -0.969687 0  255 255 255 255
0.101335 -1.24589 -6.91475 0.081068 -0.996709 0  255 255 255 255
-0.853011 -0.913713 -7.02369 -0.682409 -0.730971 0  255 255 255 255
-1.04882 -0.680057 -7.0274 -0.839056 -0.544045 0  255 255 255 255
-0.541767 1.12649 -7.11378 -0.433414 0.901195 0  255 255 255 255
-0.25377 1.22397 -7.03913 -0.203016 0.979175 0  255 255 255 255
0.044286 1.24922 -7.06872 0.035429 0.999372 0  255 255 255 255
0.837569 0.927889 -17.5513 0.670055 0.742311 0  255 255 255 255
0.828812 -0.935719 -6.93384 0.663049 -0.748576 0  255 255 255 255
1.1654 0.452037 -9.03668 0.932322 0.36163 0  255 255 255 255
1.16504 -0.452966 -15.4637 0.932033 -0.362373 0  255 255 255 255
1.178 0.418096 -22.8138 0.942404 0.334476 0  255 255 255 255
1.1781 -0.417819 -1.6859 0.942483 -0.334255 0  255 255 255 255
0.640084 1.07368 -17.9504 0.512067 0.858945 0  255 255 255 255
0.334571 1.20439 -17.9441 0.267657 0.963514 0  255 255 255 255
0.064555 1.24833 -18.0255 0.051644 0.998666 0  255 255 255 255
-0.189232 1.23559 -18.0509 -0.151385 0.988475 0  255 255 255 255
-0.437946 1.17077 -18.0578 -0.350357 0.936616 0  255 255 255 255
-0.673467 1.05306 -18.0484 -0.538774 0.84245 0  255 255 255 255
-0.887638 0.880113 -18.0401 -0.71011 0.704091 0  255 255 255 255
-1.06156 0.65999 -18.0352 -0.849249 0.527992 0  255 255 255 255
-1.18218 0.40615 -18.0343 -0.945742 0.32492 0  255 255 255 255
-1.24294 0.13265 -18.032 -0.994353 0.10612 0  255 255 255 255
-1.24166 -0.144142 -18.032 -0.993329 -0.115314 0  255 255 255 255
-1.17986 -0.412832 -18.0385 -0.943888 -0.330265 0  255 255 255 255
-1.06138 -0.660275 -18.044 -0.849107 -0.52822 0  255 255 255 255
-0.895744 -0.871861 -18.0465 -0.716595 -0.697489 0  255 255 255 255
-0.687761 -1.04378 -18.0353 -0.550209 -0.835027 0  255 255 255 255
-0.44166 -1.16937 -18.0246 -0.353328 -0.935499 0  255 255 255 255
-0.168318 -1.23862 -18.0133 -0.134654 -0.990893 0  255 255 255 255
0.125067 -1.24373 -17.9943 0.100054 -0.994982 0  255 255 255 255
0.461071 -1.16186 -17.941 0.368857 -0.929486 0  255 255 255 255
0.643213 -1.07181 -6.51221 0.51457 -0.857448 0  255 255 255 255
0.351654 -1.19952 -6.51937 0.281323 -0.959613 0  255 255 255 255
0.087333 -1.24695 -6.46583 0.069867 -0.997556 0  255 255 255 255
-0.171472 -1.23818 -6.45977 -0.137178 -0.990546 0  255 255 255 255
-0.431412 -1.17319 -6.45644 -0.34513 -0.938555 0  255 255 255 255
-0.671915 -1.05405 -6.45766 -0.537532 -0.843243 0  255 255 255 255
-0.886463 -0.881296 -6.47142 -0.70917 -0.705037 0  255 255 255 255
-1.06555 -0.653538 -6.49615 -0.852437 -0.52283 0  255 255 255 255
-1.18647 -0.393443 -6.49606 -0.949173 -0.314754 0  255 255 255 255
-1.24365 -0.125829 -6.47648 -0.994921 -0.100663 0  255 255 255 255
-1.2417 0.143849 -6.4587 -0.993356 0.115079 0  255 255 255 255
-1.18336 0.402703 -6.4428 -0.946685 0.322162 0  255 255 255 255
-1.07278 0.641591 -6.43793 -0.858225 0.513273 0  255 255 255 255
-0.910923 0.855991 -6.4435 -0.728738 0.684793 0  255 255 255 255
-0.696505 1.03797 -6.47634 -0.557204 0.830375 0  255 255 255 255
-0.445347 1.16797 -6.50083 -0.356278 0.93438 0  255 255 255 255
-0.177986 1.23726 -6.51116 -0.142389 0.989811 0  255 255 255 255
0.111366 1.24503 -6.53457 0.089093 0.996023 0  255 255 255 255
0.448802 1.16665 -6.57889 0.359041 0.933322 0  255 255 255 255
1.00656 0.741166 -17.789 0.805252 0.592933 0  255 255 255 255
1.00422 -0.744338 -6.70103 0.803377 -0.595471 0  255 255 255 255
0.882581 -0.885184 -20.0929 0.706065 -0.708147 0  255 255 255 255
0.880265 0.887487 -4.40476 0.704212 0.70999 0  255 255 255 255
0.180353 1.23692 -20.2897 0.144282 0.989537 0  255 255 255 255
-0.056725 1.24871 -20.2854 -0.04538 0.99897 0  255 255 255 255
-0.295377 1.2146 -20.1772 -0.236302 0.97168 0  255 255 255 255
-0.581409 1.10655 -20.1683 -0.465127 0.885244 0  255 255 255 255
-0.821088 0.942504 -20.1698 -0.656871 0.754003 0  255 255 255 255
-1.01337 0.731836 -20.1641 -0.810695 0.585469 0  255 255 255 255
-1.15172 0.485841 -20.1651 -0.921376 0.388673 0  255 255 255 255
-1.23087 0.217873 -20.1578 -0.984693 0.174298 0  255 255 255 255
-1.24859 -0.05936 -20.1517 -0.998872 -0.047488 0  255 255 255 255
-1.20494 -0.332606 -20.1333 -0.96395 -0.266085 0  255 255 255 255
-1.1032 -0.587752 -20.1189 -0.882559 -0.470202 0  255 255 255 255
-0.948903 -0.813685 -20.1107 -0.759122 -0.650948 0  255 255 255 255
-0.750189 -0.999858 -20.1071 -0.600152 -0.799886 0  255 255 255 255
-0.5172 -1.13798 -20.1081 -0.41376 -0.910386 0  255 255 255 255
-0.260891 -1.22247 -20.1109 -0.208713 -0.977977 0  255 255 255 255
0.002586 -1.25 -20.0991 0.002069 -0.999998 0  255 255 255 255
0.256819 -1.22333 -20.0893 0.205455 -0.978667 0  255 255 255 255
0.485595 -1.15182 -20.0815 0.388476 -0.921459 0  255 255 255 255
0.684427 -1.04597 -20.0276 0.547542 -0.836778 0  255 255 255 255
0.179476 -1.23705 -4.2065 0.143581 -0.989639 0  255 255 255 255
-0.058278 -1.24864 -4.2114 -0.046622 -0.998913 0  255 255 255 255
-0.296849 -1.21424 -4.32087 -0.237479 -0.971393 0  255 255 255 255
-0.583001 -1.10572 -4.33052 -0.466401 -0.884573 0  255 255 255 255
-0.822528 -0.941248 -4.3286 -0.658022 -0.752999 0  255 255 255 255
-1.01443 -0.730365 -4.33237 -0.811544 -0.584292 0  255 255 255 255
-1.15229 -0.484489 -4.32826 -0.921831 -0.387591 0  255 255 255 255
-1.23102 -0.216973 -4.33165 -0.98482 -0.173578 0  255 255 255 255
-1.24859 0.059337 -4.33403 -0.998873 0.04747 0  255 255 255 255
-1.20534 0.331128 -4.35105 -0.964275 0.264902 0  255 255 255 255
-1.10443 0.585433 -4.36675 -0.883545 0.468346 0  255 255 255 255
-0.950359 0.811983 -4.37632 -0.760288 0.649587 0  255 255 255 255
-0.750902 0.999323 -4.37914 -0.600722 0.799458 0  255 255 255 255
-0.517214 1.13798 -4.37538 -0.413771 0.910381 0  255 255 255 255
-0.261576 1.22232 -4.37023 -0.209261 0.97786 0  255 255 255 255
-0.000201 1.25 -4.38271 -0.000161 1 0  255 255 255 255
0.252202 1.22429 -4.39676 0.201761 0.979435 0  255 255 255 255
0.480768 1.15385 -4.40952 0.384615 0.923077 0  255 255 255 255
0.680114 1.04878 -4.46713 0.544091 0.839026 0  255 255 255 255
0.660526 1.06123 -16.2058 0.528421 0.848983 0  255 255 255 255
0.490777 1.14962 -16.3801 0.392622 0.9197 0  255 255 255 255
0.801484 -0.959231 -16.3812 0.641187 -0.767385 0  255 255 255 255
0.655818 -1.06414 -8.294 0.524654 -0.851315 0  255 255 255 255
0.474738 -1.15634 -8.09476 0.379791 -0.925072 0  255 255 255 255
0.801623 0.959115 -8.12442 0.641298 0.767292 0  255 255 255 255
0.93859 0.82556 -16.2886 0.750872 0.660448 0  255 255 255 255
0.94014 -0.823794 -8.21701 0.752112 -0.659035 0  255 255 255 255
1.18938 -0.384542 -22.7977 0.951505 -0.307633 0  255 255 255 255
1.18938 0.384544 -1.70232 0.951504 0.307635 0  255 255 255 255
1.15132 0.486798 -23.3105 0.921052 0.389438 0  255 255 255 255
1.15139 -0.48662 -1.18931 0.921113 -0.389296 0  255 255 255 255
1.20379 -0.336716 -15.2746 0.963036 -0.269373 0  255 255 255 255
1.20396 0.336141 -9.22543 0.963165 0.268913 0  255 255 255 255
1.21328 0.300752 -11.7851 0.970624 0.240602 0  255 255 255 255
1.21388 -0.29833 -12.7142 0.971102 -0.238664 0  255 255 255 255
0.732663 -1.01277 -20.339 0.586131 -0.810217 0  255 255 255 255
0.730481 1.01435 -4.15737 0.584385 0.811477 0  255 255 255 255
0.303657 1.21256 -20.4404 0.242925 0.970045 0  255 255 255 255
0.056557 1.24872 -20.4407 0.045246 0.998976 0  255 255 255 255
-0.191601 1.23523 -20.3974 -0.153281 0.988183 0  255 255 255 255
-0.452977 1.16504 -20.3451 -0.362382 0.93203 0  255 255 255 255
-0.708724 1.02966 -20.3441 -0.566979 0.823732 0  255 255 255 255
-0.924517 0.84129 -20.3396 -0.739614 0.673032 0  255 255 255 255
-1.09015 0.611608 -20.3349 -0.872123 0.489286 0  255 255 255 255
-1.19924 0.352593 -20.3301 -0.959393 0.282074 0  255 255 255 255
-1.24761 0.077273 -20.3224 -0.998087 0.061818 0  255 255 255 255
-1.23373 -0.200999 -20.3091 -0.986987 -0.1608 0  255 255 255 255
-1.15973 -0.466407 -20.2849 -0.927781 -0.373126 0  255 255 255 255
-1.03086 -0.706986 -20.273 -0.824687 -0.565589 0  255 255 255 255
-0.853397 -0.913353 -20.2667 -0.682717 -0.730683 0  255 255 255 255
-0.636805 -1.07563 -20.2655 -0.509444 -0.860504 0  255 255 255 255
-0.389909 -1.18763 -20.2742 -0.311927 -0.950106 0  255 255 255 255
-0.125849 -1.24365 -20.268 -0.100679 -0.994919 0  255 255 255 255
0.135897 -1.24259 -20.2464 0.108718 -0.994073 0  255 255 255 255
0.381417 -1.19039 -20.2314 0.305134 -0.952309 0  255 255 255 255
0.605541 -1.09354 -20.2036 0.484433 -0.874829 0  255 255 255 255
0.302814 -1.21277 -4.05503 0.242251 -0.970214 0  255 255 255 255
0.054642 -1.24881 -4.05505 0.043714 -0.999044 0  255 255 255 255
-0.194204 -1.23482 -4.09965 -0.155363 -0.987857 0  255 255 255 255
-0.45553 -1.16404 -4.15356 -0.364424 -0.931233 0  255 255 255 255
-0.710837 -1.02821 -4.15516 -0.56867 -0.822566 0  255 255 255 255
-0.925939 -0.839724 -4.15883 -0.740751 -0.671779 0  255 255 255 255
-1.09092 -0.610247 -4.16165 -0.872733 -0.488197 0  255 255 255 255
-1.19952 -0.351627 -4.1637 -0.95962 -0.281301 0  255 255 255 255
-1.24763 -0.076932 -4.16855 -0.998104 -0.061546 0  255 255 255 255
-1.23383 0.200427 -4.17984 -0.987062 0.160342 0  255 255 255 255
-1.16028 0.465028 -4.20367 -0.928224 0.372022 0  255 255 255 255
-1.03182 0.705575 -4.2163 -0.82546 0.56446 0  255 255 255 255
-0.854196 0.912606 -4.22256 -0.683357 0.730084 0  255 255 255 255
-0.637083 1.07546 -4.22251 -0.509666 0.860372 0  255 255 255 255
-0.390169 1.18755 -4.21213 -0.312135 0.950038 0  255 255 255 255
-0.127129 1.24352 -4.21772 -0.101703 0.994815 0  255 255 255 255
0.13315 1.24289 -4.24097 0.10652 0.994311 0  255 255 255 255
0.377868 1.19152 -4.25931 0.302294 0.953215 0  255 255 255 255
0.602086 1.09544 -4.29043 0.481669 0.876353 0  255 255 255 255
0.588517 1.10279 -20.4713 0.470814 0.882233 0  255 255 255 255
0.588404 -1.10285 -4.02472 0.470723 -0.882281 0  255 255 255 255
0.74884 1.00087 -10.7858 0.599072 0.800695 0  255 255 255 255
0.753302 -0.997515 -13.7091 0.602642 -0.798012 0  255 255 255 255
0.934519 0.830165 -10.7155 0.747616 0.664132 0  255 255 255 255
0.937093 -0.827258 -13.7811 0.749675 -0.661807 0  255 255 255 255
1.03025 0.707874 -13.8421 0.8242 0.566299 0  255 255 255 255
1.03028 -0.707828 -10.6521 0.824225 -0.566262 0  255 255 255 255
1.15507 0.477831 -12.0381 0.924053 0.382265 0  255 255 255 255
1.15678 -0.473664 -12.4612 0.925425 -0.378931 0  255 255 255 255
-0.358752 1.19741 -17.0793 -0.287002 0.95793 0  255 255 255 255
-0.928218 -0.837205 -17.043 -0.742574 -0.669764 0  255 255 255 255
-0.085271 -1.24709 -7.32269 -0.068217 -0.997671 0  255 255 255 255
-0.631115 -1.07898 -7.43031 -0.504892 -0.863183 0  255 255 255 255
-1.16089 -0.463505 -7.40378 -0.928711 -0.370804 0  255 255 255 255
-1.247 0.086472 -7.481 -0.997604 0.069177 0  255 255 255 255
-1.10185 0.590269 -7.5413 -0.881483 0.472215 0  255 255 255 255
-0.764503 0.988957 -7.54902 -0.611602 0.791166 0  255 255 255 255
1.19405 0.36978 -23.1289 0.955242 0.295824 0  255 255 255 255
1.19411 -0.369613 -1.37097 0.955284 -0.295691 0  255 255 255 255
0.939887 -0.824083 -19.2433 0.75191 -0.659266 0  255 255 255 255
0.934104 0.830632 -5.25764 0.747283 0.664505 0  255 255 255 255
0.490476 1.14975 -19.2098 0.392381 0.919803 0  255 255 255 255
0.205392 1.23301 -19.3047 0.164314 0.986408 0  255 255 255 255
-0.066612 1.24822 -19.3629 -0.05329 0.998579 0  255 255 255 255
-0.337703 1.20352 -19.4087 -0.270162 0.962815 0  255 255 255 255
-0.596716 1.09838 -19.4239 -0.477373 0.878701 0  255 255 255 255
-0.828573 0.935931 -19.4299 -0.662858 0.748745 0  255 255 255 255
-1.01936 0.723471 -19.4334 -0.815486 0.578777 0  255 255 255 255
-1.15724 0.472534 -19.4457 -0.925795 0.378027 0  255 255 255 255
-1.23186 0.21219 -19.4693 -0.985487 0.169752 0  255 255 255 255
-1.24899 -0.0503 -19.4501 -0.99919 -0.04024 0  255 255 255 255
-1.20792 -0.321604 -19.4324 -0.966336 -0.257283 0  255 255 255 255
-1.1065 -0.581512 -19.4224 -0.885201 -0.465209 0  255 255 255 255
-0.950975 -0.811262 -19.417 -0.76078 -0.649009 0  255 255 255 255
-0.750473 -0.999645 -19.4146 -0.600379 -0.799716 0  255 255 255 255
-0.516327 -1.13838 -19.414 -0.413062 -0.910703 0  255 255 255 255
-0.261355 -1.22237 -19.4145 -0.209084 -0.977898 0  255 255 255 255
-0.000556 -1.25 -19.4154 -0.000445 -1 0  255 255 255 255
0.253594 -1.22401 -19.4161 0.202875 -0.979205 0  255 255 255 255
0.54047 -1.12712 -19.3594 0.432376 -0.901693 0  255 255 255 255
0.814309 -0.948368 -19.3729 0.651447 -0.758694 0  255 255 255 255
0.492794 -1.14876 -5.28443 0.394235 -0.91901 0  255 255 255 255
0.208375 -1.23251 -5.19146 0.1667 -0.986008 0  255 255 255 255
-0.063779 -1.24837 -5.13502 -0.051023 -0.998697 0  255 255 255 255
-0.335951 -1.20401 -5.09051 -0.268761 -0.963207 0  255 255 255 255
-0.597037 -1.0982 -5.0754 -0.47763 -0.878561 0  255 255 255 255
-0.831349 -0.933466 -5.06708 -0.665079 -0.746773 0  255 255 255 255
-1.02355 -0.717529 -5.05705 -0.818839 -0.574023 0  255 255 255 255
-1.1593 -0.467458 -5.03613 -0.927442 -0.373967 0  255 255 255 255
-1.2325 -0.208456 -5.00313 -0.985997 -0.166764 0  255 255 255 255
-1.24878 0.055263 -4.99636 -0.999022 0.04421 0  255 255 255 255
-1.20941 0.315971 -5.00696 -0.967525 0.252777 0  255 255 255 255
-1.11433 0.566367 -5.04145 -0.891463 0.453094 0  255 255 255 255
-0.959084 0.80166 -5.0597 -0.767267 0.641328 0  255 255 255 255
-0.752619 0.998031 -5.05952 -0.602095 0.798425 0  255 255 255 255
-0.51244 1.14013 -5.04747 -0.409952 0.912107 0  255 255 255 255
-0.25853 1.22297 -5.02338 -0.206824 0.978378 0  255 255 255 255
-0.011331 1.24995 -5.02343 -0.009065 0.999959 0  255 255 255 255
0.231581 1.22836 -5.05266 0.185265 0.982689 0  255 255 255 255
0.521324 1.1361 -5.13237 0.417059 0.908879 0  255 255 255 255
0.805549 0.95582 -5.12613 0.644439 0.764656 0  255 255 255 255
0.778741 0.977784 -19.1813 0.622993 0.782227 0  255 255 255 255
0.779626 -0.977079 -5.3127 0.623701 -0.781663 0  255 255 255 255
1.17501 0.426439 -13.1751 0.940008 0.341151 0  255 255 255 255
1.17556 -0.424913 -11.3245 0.940451 -0.33993 0  255 255 255 255
0.462622 -1.16124 -15.386 0.370097 -0.928993 0  255 255 255 255
0.468008 1.15908 -9.11294 0.374406 0.927265 0  255 255 255 255
0.825173 -0.93893 -15.4998 0.660139 -0.751144 0  255 255 255 255
0.82754 0.936845 -9.00115 0.662032 0.749476 0  255 255 255 255
1.06515 -0.654177 -20.6253 0.852123 -0.523341 0  255 255 255 255
1.06474 0.654842 -3.87401 0.851796 0.523874 0  255 255 255 255
0.636037 1.07608 -13.5018 0.508829 0.860867 0  255 255 255 255
0.378629 1.19128 -11.0111 0.302903 0.953021 0  255 255 255 255
-0.152956 1.24061 -13.4539 -0.122365 0.992485 0  255 255 255 255
0.131984 -1.24301 -11.0374 0.105587 -0.99441 0  255 255 255 255
0.387753 -1.18834 -13.4801 0.310203 -0.95067 0  255 255 255 255
0.595934 -1.0988 -10.9951 0.476748 -0.87904 0  255 255 255 255
0.929471 0.835813 -13.6104 0.743577 0.66865 0  255 255 255 255
0.927304 -0.838216 -10.8842 0.741844 -0.670573 0  255 255 255 255
0.547128 1.1239 -18.2152 0.437702 0.89912 0  255 255 255 255
0.269979 1.2205 -18.1909 0.215983 0.976397 0  255 255 255 255
0.011873 1.24994 -18.2255 0.009499 0.999955 0  255 255 255 255
-0.250752 1.22459 -18.2486 -0.200602 0.979673 0  255 255 255 255
-0.500671 1.14535 -18.2578 -0.400537 0.916281 0  255 255 255 255
-0.731898 1.01332 -18.2478 -0.585518 0.810659 0  255 255 255 255
-0.936717 0.827684 -18.2487 -0.749374 0.662147 0  255 255 255 255
-1.09633 0.600461 -18.2383 -0.877067 0.480369 0  255 255 255 255
-1.20267 0.340718 -18.2417 -0.962135 0.272574 0  255 255 255 255
-1.24833 0.064671 -18.2331 -0.998661 0.051737 0  255 255 255 255
-1.23267 -0.207445 -18.2345 -0.986133 -0.165956 0  255 255 255 255
-1.15798 -0.470719 -18.2491 -0.926386 -0.376575 0  255 255 255 255
-1.02631 -0.71358 -18.2475 -0.821045 -0.570864 0  255 255 255 255
-0.848296 -0.918092 -18.2525 -0.678637 -0.734474 0  255 255 255 255
-0.627427 -1.08113 -18.2395 -0.501942 -0.864902 0  255 255 255 255
-0.375203 -1.19236 -18.2393 -0.300163 -0.953888 0  255 255 255 255
-0.09788 -1.24616 -18.2289 -0.078304 -0.99693 0  255 255 255 255
0.197296 -1.23433 -18.2415 0.157837 -0.987465 0  255 255 255 255
0.530618 -1.13179 -18.2675 0.424494 -0.905431 0  255 255 255 255
0.553208 -1.12092 -6.25864 0.442567 -0.896736 0  255 255 255 255
0.284122 -1.21728 -6.28869 0.227297 -0.973825 0  255 255 255 255
0.028473 -1.24968 -6.26982 0.022778 -0.999741 0  255 255 255 255
-0.238572 -1.22702 -6.25841 -0.190857 -0.981618 0  255 255 255 255
-0.495433 -1.14763 -6.251 -0.396347 -0.918101 0  255 255 255 255
-0.730825 -1.0141 -6.2599 -0.58466 -0.811278 0  255 255 255 255
-0.939243 -0.824816 -6.26629 -0.751395 -0.659853 0  255 255 255 255
-1.10151 -0.590911 -6.29092 -0.881208 -0.472729 0  255 255 255 255
-1.2048 -0.333112 -6.29368 -0.963838 -0.266489 0  255 255 255 255
-1.24836 -0.063976 -6.28523 -0.998689 -0.05118 0  255 255 255 255
-1.23301 0.205374 -6.27226 -0.986411 0.164299 0  255 255 255 255
-1.1613 0.462472 -6.25971 -0.929041 0.369978 0  255 255 255 255
-1.03669 0.698407 -6.25129 -0.829352 0.558726 0  255 255 255 255
-0.85802 0.909011 -6.24826 -0.686416 0.727209 0  255 255 255 255
-0.627601 1.08103 -6.28072 -0.502081 0.864821 0  255 255 255 255
-0.372146 1.19332 -6.30343 -0.297717 0.954654 0  255 255 255 255
-0.102165 1.24582 -6.31219 -0.081732 0.996654 0  255 255 255 255
0.187586 1.23584 -6.30181 0.150069 0.988676 0  255 255 255 255
0.515981 1.13854 -6.25479 0.412785 0.910829 0  255 255 255 255
0.792547 0.966628 -18.4098 0.634038 0.773302 0  255 255 255 255
0.793584 -0.965776 -6.07509 0.634867 -0.772621 0  255 255 255 255
0.997427 0.753419 -18.3853 0.797941 0.602735 0  255 255 255 255
0.99692 -0.754089 -6.10512 0.797536 -0.603271 0  255 255 255 255
0.886931 -0.880826 -18.7265 0.709545 -0.70466 0  255 255 255 255
0.878712 0.889025 -5.7789 0.702969 0.71122 0  255 255 255 255
1.20095 0.346737 -19.7557 0.960758 0.277389 0  255 255 255 255
1.20092 -0.346818 -4.74312 0.960739 -0.277454 0  255 255 255 255
0.768017 0.98623 -7.79783 0.614414 0.788984 0  255 255 255 255
0.770139 -0.984574 -16.709 0.616111 -0.787659 0  255 255 255 255
1.2056 -0.33021 -23.5407 0.964477 -0.264168 0  255 255 255 255
1.2056 0.33021 -0.95933 0.964477 0.264168 0  255 255 255 255
1.19361 -0.371211 -19.225 0.954887 -0.296968 0  255 255 255 255
1.19302 0.373084 -5.27558 0.95442 0.298467 0  255 255 255 255
1.18286 0.404161 -16.3201 0.946287 0.323329 0  255 255 255 255
1.18308 -0.403496 -8.1825 0.946468 -0.322797 0  255 255 255 255
1.20448 0.334259 -19.4464 0.963584 0.267407 0  255 255 255 255
1.20445 -0.334364 -5.05211 0.96356 -0.267491 0  255 255 255 255
1.23216 -0.210426 -21.9118 0.985729 -0.168341 0  255 255 255 255
1.23216 0.210438 -2.58817 0.985727 0.16835 0  255 255 255 255
1.20781 0.322008 -21.7747 0.96625 0.257606 0  255 255 255 255
1.20788 -0.321767 -2.72472 0.966301 -0.257413 0  255 255 255 255
1.22322 0.25737 -18.3819 0.978574 0.205896 0  255 255 255 255
1.22309 -0.257988 -6.11587 0.97847 -0.206391 0  255 255 255 255
1.1906 -0.380763 -19.9683 0.952477 -0.304611 0  255 255 255 255
1.19028 0.381746 -4.53164 0.952225 0.305397 0  255 255 255 255
1.22884 -0.229004 -19.7392 0.983075 -0.183204 0  255 255 255 255
1.2287 0.229803 -4.76091 0.982956 0.183842 0  255 255 255 255
