ply
format ascii 1.0
comment VCGLIB generated
element vertex 978
property float x
property float y
property float z
property float nx
property float ny
property float nz
property uchar red
property uchar green
property uchar blue
property uchar alpha
element face 0
property list uchar int vertex_indices
end_header
-17.201 -40.9351 33.1445 -1 0 0  255 255 255 255
-17.201 -38.0924 30.956 -1 0 0  255 255 255 255
-17.201 -53.9607 35.5948 -1 0 0  255 255 255 255
-17.201 -36.0076 32.7781 -1 0 0  255 255 255 255
-17.201 -25.6474 34.4968 -1 0 0  255 255 255 255
-17.201 -46.8562 33.3351 -1 0 0  255 255 255 255
-17.201 -40.3594 32.8664 -1 0 0  255 255 255 255
-17.201 -58.334 32.7268 -1 0 0  255 255 255 255
-17.201 -25.1648 31.7505 -1 0 0  255 255 255 255
-17.201 -21.9925 29.0256 -1 0 0  255 255 255 255
-17.201 -51.4132 29.0252 -1 0 0  255 255 255 255
-17.201 -47.36 35.6165 -1 0 0  255 255 255 255
-17.201 -11.8835 31.3118 -1 0 0  255 255 255 255
-17.201 -36.5257 34.1708 -1 0 0  255 255 255 255
-17.201 -18.848 29.0013 -1 0 0  255 255 255 255
-17.201 -29.6318 33.5426 -1 0 0  255 255 255 255
-17.201 -49.9295 31.6056 -1 0 0  255 255 255 255
-17.201 -15.541 30.0585 -1 0 0  255 255 255 255
-17.201 -53.6215 29.9606 -1 0 0  255 255 255 255
-17.201 -21.1597 31.7159 -1 0 0  255 255 255 255
-17.201 -51.3963 35.7111 -1 0 0  255 255 255 255
-17.201 -58.0992 35.6697 -1 0 0  255 255 255 255
-17.201 -24.0697 30.9806 -1 0 0  255 255 255 255
-17.201 -28.7827 34.6277 -1 0 0  255 255 255 255
-17.201 -23.3169 29.3931 -1 0 0  255 255 255 255
-17.201 -24.0982 35.7146 -1 0 0  255 255 255 255
-17.201 -60.2164 28.9684 -1 0 0  255 255 255 255
-17.201 -18.7437 30.5892 -1 0 0  255 255 255 255
-17.201 -55.9869 30.1507 -1 0 0  255 255 255 255
-17.201 -58.4133 34.4945 -1 0 0  255 255 255 255
-17.201 -31.7714 32.8603 -1 0 0  255 255 255 255
-17.201 -17.5353 34.0072 -1 0 0  255 255 255 255
-17.201 -7.67192 34.0781 -1 0 0  255 255 255 255
-17.201 -41.9585 34.5682 -1 0 0  255 255 255 255
-17.201 -51.6419 32.2782 -1 0 0  255 255 255 255
-17.201 -61.8204 30.6002 -1 0 0  255 255 255 255
-17.201 -59.1163 31.5968 -1 0 0  255 255 255 255
-17.201 -32.0509 35.7377 -1 0 0  255 255 255 255
-17.201 -32.3608 29.3771 -1 0 0  255 255 255 255
-17.201 -12.2843 34.7646 -1 0 0  255 255 255 255
-17.201 -13.0941 29.093 -1 0 0  255 255 255 255
-17.201 -10.5442 31.5843 -1 0 0  255 255 255 255
-17.201 -53.2414 31.3028 -1 0 0  255 255 255 255
-17.201 -56.88 30.281 -1 0 0  255 255 255 255
-17.201 -21.5566 34.9239 -1 0 0  255 255 255 255
-17.201 -16.0699 31.645 -1 0 0  255 255 255 255
-17.201 -26.5564 35.6165 -1 0 0  255 255 255 255
-17.201 -43.0969 32.9347 -1 0 0  255 255 255 255
-17.201 -61.9903 29.0703 -1 0 0  255 255 255 255
-17.201 -52.7992 34.8775 -1 0 0  255 255 255 255
-17.201 -30.092 29.4305 -1 0 0  255 255 255 255
-17.201 -61.7838 33.0252 -1 0 0  255 255 255 255
-17.201 -13.7351 31.671 -1 0 0  255 255 255 255
-17.201 -61.868 34.2166 -1 0 0  255 255 255 255
-17.201 -34.0971 29.4802 -1 0 0  255 255 255 255
-17.201 -52.0889 31.6999 -1 0 0  255 255 255 255
-17.201 -29.7566 35.6968 -1 0 0  255 255 255 255
-17.201 -41.195 31.677 -1 0 0  255 255 255 255
-17.201 -46.6724 31.6937 -1 0 0  255 255 255 255
-17.201 -36.8391 31.6875 -1 0 0  255 255 255 255
-17.201 -56.8745 29.059 -1 0 0  255 255 255 255
-17.201 -48.932 32.8333 -1 0 0  255 255 255 255
-17.201 -57.6731 30.0773 -1 0 0  255 255 255 255
-17.201 -20.6503 34.9475 -1 0 0  255 255 255 255
-17.201 -50.8795 33.5605 -1 0 0  255 255 255 255
-17.201 -45.4019 35.858 -1 0 0  255 255 255 255
-17.201 -33.6998 31.5794 -1 0 0  255 255 255 255
-17.201 -38.0011 31.5808 -1 0 0  255 255 255 255
-17.201 -42.3822 31.5896 -1 0 0  255 255 255 255
-17.201 -45.5277 31.5565 -1 0 0  255 255 255 255
-17.201 -43.2636 35.666 -1 0 0  255 255 255 255
-17.201 -33.7976 30.969 -1 0 0  255 255 255 255
-17.201 -59.612 34.8442 -1 0 0  255 255 255 255
-17.201 -37.8306 35.6836 -1 0 0  255 255 255 255
-17.201 -52.6392 29.0816 -1 0 0  255 255 255 255
-17.201 -60.3652 33.0109 -1 0 0  255 255 255 255
-17.201 -61.8222 31.7732 -1 0 0  255 255 255 255
-17.201 -12.5963 33.5471 -1 0 0  255 255 255 255
-17.201 -60.5631 35.686 -1 0 0  255 255 255 255
-17.201 -59.1694 30.9501 -1 0 0  255 255 255 255
-17.201 -12.2947 32.431 -1 0 0  255 255 255 255
-17.201 -40.2533 35.6527 -1 0 0  255 255 255 255
-17.201 -30.9894 29.3731 -1 0 0  255 255 255 255
-17.201 -29.5429 34.8365 -1 0 0  255 255 255 255
-17.201 -27.6192 35.8101 -1 0 0  255 255 255 255
-17.201 -11.3477 29.1149 -1 0 0  255 255 255 255
-17.201 -52.5798 32.9572 -1 0 0  255 255 255 255
-17.201 -23.611 33.6154 -1 0 0  255 255 255 255
-17.201 -30.8626 34.874 -1 0 0  255 255 255 255
-17.201 -55.0691 35.7577 -1 0 0  255 255 255 255
-17.201 -56.4348 34.6172 -1 0 0  255 255 255 255
-17.201 -52.5069 33.7562 -1 0 0  255 255 255 255
-17.201 -4.57991 33.8798 -1 0 0  255 255 255 255
-17.201 -27.2937 29.2995 -1 0 0  255 255 255 255
-17.201 -3.87267 33.9004 -1 0 0  255 255 255 255
-17.201 -14.9897 35.7828 -1 0 0  255 255 255 255
-17.201 -20.0214 29.0248 -1 0 0  255 255 255 255
-17.201 -10.5589 29.8846 -1 0 0  255 255 255 255
-17.201 -27.3769 31.8168 -1 0 0  255 255 255 255
-17.201 -54.8806 34.6488 -1 0 0  255 255 255 255
-17.201 -16.8378 31.8658 -1 0 0  255 255 255 255
-17.201 -49.6701 35.7756 -1 0 0  255 255 255 255
-17.201 -51.744 34.7997 -1 0 0  255 255 255 255
-17.201 -38.7116 34.8065 -1 0 0  255 255 255 255
-17.201 -44.7964 34.8117 -1 0 0  255 255 255 255
-17.201 -33.7818 35.757 -1 0 0  255 255 255 255
-17.201 -22.44 34.2338 -1 0 0  255 255 255 255
-17.201 -59.9602 30.1035 -1 0 0  255 255 255 255
-17.201 -14.1688 33.0734 -1 0 0  255 255 255 255
-17.201 -22.5083 33.5 -1 0 0  255 255 255 255
-17.201 -34.4529 34.6771 -1 0 0  255 255 255 255
-17.201 -7.7617 35.8062 -1 0 0  255 255 255 255
-17.201 -13.5467 34.8984 -1 0 0  255 255 255 255
-17.201 -24.4454 34.841 -1 0 0  255 255 255 255
-17.201 -13.4109 32.884 -1 0 0  255 255 255 255
-17.201 -58.093 28.9664 -1 0 0  255 255 255 255
-17.201 -16.5955 35.8082 -1 0 0  255 255 255 255
-17.201 -62.9215 31.0708 -1 0 0  255 255 255 255
-17.201 -27.6273 30.3797 -1 0 0  255 255 255 255
-17.201 -26.7706 34.8123 -1 0 0  255 255 255 255
-17.201 -26.553 30.3587 -1 0 0  255 255 255 255
-17.201 -49.0331 34.7392 -1 0 0  255 255 255 255
-17.201 -14.35 29.7312 -1 0 0  255 255 255 255
-17.201 -52.2556 30.4938 -1 0 0  255 255 255 255
-17.201 -62.999 33.7593 -1 0 0  255 255 255 255
-17.201 -14.1918 33.8397 -1 0 0  255 255 255 255
-17.201 -31.7493 34.869 -1 0 0  255 255 255 255
-17.201 -58.7074 33.867 -1 0 0  255 255 255 255
-17.201 -11.4686 35.6554 -1 0 0  255 255 255 255
-17.201 -31.432 31.0997 -1 0 0  255 255 255 255
-17.201 -27.7424 33.818 -1 0 0  255 255 255 255
-17.201 -18.7039 32.9424 -1 0 0  255 255 255 255
-17.201 -58.9181 29.7596 -1 0 0  255 255 255 255
-17.201 -59.7873 31.9952 -1 0 0  255 255 255 255
-17.201 -12.7035 31.1903 -1 0 0  255 255 255 255
-17.201 -14.5567 34.7922 -1 0 0  255 255 255 255
-17.201 -11.1711 32.8429 -1 0 0  255 255 255 255
-17.201 -41.3297 34.7723 -1 0 0  255 255 255 255
-17.201 -19.714 32.492 -1 0 0  255 255 255 255
-17.201 -55.6063 32.4482 -1 0 0  255 255 255 255
-17.201 -17.9556 35.0587 -1 0 0  255 255 255 255
-17.201 -51.0679 31.1331 -1 0 0  255 255 255 255
-17.201 -21.5353 32.8321 -1 0 0  255 255 255 255
-17.201 -30.0314 30.1685 -1 0 0  255 255 255 255
-17.201 -4.50856 34.9365 -1 0 0  255 255 255 255
-17.201 -6.75301 34.7844 -1 0 0  255 255 255 255
-17.201 -13.3568 29.8875 -1 0 0  255 255 255 255
-17.201 -20.7635 33.8513 -1 0 0  255 255 255 255
-17.201 -32.123 30.1658 -1 0 0  255 255 255 255
-17.201 -16.2778 29.083 -1 0 0  255 255 255 255
-17.201 -25.7809 29.2784 -1 0 0  255 255 255 255
-17.201 -11.2878 31.773 -1 0 0  255 255 255 255
-17.201 -25.2335 35.0127 -1 0 0  255 255 255 255
-17.201 -43.6862 33.178 -1 0 0  255 255 255 255
-17.201 -25.156 30.4359 -1 0 0  255 255 255 255
-17.201 -15.2188 33.6916 -1 0 0  255 255 255 255
-17.201 -22.2564 31.0325 -1 0 0  255 255 255 255
-17.201 -59.524 34.002 -1 0 0  255 255 255 255
-17.201 -48.6268 30.1002 -1 0 0  255 255 255 255
-17.201 -37.7212 34.5168 -1 0 0  255 255 255 255
-17.201 -52.3156 29.8156 -1 0 0  255 255 255 255
-17.201 -30.5376 31.9884 -1 0 0  255 255 255 255
-17.201 -56.4942 35.7669 -1 0 0  255 255 255 255
-17.201 -32.5683 31.6844 -1 0 0  255 255 255 255
-17.201 -17.7771 31.5353 -1 0 0  255 255 255 255
-17.201 -25.2023 33.9954 -1 0 0  255 255 255 255
-17.201 -39.5756 29.2829 -1 0 0  255 255 255 255
-17.201 -35.2381 29.2829 -1 0 0  255 255 255 255
-17.201 -19.5295 31.7992 -1 0 0  255 255 255 255
-17.201 -43.9519 29.2831 -1 0 0  255 255 255 255
-17.201 -32.3165 33.1267 -1 0 0  255 255 255 255
-17.201 -16.8279 29.8863 -1 0 0  255 255 255 255
-17.201 -35.494 33.1034 -1 0 0  255 255 255 255
-17.201 -56.865 32.7494 -1 0 0  255 255 255 255
-17.201 -49.6344 33.102 -1 0 0  255 255 255 255
-17.201 -35.8151 35.8544 -1 0 0  255 255 255 255
-17.201 -62.8755 34.9354 -1 0 0  255 255 255 255
-17.201 -47.9444 31.1607 -1 0 0  255 255 255 255
-17.201 -49.1385 29.2899 -1 0 0  255 255 255 255
-17.201 -62.8843 29.8737 -1 0 0  255 255 255 255
-17.201 -54.2155 29.0165 -1 0 0  255 255 255 255
-17.201 -22.3949 35.7927 -1 0 0  255 255 255 255
-17.201 -23.0277 30.4232 -1 0 0  255 255 255 255
-17.201 -61.6036 31.2477 -1 0 0  255 255 255 255
-17.201 -31.1512 29.9783 -1 0 0  255 255 255 255
-17.201 -35.0278 35.8244 -1 0 0  255 255 255 255
-17.201 -50.4469 30.3717 -1 0 0  255 255 255 255
-17.201 -30.7477 34.2059 -1 0 0  255 255 255 255
-17.201 -16.8728 34.765 -1 0 0  255 255 255 255
-17.201 -28.578 31.153 -1 0 0  255 255 255 255
-17.201 -45.7679 34.5113 -1 0 0  255 255 255 255
-17.201 -18.2043 32.5387 -1 0 0  255 255 255 255
-17.201 -16.1083 30.9264 -1 0 0  255 255 255 255
-17.201 -30.2599 31.3186 -1 0 0  255 255 255 255
-17.201 -52.8857 34.2641 -1 0 0  255 255 255 255
-17.201 -12.5194 29.0002 -1 0 0  255 255 255 255
-17.201 -10.0856 34.8858 -1 0 0  255 255 255 255
-17.201 -54.441 32.7185 -1 0 0  255 255 255 255
-17.201 -34.2655 32.8126 -1 0 0  255 255 255 255
-17.201 -48.7875 34.0712 -1 0 0  255 255 255 255
-17.201 -60.43 33.6109 -1 0 0  255 255 255 255
-17.201 -6.32891 35.838 -1 0 0  255 255 255 255
-17.201 -38.7023 32.7872 -1 0 0  255 255 255 255
-17.201 -15.0514 31.1265 -1 0 0  255 255 255 255
-17.201 -44.9422 32.8114 -1 0 0  255 255 255 255
-17.201 -43.117 29.3751 -1 0 0  255 255 255 255
-17.201 -5.91442 34.8591 -1 0 0  255 255 255 255
-17.201 -10.4333 31.0035 -1 0 0  255 255 255 255
-17.201 -11.6258 33.7365 -1 0 0  255 255 255 255
-17.201 -12.9169 35.8427 -1 0 0  255 255 255 255
-17.201 -40.3987 29.4123 -1 0 0  255 255 255 255
-17.201 -47.4691 29.4601 -1 0 0  255 255 255 255
-17.201 -36.0613 29.4121 -1 0 0  255 255 255 255
-17.201 -24.543 34.0243 -1 0 0  255 255 255 255
-17.201 -21.1005 29.7041 -1 0 0  255 255 255 255
-17.201 -61.5949 33.5904 -1 0 0  255 255 255 255
-17.201 -18.1175 29.0382 -1 0 0  255 255 255 255
-17.201 -48.4084 35.8501 -1 0 0  255 255 255 255
-17.201 -31.7421 34.1982 -1 0 0  255 255 255 255
-17.201 -3.78858 34.8699 -1 0 0  255 255 255 255
-17.201 -39.2503 31.1999 -1 0 0  255 255 255 255
-17.201 -24.6711 31.0594 -1 0 0  255 255 255 255
-17.201 -34.9123 31.1974 -1 0 0  255 255 255 255
-17.201 -18.7019 35.8098 -1 0 0  255 255 255 255
-17.201 -39.3447 33.1451 -1 0 0  255 255 255 255
-17.201 -19.7636 30.1143 -1 0 0  255 255 255 255
-17.201 -41.7476 35.8615 -1 0 0  255 255 255 255
-17.201 -60.7149 34.58 -1 0 0  255 255 255 255
-17.201 -18.5212 34.5768 -1 0 0  255 255 255 255
-17.201 -14.3726 32.0052 -1 0 0  255 255 255 255
-17.201 -9.58799 33.7693 -1 0 0  255 255 255 255
-17.201 -18.6643 33.5185 -1 0 0  255 255 255 255
-17.201 -21.4851 33.8703 -1 0 0  255 255 255 255
-17.201 -23.9741 32.0706 -1 0 0  255 255 255 255
-17.201 -55.9252 31.3399 -1 0 0  255 255 255 255
-17.201 -39.9315 31.1178 -1 0 0  255 255 255 255
-17.201 -11.2711 34.9935 -1 0 0  255 255 255 255
-17.201 -49.7026 31.0197 -1 0 0  255 255 255 255
-17.201 -39.4029 35.7954 -1 0 0  255 255 255 255
-17.201 -35.61 31.1105 -1 0 0  255 255 255 255
-17.201 -57.6596 32.6117 -1 0 0  255 255 255 255
-17.201 -49.8028 33.6426 -1 0 0  255 255 255 255
-17.201 -2.59046 34.8426 -1 0 0  255 255 255 255
-17.201 -43.5754 31.1217 -1 0 0  255 255 255 255
-17.201 -44.2472 31.1905 -1 0 0  255 255 255 255
-17.201 -8.02229 34.843 -1 0 0  255 255 255 255
-17.201 -29.6359 31.3613 -1 0 0  255 255 255 255
-17.201 -22.3334 29.996 -1 0 0  255 255 255 255
-17.201 -63.0148 32.4089 -1 0 0  255 255 255 255
-17.201 -15.0629 28.9878 -1 0 0  255 255 255 255
-17.201 -50.9482 29.9552 -1 0 0  255 255 255 255
-17.201 -19.7346 33.5967 -1 0 0  255 255 255 255
-17.201 -60.6787 30.3037 -1 0 0  255 255 255 255
-17.201 -17.3699 28.9628 -1 0 0  255 255 255 255
-17.201 -29.4538 29.2502 -1 0 0  255 255 255 255
-17.201 -50.5428 32.5514 -1 0 0  255 255 255 255
-17.201 -48.5976 31.1508 -1 0 0  255 255 255 255
-17.201 -25.2547 29.277 -1 0 0  255 255 255 255
-17.201 -23.798 33.0484 -1 0 0  255 255 255 255
-17.201 -51.094 28.7588 -1 0 0  255 255 255 255
-17.201 -22.312 28.7589 -1 0 0  255 255 255 255
-17.201 -39.2738 35.0798 -1 0 0  255 255 255 255
-17.201 -34.6535 34.0834 -1 0 0  255 255 255 255
-17.201 -20.5339 31.6601 -1 0 0  255 255 255 255
-17.201 -54.2769 30.75 -1 0 0  255 255 255 255
-17.201 -38.9795 34.1229 -1 0 0  255 255 255 255
-17.201 -43.9888 30.0161 -1 0 0  255 255 255 255
-17.201 -26.0314 30.2596 -1 0 0  255 255 255 255
-17.201 -39.5396 30.011 -1 0 0  255 255 255 255
-17.201 -44.5528 34.1197 -1 0 0  255 255 255 255
-17.201 -35.1966 30.0066 -1 0 0  255 255 255 255
-17.201 -58.0302 30.7625 -1 0 0  255 255 255 255
-17.201 -46.7815 35.8438 -1 0 0  255 255 255 255
-17.201 -60.8314 28.9854 -1 0 0  255 255 255 255
-17.201 -51.885 33.9551 -1 0 0  255 255 255 255
-17.201 -22.8683 32.5158 -1 0 0  255 255 255 255
-17.201 -44.2415 35.077 -1 0 0  255 255 255 255
-17.201 -48.1523 34.0017 -1 0 0  255 255 255 255
-17.201 -44.1589 35.803 -1 0 0  255 255 255 255
-17.201 -34.9524 35.067 -1 0 0  255 255 255 255
-17.201 -21.8369 34.4105 -1 0 0  255 255 255 255
-17.201 -2.5843 35.9177 -1 0 0  255 255 255 255
-17.201 -53.4174 35.804 -1 0 0  255 255 255 255
-17.201 -24.262 29.2276 -1 0 0  255 255 255 255
-17.201 -29.2982 31.9807 -1 0 0  255 255 255 255
-17.201 -8.60774 35.8311 -1 0 0  255 255 255 255
-17.201 -0.498268 33.8065 -1 0 0  255 255 255 255
-17.201 -51.8413 32.8322 -1 0 0  255 255 255 255
-17.201 -55.3087 31.5162 -1 0 0  255 255 255 255
-17.201 -24.6605 32.1491 -1 0 0  255 255 255 255
-17.201 -30.7374 33.0632 -1 0 0  255 255 255 255
-17.201 -48.4439 35.1297 -1 0 0  255 255 255 255
-17.201 -2.42703 33.8022 -1 0 0  255 255 255 255
-17.201 -54.9136 29.8128 -1 0 0  255 255 255 255
-17.201 -1.05264 33.744 -1 0 0  255 255 255 255
-17.201 -4.89805 34.43 -1 0 0  255 255 255 255
-17.201 -55.1842 35.221 -1 0 0  255 255 255 255
-17.201 -25.8879 31.2535 -1 0 0  255 255 255 255
-17.201 -13.6055 34.0304 -1 0 0  255 255 255 255
-17.201 -0.519724 35.888 -1 0 0  255 255 255 255
-17.201 -61.3241 32.3957 -1 0 0  255 255 255 255
-17.201 -56.194 28.9736 -1 0 0  255 255 255 255
-17.201 -8.61043 34.7905 -1 0 0  255 255 255 255
-17.201 -20.4718 34.4164 -1 0 0  255 255 255 255
-17.201 -22.455 29.1087 -1 0 0  255 255 255 255
-17.201 -8.24411 33.8252 -1 0 0  255 255 255 255
-17.201 -29.032 30.1618 -1 0 0  255 255 255 255
-17.201 -42.2922 35.0388 -1 0 0  255 255 255 255
-17.201 -50.9512 29.1083 -1 0 0  255 255 255 255
-17.201 -32.531 33.582 -1 0 0  255 255 255 255
-17.201 -53.7113 33.6657 -1 0 0  255 255 255 255
-17.201 -22.8925 29.0865 -1 0 0  255 255 255 255
-17.201 -50.5447 29.0713 -1 0 0  255 255 255 255
-17.201 -55.4077 29.0111 -1 0 0  255 255 255 255
-17.201 -54.4356 35.873 -1 0 0  255 255 255 255
-17.201 -5.96308 33.8442 -1 0 0  255 255 255 255
-17.201 -57.5568 31.883 -1 0 0  255 255 255 255
-17.201 -29.1515 35.9196 -1 0 0  255 255 255 255
-17.201 -1.07439 35.9395 -1 0 0  255 255 255 255
-17.201 -44.2493 33.0373 -1 0 0  255 255 255 255
-17.201 -16.426 33.8078 -1 0 0  255 255 255 255
-17.201 -11.8993 31.9187 -1 0 0  255 255 255 255
-17.201 -14.9087 32.966 -1 0 0  255 255 255 255
-17.201 -54.1089 30.2366 -1 0 0  255 255 255 255
-17.201 -28.6084 31.8137 -1 0 0  255 255 255 255
-17.201 -17.6953 33.436 -1 0 0  255 255 255 255
-17.201 -34.9329 33.0222 -1 0 0  255 255 255 255
-17.201 -10.3321 33.6105 -1 0 0  255 255 255 255
-17.201 -28.0078 34.4071 -1 0 0  255 255 255 255
-17.201 -58.7282 35.899 -1 0 0  255 255 255 255
-17.201 -31.2464 33.8877 -1 0 0  255 255 255 255
-17.201 -56.2155 35.2007 -1 0 0  255 255 255 255
-17.201 -57.6387 33.6792 -1 0 0  255 255 255 255
-17.201 -31.2598 31.7759 -1 0 0  255 255 255 255
-17.201 -1.96917 34.8342 -1 0 0  255 255 255 255
-17.201 -23.4416 35.8415 -1 0 0  255 255 255 255
-17.201 -23.4904 30.9674 -1 0 0  255 255 255 255
-17.201 -15.385 32.5387 -1 0 0  255 255 255 255
-17.201 -49.498 31.942 -1 0 0  255 255 255 255
-17.201 -23.4738 29.9828 -1 0 0  255 255 255 255
-17.201 -26.6249 31.0198 -1 0 0  255 255 255 255
-17.201 -51.0447 32.2481 -1 0 0  255 255 255 255
-17.201 -26.1489 32.27 -1 0 0  255 255 255 255
-17.201 -38.7248 29.3337 -1 0 0  255 255 255 255
-17.201 -44.8025 29.3337 -1 0 0  255 255 255 255
-17.201 -27.0461 35.8945 -1 0 0  255 255 255 255
-17.201 -17.01 30.719 -1 0 0  255 255 255 255
-17.201 -53.1734 28.9282 -1 0 0  255 255 255 255
-17.201 -32.9092 29.2762 -1 0 0  255 255 255 255
-17.201 -50.762 34.2777 -1 0 0  255 255 255 255
-17.201 -40.0715 34.9323 -1 0 0  255 255 255 255
-17.201 -51.4773 33.3884 -1 0 0  255 255 255 255
-17.201 -15.3914 34.3056 -1 0 0  255 255 255 255
-17.201 -48.1193 29.2605 -1 0 0  255 255 255 255
-17.201 -43.4735 34.9485 -1 0 0  255 255 255 255
-17.201 -19.7581 35.8299 -1 0 0  255 255 255 255
-17.201 -13.0689 31.607 -1 0 0  255 255 255 255
-17.201 -35.7726 34.9687 -1 0 0  255 255 255 255
-17.201 -24.0511 30.2098 -1 0 0  255 255 255 255
-17.201 -63.0113 31.6254 -1 0 0  255 255 255 255
-17.201 -22.339 32.0354 -1 0 0  255 255 255 255
-17.201 -63.0069 33.1705 -1 0 0  255 255 255 255
-17.201 -49.9654 29.9162 -1 0 0  255 255 255 255
-17.201 -27.0533 30.5346 -1 0 0  255 255 255 255
-17.201 -12.5588 30.2018 -1 0 0  255 255 255 255
-17.201 -59.7199 30.722 -1 0 0  255 255 255 255
-17.201 -14.3385 35.9197 -1 0 0  255 255 255 255
-17.201 -37.1177 30.116 -1 0 0  255 255 255 255
-17.201 -46.4092 30.1161 -1 0 0  255 255 255 255
-17.201 -41.4553 30.1161 -1 0 0  255 255 255 255
-17.201 -52.0524 35.9263 -1 0 0  255 255 255 255
-17.201 -53.6894 31.8752 -1 0 0  255 255 255 255
-17.201 -17.9767 29.8008 -1 0 0  255 255 255 255
-17.201 -55.0821 30.6031 -1 0 0  255 255 255 255
-17.201 -46.0189 35.7495 -1 0 0  255 255 255 255
-17.201 -34.5399 29.1663 -1 0 0  255 255 255 255
-17.201 -4.19983 35.8937 -1 0 0  255 255 255 255
-17.201 -32.1431 31.9714 -1 0 0  255 255 255 255
-17.201 -52.8436 32.3361 -1 0 0  255 255 255 255
-17.201 -15.9998 30.3706 -1 0 0  255 255 255 255
-17.201 -43.2191 30.1338 -1 0 0  255 255 255 255
-17.201 -14.4264 32.5524 -1 0 0  255 255 255 255
-17.201 -47.7166 34.9705 -1 0 0  255 255 255 255
-17.201 -44.6577 30.13 -1 0 0  255 255 255 255
-17.201 -25.6175 32.2725 -1 0 0  255 255 255 255
-17.201 -62.9894 28.8691 -1 0 0  255 255 255 255
-17.201 -20.8627 32.9143 -1 0 0  255 255 255 255
-17.201 -38.8223 30.147 -1 0 0  255 255 255 255
-17.201 -57.1199 29.7453 -1 0 0  255 255 255 255
-17.201 -37.2586 35.9461 -1 0 0  255 255 255 255
-17.201 -54.6806 28.8439 -1 0 0  255 255 255 255
-17.201 -34.5151 30.138 -1 0 0  255 255 255 255
-17.201 -37.5872 35.0533 -1 0 0  255 255 255 255
-17.201 -28.6442 32.9298 -1 0 0  255 255 255 255
-17.201 -29.8645 32.3131 -1 0 0  255 255 255 255
-17.201 -39.1751 31.7942 -1 0 0  255 255 255 255
-17.201 -58.5419 31.7576 -1 0 0  255 255 255 255
-17.201 -34.8584 31.7782 -1 0 0  255 255 255 255
-17.201 -6.52911 33.7999 -1 0 0  255 255 255 255
-17.201 -17.2596 31.5368 -1 0 0  255 255 255 255
-17.201 -13.5263 30.5108 -1 0 0  255 255 255 255
-17.201 -60.0715 35.8639 -1 0 0  255 255 255 255
-17.201 -19.4359 28.8896 -1 0 0  255 255 255 255
-17.201 -29.4906 30.3438 -1 0 0  255 255 255 255
-17.201 -52.675 31.7035 -1 0 0  255 255 255 255
-17.201 -59.0417 34.9378 -1 0 0  255 255 255 255
-17.201 -25.6761 30.6936 -1 0 0  255 255 255 255
-17.201 -62.989 35.9422 -1 0 0  255 255 255 255
-17.201 -59.6019 28.8639 -1 0 0  255 255 255 255
-17.201 -39.8518 33.1724 -1 0 0  255 255 255 255
-17.201 -16.369 34.417 -1 0 0  255 255 255 255
-17.201 -21.0436 35.9744 -1 0 0  255 255 255 255
-17.201 -27.1063 32.8104 -1 0 0  255 255 255 255
-17.201 -21.7823 29.5913 -1 0 0  255 255 255 255
-17.201 -31.9207 30.8391 -1 0 0  255 255 255 255
-17.201 -51.6615 29.6179 -1 0 0  255 255 255 255
-17.201 -26.0409 35.8578 -1 0 0  255 255 255 255
-17.201 -58.3495 35.0505 -1 0 0  255 255 255 255
-17.201 -26.771 29.2589 -1 0 0  255 255 255 255
-17.201 -11.7553 34.6258 -1 0 0  255 255 255 255
-17.201 -57.1166 30.9638 -1 0 0  255 255 255 255
-17.201 -47.8161 35.8867 -1 0 0  255 255 255 255
-17.201 -42.6813 32.0776 -1 0 0  255 255 255 255
-17.201 -45.1392 32.0926 -1 0 0  255 255 255 255
-17.201 -38.2806 32.1471 -1 0 0  255 255 255 255
-17.201 -7.71699 35.2772 -1 0 0  255 255 255 255
-17.201 -9.96062 35.9399 -1 0 0  255 255 255 255
-17.201 -33.9495 32.1551 -1 0 0  255 255 255 255
-17.201 -34.3343 35.9822 -1 0 0  255 255 255 255
-17.201 -56.6815 32.2105 -1 0 0  255 255 255 255
-17.201 -8.81298 35.3092 -1 0 0  255 255 255 255
-17.201 -35.9176 30.1058 -1 0 0  255 255 255 255
-17.201 -40.2556 30.1063 -1 0 0  255 255 255 255
-17.201 -47.5404 30.1181 -1 0 0  255 255 255 255
-17.201 -62.4417 28.8306 -1 0 0  255 255 255 255
-17.201 -43.7061 32.0115 -1 0 0  255 255 255 255
-17.201 -0.37499 35.4317 -1 0 0  255 255 255 255
-17.201 -27.6607 31.3743 -1 0 0  255 255 255 255
-17.201 -44.3704 31.8409 -1 0 0  255 255 255 255
-17.201 -62.3924 35.9878 -1 0 0  255 255 255 255
-17.201 -24.7355 35.9852 -1 0 0  255 255 255 255
-17.201 -41.7635 29.1381 -1 0 0  255 255 255 255
-17.201 -46.101 29.1381 -1 0 0  255 255 255 255
-17.201 -37.4259 29.138 -1 0 0  255 255 255 255
-17.201 -31.3808 35.9854 -1 0 0  255 255 255 255
-17.201 -16.3987 32.1249 -1 0 0  255 255 255 255
-17.201 -3.63155 34.4159 -1 0 0  255 255 255 255
-17.201 -10.3401 28.8831 -1 0 0  255 255 255 255
-17.201 -0.383621 34.2803 -1 0 0  255 255 255 255
-17.201 -21.896 33.3552 -1 0 0  255 255 255 255
-17.201 -28.6237 35.1532 -1 0 0  255 255 255 255
-17.201 -19.4724 31.3126 -1 0 0  255 255 255 255
-17.201 -17.3189 29.6967 -1 0 0  255 255 255 255
-17.201 -20.6247 32.1589 -1 0 0  255 255 255 255
-17.201 -13.1837 33.5073 -1 0 0  255 255 255 255
-17.201 -61.0711 35.8866 -1 0 0  255 255 255 255
-17.201 -47.8727 31.6735 -1 0 0  255 255 255 255
-17.201 -28.0378 32.2042 -1 0 0  255 255 255 255
-17.201 -27.7482 35.268 -1 0 0  255 255 255 255
-17.201 -52.2956 34.9741 -1 0 0  255 255 255 255
-17.201 -50.2079 29.3065 -1 0 0  255 255 255 255
-17.201 -23.3792 34.3292 -1 0 0  255 255 255 255
-17.201 -19.9468 33.009 -1 0 0  255 255 255 255
-17.201 -33.4451 34.244 -1 0 0  255 255 255 255
-17.201 -55.2746 32.0634 -1 0 0  255 255 255 255
-17.201 -2.05741 35.8702 -1 0 0  255 255 255 255
-17.201 -15.6551 31.2427 -1 0 0  255 255 255 255
-17.201 -46.0077 35.035 -1 0 0  255 255 255 255
-17.201 -28.448 33.4738 -1 0 0  255 255 255 255
-17.201 -49.1017 35.9953 -1 0 0  255 255 255 255
-17.201 -48.8807 31.7137 -1 0 0  255 255 255 255
-17.201 -41.2136 33.624 -1 0 0  255 255 255 255
-17.201 -60.1541 31.106 -1 0 0  255 255 255 255
-17.201 -57.5003 28.8264 -1 0 0  255 255 255 255
-17.201 -23.8001 29.1768 -1 0 0  255 255 255 255
-17.201 -48.4149 32.1185 -1 0 0  255 255 255 255
-17.201 -40.7515 31.941 -1 0 0  255 255 255 255
-17.201 -47.1124 31.9538 -1 0 0  255 255 255 255
-17.201 -36.4253 31.9561 -1 0 0  255 255 255 255
-17.201 -55.412 29.6505 -1 0 0  255 255 255 255
-17.201 -32.6445 35.8571 -1 0 0  255 255 255 255
-17.201 -24.7556 32.9657 -1 0 0  255 255 255 255
-17.201 -28.9406 33.8587 -1 0 0  255 255 255 255
-17.201 -17.9671 34.4944 -1 0 0  255 255 255 255
-17.201 -5.61585 34.386 -1 0 0  255 255 255 255
-17.201 -21.9799 30.5211 -1 0 0  255 255 255 255
-17.201 -3.60556 35.92 -1 0 0  255 255 255 255
-17.201 -21.6226 28.8006 -1 0 0  255 255 255 255
-17.201 -50.8036 35.8491 -1 0 0  255 255 255 255
-17.201 -22.6791 31.4792 -1 0 0  255 255 255 255
-17.201 -57.308 35.1121 -1 0 0  255 255 255 255
-17.201 -14.836 31.6901 -1 0 0  255 255 255 255
-17.201 -51.7831 28.8003 -1 0 0  255 255 255 255
-17.201 -36.5582 33.0246 -1 0 0  255 255 255 255
-17.201 -58.1377 33.9475 -1 0 0  255 255 255 255
-17.201 -23.2804 32.0352 -1 0 0  255 255 255 255
-9.5721 -55.852 36.3751 0 0 1  255 255 255 255
-9.62635 -7.58845 36.3751 0 0 1  255 255 255 255
-9.43497 -38.756 36.3751 0 0 1  255 255 255 255
-9.57131 -24.7569 36.3751 0 0 1  255 255 255 255
-9.58095 -15.875 36.3751 0 0 1  255 255 255 255
-9.52503 -47.8214 36.3751 0 0 1  255 255 255 255
-8.99619 -31.7165 36.3751 0 0 1  255 255 255 255
-7.1401 -20.3529 36.3751 0 0 1  255 255 255 255
-6.8919 -43.1747 36.3751 0 0 1  255 255 255 255
-12.29 -20.397 36.3751 0 0 1  255 255 255 255
-12.1745 -43.158 36.3751 0 0 1  255 255 255 255
-12.2544 -11.7544 36.3751 0 0 1  255 255 255 255
-6.88989 -11.7449 36.3751 0 0 1  255 255 255 255
-12.312 -51.6386 36.3751 0 0 1  255 255 255 255
-6.81793 -51.6836 36.3751 0 0 1  255 255 255 255
-12.4637 -34.9942 36.3751 0 0 1  255 255 255 255
-12.4922 -28.4707 36.3751 0 0 1  255 255 255 255
-6.47408 -28.0093 36.3751 0 0 1  255 255 255 255
-6.37166 -35.5753 36.3751 0 0 1  255 255 255 255
-12.6885 -4.55836 36.3751 0 0 1  255 255 255 255
-12.6885 -58.9416 36.3751 0 0 1  255 255 255 255
-6.29656 -4.4972 36.3751 0 0 1  255 255 255 255
-6.29656 -59.0028 36.3751 0 0 1  255 255 255 255
-5.80386 -16.6552 36.3751 0 0 1  255 255 255 255
-5.79947 -23.8734 36.3751 0 0 1  255 255 255 255
-5.81201 -39.5601 36.3751 0 0 1  255 255 255 255
-5.80386 -46.8448 36.3751 0 0 1  255 255 255 255
-13.3589 -16.6491 36.3751 0 0 1  255 255 255 255
-13.3378 -23.8962 36.3751 0 0 1  255 255 255 255
-13.328 -39.5364 36.3751 0 0 1  255 255 255 255
-13.3434 -47.0485 36.3751 0 0 1  255 255 255 255
-5.72703 -55.3374 36.3751 0 0 1  255 255 255 255
-5.70306 -8.13282 36.3751 0 0 1  255 255 255 255
-13.5495 -8.16916 36.3751 0 0 1  255 255 255 255
-13.4415 -55.3272 36.3751 0 0 1  255 255 255 255
-5.50586 -32.0303 36.3751 0 0 1  255 255 255 255
-13.6441 -31.7601 36.3751 0 0 1  255 255 255 255
-9.51175 -3.35905 36.3751 0 0 1  255 255 255 255
-9.50619 -60.1047 36.3751 0 0 1  255 255 255 255
-9.47275 -28.6988 36.3751 0 0 1  255 255 255 255
-9.32972 -34.7944 36.3751 0 0 1  255 255 255 255
-9.58506 -18.7582 36.3751 0 0 1  255 255 255 255
-9.5723 -21.847 36.3751 0 0 1  255 255 255 255
-9.61321 -41.6901 36.3751 0 0 1  255 255 255 255
-9.55186 -44.8153 36.3751 0 0 1  255 255 255 255
-9.44393 -10.593 36.3751 0 0 1  255 255 255 255
-9.58095 -50.5667 36.3751 0 0 1  255 255 255 255
-4.93789 -13.8878 36.3751 0 0 1  255 255 255 255
-4.88398 -49.6235 36.3751 0 0 1  255 255 255 255
-14.2798 -13.8725 36.3751 0 0 1  255 255 255 255
-14.266 -49.6412 36.3751 0 0 1  255 255 255 255
-14.421 -26.5309 36.3751 0 0 1  255 255 255 255
-14.421 -36.9691 36.3751 0 0 1  255 255 255 255
-10.0291 -53.2427 36.3751 0 0 1  255 255 255 255
-9.19202 -13.3438 36.3751 0 0 1  255 255 255 255
-4.57256 -19.034 36.3751 0 0 1  255 255 255 255
-4.70409 -41.9732 36.3751 0 0 1  255 255 255 255
-14.5181 -19.0719 36.3751 0 0 1  255 255 255 255
-14.5699 -41.9439 36.3751 0 0 1  255 255 255 255
-14.5983 -60.8918 36.3751 0 0 1  255 255 255 255
-4.56359 -60.8918 36.3751 0 0 1  255 255 255 255
-14.5983 -2.60822 36.3751 0 0 1  255 255 255 255
-4.56359 -2.60822 36.3751 0 0 1  255 255 255 255
-11.6942 -14.242 36.3751 0 0 1  255 255 255 255
-4.49896 -53.1208 36.3751 0 0 1  255 255 255 255
-14.5339 -52.9817 36.3751 0 0 1  255 255 255 255
-14.5954 -10.4773 36.3751 0 0 1  255 255 255 255
-4.60066 -10.5161 36.3751 0 0 1  255 255 255 255
-4.57435 -37.2545 36.3751 0 0 1  255 255 255 255
-4.61121 -26.1474 36.3751 0 0 1  255 255 255 255
-14.6921 -21.7315 36.3751 0 0 1  255 255 255 255
-14.609 -44.5651 36.3751 0 0 1  255 255 255 255
-11.7125 -49.1133 36.3751 0 0 1  255 255 255 255
-7.41336 -49.1531 36.3751 0 0 1  255 255 255 255
-4.49823 -21.7849 36.3751 0 0 1  255 255 255 255
-4.53142 -44.6929 36.3751 0 0 1  255 255 255 255
-4.48013 -29.7686 36.3751 0 0 1  255 255 255 255
-11.8328 -26.0129 36.3751 0 0 1  255 255 255 255
-11.8747 -37.5206 36.3751 0 0 1  255 255 255 255
-11.2077 -32.7235 36.3751 0 0 1  255 255 255 255
-4.49503 -5.89761 36.3751 0 0 1  255 255 255 255
-14.7193 -5.86134 36.3751 0 0 1  255 255 255 255
-4.49503 -57.6024 36.3751 0 0 1  255 255 255 255
-14.7193 -57.6387 36.3751 0 0 1  255 255 255 255
-14.7643 -33.979 36.3751 0 0 1  255 255 255 255
-14.7626 -29.5125 36.3751 0 0 1  255 255 255 255
-4.32229 -34.1996 36.3751 0 0 1  255 255 255 255
-7.17715 -14.7077 36.3751 0 0 1  255 255 255 255
-7.34269 -25.803 36.3751 0 0 1  255 255 255 255
-7.37578 -37.7406 36.3751 0 0 1  255 255 255 255
-7.75417 -54.0295 36.3751 0 0 1  255 255 255 255
-7.08203 -30.3217 36.3751 0 0 1  255 255 255 255
-11.7581 -61.1764 36.3751 0 0 1  255 255 255 255
-7.45042 -61.1425 36.3751 0 0 1  255 255 255 255
-11.7275 -2.3081 36.3751 0 0 1  255 255 255 255
-7.40657 -2.32928 36.3751 0 0 1  255 255 255 255
-10.5285 -5.31808 36.3751 0 0 1  255 255 255 255
-10.5304 -58.1933 36.3751 0 0 1  255 255 255 255
-7.4671 -6.57385 36.3751 0 0 1  255 255 255 255
-7.4671 -56.9262 36.3751 0 0 1  255 255 255 255
-10.9893 -30.3627 36.3751 0 0 1  255 255 255 255
-7.38364 -33.3819 36.3751 0 0 1  255 255 255 255
-11.3822 -9.16757 36.3751 0 0 1  255 255 255 255
-7.74187 -9.05321 36.3751 0 0 1  255 255 255 255
-7.47679 -22.4566 36.3751 0 0 1  255 255 255 255
-7.52466 -18.0993 36.3751 0 0 1  255 255 255 255
-7.41611 -45.3989 36.3751 0 0 1  255 255 255 255
-7.8766 -40.1761 36.3751 0 0 1  255 255 255 255
-11.366 -40.2483 36.3751 0 0 1  255 255 255 255
-11.2488 -46.1587 36.3751 0 0 1  255 255 255 255
-11.75 -18.1763 36.3751 0 0 1  255 255 255 255
-11.6855 -22.3815 36.3751 0 0 1  255 255 255 255
-11.4108 -54.9415 36.3751 0 0 1  255 255 255 255
-9.9109 -26.711 36.3751 0 0 1  255 255 255 255
-9.80072 -36.8129 36.3751 0 0 1  255 255 255 255
-3.97465 -15.7106 36.3751 0 0 1  255 255 255 255
-4.03204 -47.7948 36.3751 0 0 1  255 255 255 255
-15.1416 -15.7185 36.3751 0 0 1  255 255 255 255
-15.1337 -47.8432 36.3751 0 0 1  255 255 255 255
-12.367 -6.44737 36.3751 0 0 1  255 255 255 255
-12.4551 -57.0239 36.3751 0 0 1  255 255 255 255
-15.224 -24.6948 36.3751 0 0 1  255 255 255 255
-15.224 -38.8052 36.3751 0 0 1  255 255 255 255
-3.91917 -40.14 36.3751 0 0 1  255 255 255 255
-8.30468 -4.83584 36.3751 0 0 1  255 255 255 255
-8.30468 -58.6642 36.3751 0 0 1  255 255 255 255
-3.96883 -24.3175 36.3751 0 0 1  255 255 255 255
-3.92427 -54.7692 36.3751 0 0 1  255 255 255 255
-15.2444 -54.7395 36.3751 0 0 1  255 255 255 255
-3.94253 -8.73761 36.3751 0 0 1  255 255 255 255
-15.2444 -8.76052 36.3751 0 0 1  255 255 255 255
-11.4791 -16.1866 36.3751 0 0 1  255 255 255 255
-3.76868 -12.2959 36.3751 0 0 1  255 255 255 255
-3.76868 -51.2041 36.3751 0 0 1  255 255 255 255
-15.3945 -51.206 36.3751 0 0 1  255 255 255 255
-15.3396 -12.2398 36.3751 0 0 1  255 255 255 255
-12.7488 -45.0054 36.3751 0 0 1  255 255 255 255
-12.6937 -41.5083 36.3751 0 0 1  255 255 255 255
-12.8215 -53.5815 36.3751 0 0 1  255 255 255 255
-6.44506 -41.4135 36.3751 0 0 1  255 255 255 255
-7.69177 -47.2153 36.3751 0 0 1  255 255 255 255
-3.84787 -27.9609 36.3751 0 0 1  255 255 255 255
-15.3318 -4.28326 36.3751 0 0 1  255 255 255 255
-3.83007 -4.28326 36.3751 0 0 1  255 255 255 255
-3.83007 -59.2167 36.3751 0 0 1  255 255 255 255
-15.3318 -59.2167 36.3751 0 0 1  255 255 255 255
-3.78503 -31.4058 36.3751 0 0 1  255 255 255 255
-11.2521 -24.4106 36.3751 0 0 1  255 255 255 255
-8.08438 -36.1055 36.3751 0 0 1  255 255 255 255
-8.075 -27.5342 36.3751 0 0 1  255 255 255 255
-3.80369 -17.6577 36.3751 0 0 1  255 255 255 255
-7.83331 -16.3466 36.3751 0 0 1  255 255 255 255
-15.4576 -17.614 36.3751 0 0 1  255 255 255 255
-13.0794 -10.1224 36.3751 0 0 1  255 255 255 255
-6.20654 -9.95209 36.3751 0 0 1  255 255 255 255
-15.2672 -31.1789 36.3751 0 0 1  255 255 255 255
-10.6224 -11.8899 36.3751 0 0 1  255 255 255 255
-8.68185 -52.2381 36.3751 0 0 1  255 255 255 255
-12.859 -30.288 36.3751 0 0 1  255 255 255 255
-15.3877 -45.9582 36.3751 0 0 1  255 255 255 255
-13.1402 -33.2654 36.3751 0 0 1  255 255 255 255
-10.153 -61.7538 36.3751 0 0 1  255 255 255 255
-9.03599 -1.73297 36.3751 0 0 1  255 255 255 255
-3.71953 -46.0818 36.3751 0 0 1  255 255 255 255
-15.4679 -27.9191 36.3751 0 0 1  255 255 255 255
-15.3607 -35.5356 36.3751 0 0 1  255 255 255 255
-15.438 -40.6682 36.3751 0 0 1  255 255 255 255
-7.93796 -24.1472 36.3751 0 0 1  255 255 255 255
-3.63423 -35.8075 36.3751 0 0 1  255 255 255 255
-8.66139 -20.335 36.3751 0 0 1  255 255 255 255
-10.4271 -43.1942 36.3751 0 0 1  255 255 255 255
-11.1621 -3.89058 36.3751 0 0 1  255 255 255 255
-11.1621 -59.6094 36.3751 0 0 1  255 255 255 255
-8.74524 -43.2014 36.3751 0 0 1  255 255 255 255
-10.4909 -20.346 36.3751 0 0 1  255 255 255 255
-6.12338 -53.7093 36.3751 0 0 1  255 255 255 255
-13.2622 -61.8721 36.3751 0 0 1  255 255 255 255
-5.90166 -62.0496 36.3751 0 0 1  255 255 255 255
-5.89972 -1.6279 36.3751 0 0 1  255 255 255 255
-13.2602 -1.45038 36.3751 0 0 1  255 255 255 255
-15.4838 -23.0069 36.3751 0 0 1  255 255 255 255
-15.5493 -20.4542 36.3751 0 0 1  255 255 255 255
-15.5575 -42.9924 36.3751 0 0 1  255 255 255 255
-3.57878 -20.3434 36.3751 0 0 1  255 255 255 255
-3.54308 -43.21 36.3751 0 0 1  255 255 255 255
-11.0129 -34.3027 36.3751 0 0 1  255 255 255 255
-9.69834 -33.0363 36.3751 0 0 1  255 255 255 255
-10.7984 -28.0036 36.3751 0 0 1  255 255 255 255
-13.1429 -15.0364 36.3751 0 0 1  255 255 255 255
-10.2331 -17.349 36.3751 0 0 1  255 255 255 255
-3.60414 -38.5217 36.3751 0 0 1  255 255 255 255
-8.57027 -29.9803 36.3751 0 0 1  255 255 255 255
-8.92826 -46.1508 36.3751 0 0 1  255 255 255 255
-6.39831 -13.212 36.3751 0 0 1  255 255 255 255
-10.6695 -51.7289 36.3751 0 0 1  255 255 255 255
-8.39758 -11.756 36.3751 0 0 1  255 255 255 255
-5.98143 -48.5763 36.3751 0 0 1  255 255 255 255
-13.0802 -48.2802 36.3751 0 0 1  255 255 255 255
-6.18542 -21.6008 36.3751 0 0 1  255 255 255 255
-6.07003 -44.4375 36.3751 0 0 1  255 255 255 255
-8.01977 -50.6095 36.3751 0 0 1  255 255 255 255
-11.1707 -7.50063 36.3751 0 0 1  255 255 255 255
-6.4801 -50.213 36.3751 0 0 1  255 255 255 255
-12.8332 -50.3453 36.3751 0 0 1  255 255 255 255
-13.8267 -12.5027 36.3751 0 0 1  255 255 255 255
-11.1865 -44.5348 36.3751 0 0 1  255 255 255 255
-13.0158 -21.5403 36.3751 0 0 1  255 255 255 255
-11.1642 -41.7786 36.3751 0 0 1  255 255 255 255
-5.89296 -33.9297 36.3751 0 0 1  255 255 255 255
-15.6682 -32.768 36.3751 0 0 1  255 255 255 255
-10.0819 -49.0511 36.3751 0 0 1  255 255 255 255
-3.46619 -33.023 36.3751 0 0 1  255 255 255 255
-3.53103 -22.8815 36.3751 0 0 1  255 255 255 255
-6.00563 -5.98215 36.3751 0 0 1  255 255 255 255
-6.02284 -57.5267 36.3751 0 0 1  255 255 255 255
-11.1572 -10.6429 36.3751 0 0 1  255 255 255 255
-10.0852 -23.3667 36.3751 0 0 1  255 255 255 255
-13.6742 -43.3304 36.3751 0 0 1  255 255 255 255
-8.03481 -41.8339 36.3751 0 0 1  255 255 255 255
-7.69617 -28.749 36.3751 0 0 1  255 255 255 255
-11.4705 -35.9077 36.3751 0 0 1  255 255 255 255
-10.1354 -14.4196 36.3751 0 0 1  255 255 255 255
-6.2008 -19.005 36.3751 0 0 1  255 255 255 255
-6.91146 -31.7755 36.3751 0 0 1  255 255 255 255
-13.8755 -51.6549 36.3751 0 0 1  255 255 255 255
-11.8772 -47.5591 36.3751 0 0 1  255 255 255 255
-5.29917 -51.6428 36.3751 0 0 1  255 255 255 255
-5.28095 -11.85 36.3751 0 0 1  255 255 255 255
-9.20726 -57.3896 36.3751 0 0 1  255 255 255 255
-9.31949 -6.11925 36.3751 0 0 1  255 255 255 255
-3.49318 -7.17909 36.3751 0 0 1  255 255 255 255
-15.5921 -7.28866 36.3751 0 0 1  255 255 255 255
-3.49185 -56.3207 36.3751 0 0 1  255 255 255 255
-15.5921 -56.2113 36.3751 0 0 1  255 255 255 255
-13.2464 -18.1916 36.3751 0 0 1  255 255 255 255
-13.9782 -27.862 36.3751 0 0 1  255 255 255 255
-13.857 -35.7425 36.3751 0 0 1  255 255 255 255
-13.2683 -25.5031 36.3751 0 0 1  255 255 255 255
-13.2956 -37.9968 36.3751 0 0 1  255 255 255 255
-7.95355 -55.5254 36.3751 0 0 1  255 255 255 255
-15.7949 -62.094 36.3751 0 0 1  255 255 255 255
-3.36704 -62.094 36.3751 0 0 1  255 255 255 255
-3.36704 -1.40598 36.3751 0 0 1  255 255 255 255
-15.7949 -1.40598 36.3751 0 0 1  255 255 255 255
-6.05956 -36.9701 36.3751 0 0 1  255 255 255 255
-5.8765 -25.5179 36.3751 0 0 1  255 255 255 255
-8.7333 -62.0035 36.3751 0 0 1  255 255 255 255
-10.5014 -1.49557 36.3751 0 0 1  255 255 255 255
-11.1033 -56.25 36.3751 0 0 1  255 255 255 255
-5.83824 -15.0241 36.3751 0 0 1  255 255 255 255
-3.44116 -14.3109 36.3751 0 0 1  255 255 255 255
-3.50844 -49.1682 36.3751 0 0 1  255 255 255 255
-15.7212 -14.3076 36.3751 0 0 1  255 255 255 255
-15.6543 -49.1716 36.3751 0 0 1  255 255 255 255
-9.84363 -9.08574 36.3751 0 0 1  255 255 255 255
-9.16291 -54.452 36.3751 0 0 1  255 255 255 255
-8.72785 -14.7314 36.3751 0 0 1  255 255 255 255
-13.5564 -20.276 36.3751 0 0 1  255 255 255 255
-9.36222 -40.2076 36.3751 0 0 1  255 255 255 255
-5.5688 -43.1393 36.3751 0 0 1  255 255 255 255
-11.0625 -38.7611 36.3751 0 0 1  255 255 255 255
-8.67034 -17.412 36.3751 0 0 1  255 255 255 255
-5.14096 -20.591 36.3751 0 0 1  255 255 255 255
-5.96243 -2.93219 36.3751 0 0 1  255 255 255 255
-5.96243 -60.5678 36.3751 0 0 1  255 255 255 255
-13.2019 -60.478 36.3751 0 0 1  255 255 255 255
-13.2019 -3.02201 36.3751 0 0 1  255 255 255 255
-5.58003 -30.5478 36.3751 0 0 1  255 255 255 255
-11.3975 -52.8999 36.3751 0 0 1  255 255 255 255
-12.3966 -31.649 36.3751 0 0 1  255 255 255 255
-7.63005 -10.3587 36.3751 0 0 1  255 255 255 255
-12.949 -26.9191 36.3751 0 0 1  255 255 255 255
-13.0816 -36.67 36.3751 0 0 1  255 255 255 255
-5.04675 -36.0821 36.3751 0 0 1  255 255 255 255
-11.5989 -50.5473 36.3751 0 0 1  255 255 255 255
-15.728 -26.0588 36.3751 0 0 1  255 255 255 255
-15.7716 -37.4721 36.3751 0 0 1  255 255 255 255
-8.02569 -34.6566 36.3751 0 0 1  255 255 255 255
-12.5271 -13.1503 36.3751 0 0 1  255 255 255 255
-10.4158 -31.6398 36.3751 0 0 1  255 255 255 255
-7.69588 -12.7906 36.3751 0 0 1  255 255 255 255
-5.15165 -27.5218 36.3751 0 0 1  255 255 255 255
-8.83778 -25.8667 36.3751 0 0 1  255 255 255 255
-8.65059 -37.5785 36.3751 0 0 1  255 255 255 255
-3.35417 -41.366 36.3751 0 0 1  255 255 255 255
-8.80294 -48.7502 36.3751 0 0 1  255 255 255 255
-5.78876 -29.3599 36.3751 0 0 1  255 255 255 255
-8.18022 -38.8243 36.3751 0 0 1  255 255 255 255
-8.20092 -3.28971 36.3751 0 0 1  255 255 255 255
-8.20253 -60.0465 36.3751 0 0 1  255 255 255 255
-7.11163 -7.90278 36.3751 0 0 1  255 255 255 255
-8.76048 -22.9572 36.3751 0 0 1  255 255 255 255
-3.223 -53.5597 36.3751 0 0 1  255 255 255 255
-15.8303 -53.5251 36.3751 0 0 1  255 255 255 255
-15.8629 -9.97592 36.3751 0 0 1  255 255 255 255
-3.33159 -9.97504 36.3751 0 0 1  255 255 255 255
-13.9359 -58.7408 36.3751 0 0 1  255 255 255 255
-13.9359 -4.75923 36.3751 0 0 1  255 255 255 255
-5.08413 -4.78099 36.3751 0 0 1  255 255 255 255
-5.08413 -58.719 36.3751 0 0 1  255 255 255 255
-3.26985 -18.7663 36.3751 0 0 1  255 255 255 255
-15.8368 -18.971 36.3751 0 0 1  255 255 255 255
-3.18856 -25.5873 36.3751 0 0 1  255 255 255 255
-5.50722 -38.2076 36.3751 0 0 1  255 255 255 255
-15.86 -41.8059 36.3751 0 0 1  255 255 255 255
-14.1222 -40.6622 36.3751 0 0 1  255 255 255 255
-5.06892 -17.8409 36.3751 0 0 1  255 255 255 255
-3.27176 -29.2458 36.3751 0 0 1  255 255 255 255
-5.13818 -40.7184 36.3751 0 0 1  255 255 255 255
-13.438 -7.00924 36.3751 0 0 1  255 255 255 255
-13.5825 -56.5478 36.3751 0 0 1  255 255 255 255
-4.90749 -22.9584 36.3751 0 0 1  255 255 255 255
-3.28574 -60.4465 36.3751 0 0 1  255 255 255 255
-15.8762 -3.05348 36.3751 0 0 1  255 255 255 255
-15.8762 -60.4465 36.3751 0 0 1  255 255 255 255
-3.28574 -3.05348 36.3751 0 0 1  255 255 255 255
-14.2037 -22.9307 36.3751 0 0 1  255 255 255 255
-3.21568 -58.0701 36.3751 0 0 1  255 255 255 255
-15.9416 -58.0552 36.3751 0 0 1  255 255 255 255
-3.21568 -5.42993 36.3751 0 0 1  255 255 255 255
-15.9416 -5.44475 36.3751 0 0 1  255 255 255 255
-15.9304 -21.8752 36.3751 0 0 1  255 255 255 255
-15.9291 -44.6715 36.3751 0 0 1  255 255 255 255
-14.2685 -45.7889 36.3751 0 0 1  255 255 255 255
-6.443 -26.6883 36.3751 0 0 1  255 255 255 255
-5.36503 -45.5925 36.3751 0 0 1  255 255 255 255
-3.30387 -44.5496 36.3751 0 0 1  255 255 255 255
-3.2303 -37.28 36.3751 0 0 1  255 255 255 255
-14.0993 -9.29619 36.3751 0 0 1  255 255 255 255
-5.06258 -9.29619 36.3751 0 0 1  255 255 255 255
-14.0993 -54.2038 36.3751 0 0 1  255 255 255 255
-10.5538 -25.5899 36.3751 0 0 1  255 255 255 255
-9.5948 -58.946 36.3751 0 0 1  255 255 255 255
-9.5948 -4.55397 36.3751 0 0 1  255 255 255 255
-3.10331 -21.6213 36.3751 0 0 1  255 255 255 255
-4.8484 -56.2721 36.3751 0 0 1  255 255 255 255
-4.83924 -7.33792 36.3751 0 0 1  255 255 255 255
-15.9395 -29.965 36.3751 0 0 1  255 255 255 255
-8.39721 -44.519 36.3751 0 0 1  255 255 255 255
-10.7981 -13.2194 36.3751 0 0 1  255 255 255 255
-10.8537 -21.5048 36.3751 0 0 1  255 255 255 255
-7.83522 -21.2654 36.3751 0 0 1  255 255 255 255
-7.81323 -19.3655 36.3751 0 0 1  255 255 255 255
-16.0432 -34.5642 36.3751 0 0 1  255 255 255 255
-12.3664 -55.9233 36.3751 0 0 1  255 255 255 255
-6.94055 -38.9151 36.3751 0 0 1  255 255 255 255
-8.3196 -7.50731 36.3751 0 0 1  255 255 255 255
-11.2636 -19.3484 36.3751 0 0 1  255 255 255 255
-14.4788 -62.3889 36.3751 0 0 1  255 255 255 255
-14.4788 -1.11115 36.3751 0 0 1  255 255 255 255
-4.68307 -1.11115 36.3751 0 0 1  255 255 255 255
-4.68307 -62.3889 36.3751 0 0 1  255 255 255 255
-13.3703 -11.1564 36.3751 0 0 1  255 255 255 255
-6.8614 -54.9011 36.3751 0 0 1  255 255 255 255
-8.63849 -32.9591 36.3751 0 0 1  255 255 255 255
-9.88511 -29.9514 36.3751 0 0 1  255 255 255 255
-12.3372 -38.8027 36.3751 0 0 1  255 255 255 255
-3.15835 -26.8946 36.3751 0 0 1  255 255 255 255
-12.0521 -5.4024 36.3751 0 0 1  255 255 255 255
-11.9292 -58.2063 36.3751 0 0 1  255 255 255 255
-13.558 -29.109 36.3751 0 0 1  255 255 255 255
-14.096 -30.4601 36.3751 0 0 1  255 255 255 255
-14.4558 -32.8896 36.3751 0 0 1  255 255 255 255
-11.4917 -29.2796 36.3751 0 0 1  255 255 255 255
-6.83829 -24.6784 36.3751 0 0 1  255 255 255 255
-10.7651 -48.0114 36.3751 0 0 1  255 255 255 255
-7.5999 -52.8401 36.3751 0 0 1  255 255 255 255
-3.21844 -52.4154 36.3751 0 0 1  255 255 255 255
-3.21844 -11.0846 36.3751 0 0 1  255 255 255 255
-15.9656 -11.2148 36.3751 0 0 1  255 255 255 255
-15.9436 -52.4161 36.3751 0 0 1  255 255 255 255
-12.08 -8.23766 36.3751 0 0 1  255 255 255 255
-3.13477 -34.6986 36.3751 0 0 1  255 255 255 255
-11.2621 -62.2891 36.3751 0 0 1  255 255 255 255
-7.89978 -1.21092 36.3751 0 0 1  255 255 255 255
-4.71034 -33.1385 36.3751 0 0 1  255 255 255 255
-5.02644 -54.3237 36.3751 0 0 1  255 255 255 255
-7.2597 -5.38133 36.3751 0 0 1  255 255 255 255
-7.2597 -58.1187 36.3751 0 0 1  255 255 255 255
-12.9073 -22.8176 36.3751 0 0 1  255 255 255 255
-6.21098 -22.8075 36.3751 0 0 1  255 255 255 255
-4.63876 -39.1802 36.3751 0 0 1  255 255 255 255
-8.77202 -53.3439 36.3751 0 0 1  255 255 255 255
-6.27717 -17.7837 36.3751 0 0 1  255 255 255 255
-6.38592 -56.363 36.3751 0 0 1  255 255 255 255
-10.6467 -2.67199 36.3751 0 0 1  255 255 255 255
-10.0898 -45.7903 36.3751 0 0 1  255 255 255 255
-6.81195 -15.8202 36.3751 0 0 1  255 255 255 255
-12.5027 -19.1501 36.3751 0 0 1  255 255 255 255
-10.7116 -60.7465 36.3751 0 0 1  255 255 255 255
-14.579 -55.7066 36.3751 0 0 1  255 255 255 255
-14.579 -7.79342 36.3751 0 0 1  255 255 255 255
-10.3106 -6.64973 36.3751 0 0 1  255 255 255 255
-7.01314 -62.3055 36.3751 0 0 1  255 255 255 255
-12.1842 -1.1254 36.3751 0 0 1  255 255 255 255
-11.7892 -27.2402 36.3751 0 0 1  255 255 255 255
-13.2985 -5.69232 36.3751 0 0 1  255 255 255 255
-13.2985 -57.8077 36.3751 0 0 1  255 255 255 255
-7.96622 -31.136 36.3751 0 0 1  255 255 255 255
-14.2329 -17.6643 36.3751 0 0 1  255 255 255 255
-13.5901 -34.3595 36.3751 0 0 1  255 255 255 255
-3.19124 -30.3706 36.3751 0 0 1  255 255 255 255
-3.11623 -16.5131 36.3751 0 0 1  255 255 255 255
-4.63871 -46.7873 36.3751 0 0 1  255 255 255 255
-16.0273 -16.5532 36.3751 0 0 1  255 255 255 255
-7.00099 -46.3797 36.3751 0 0 1  255 255 255 255
-6.71813 -40.2745 36.3751 0 0 1  255 255 255 255
-12.5133 -40.287 36.3751 0 0 1  255 255 255 255
-4.55917 -16.7527 36.3751 0 0 1  255 255 255 255
-12.2526 -17.0901 36.3751 0 0 1  255 255 255 255
-12.4445 -46.1398 36.3751 0 0 1  255 255 255 255
-10.2489 -37.8854 36.3751 0 0 1  255 255 255 255
-12.4519 -24.7111 36.3751 0 0 1  255 255 255 255
-7.00543 -3.41163 36.3751 0 0 1  255 255 255 255
-7.00543 -60.0884 36.3751 0 0 1  255 255 255 255
-10.2414 -54.9234 36.3751 0 0 1  255 255 255 255
-6.23767 -7.11697 36.3751 0 0 1  255 255 255 255
-6.31902 -32.9066 36.3751 0 0 1  255 255 255 255
-3.09202 -13.1981 36.3751 0 0 1  255 255 255 255
-3.09202 -50.3019 36.3751 0 0 1  255 255 255 255
-16.0708 -50.3042 36.3751 0 0 1  255 255 255 255
-16.0408 -13.1876 36.3751 0 0 1  255 255 255 255
-8.76194 -9.74613 36.3751 0 0 1  255 255 255 255
-10.2366 -35.622 36.3751 0 0 1  255 255 255 255
-6.133 -52.5028 36.3751 0 0 1  255 255 255 255
-7.10038 -36.5055 36.3751 0 0 1  255 255 255 255
-16.0746 -47.046 36.3751 0 0 1  255 255 255 255
-16.1183 -39.5813 36.3751 0 0 1  255 255 255 255
-3.09467 -47.0694 36.3751 0 0 1  255 255 255 255
-6.57583 -8.93256 36.3751 0 0 1  255 255 255 255
-4.99598 -24.7686 36.3751 0 0 1  255 255 255 255
-4.83045 -28.6612 36.3751 0 0 1  255 255 255 255
-10.9724 -15.1933 36.3751 0 0 1  255 255 255 255
-12.5205 -54.6634 36.3751 0 0 1  255 255 255 255
-8.79054 -8.56964 36.3751 0 0 1  255 255 255 255
-14.0483 -15.7752 36.3751 0 0 1  255 255 255 255
-4.91428 -59.8239 36.3751 0 0 1  255 255 255 255
-14.2368 -59.825 36.3751 0 0 1  255 255 255 255
-4.91428 -3.67606 36.3751 0 0 1  255 255 255 255
-14.2368 -3.67498 36.3751 0 0 1  255 255 255 255
-16.1278 -24.0209 36.3751 0 0 1  255 255 255 255
-14.5758 -46.9141 36.3751 0 0 1  255 255 255 255
-12.1391 -3.33076 36.3751 0 0 1  255 255 255 255
-12.1444 -60.1865 36.3751 0 0 1  255 255 255 255
-6.66576 -47.5625 36.3751 0 0 1  255 255 255 255
-16.0995 -28.8669 36.3751 0 0 1  255 255 255 255
-4.8509 -48.5047 36.3751 0 0 1  255 255 255 255
-10.3226 -39.6027 36.3751 0 0 1  255 255 255 255
-10.3075 -40.8909 36.3751 0 0 1  255 255 255 255
-14.3115 -48.4386 36.3751 0 0 1  255 255 255 255
-12.1304 -33.9483 36.3751 0 0 1  255 255 255 255
-13.5227 -52.699 36.3751 0 0 1  255 255 255 255
-14.3627 -25.3669 36.3751 0 0 1  255 255 255 255
-14.141 -38.6905 36.3751 0 0 1  255 255 255 255
-10.6481 -18.4207 36.3751 0 0 1  255 255 255 255
-10.459 -46.942 36.3751 0 0 1  255 255 255 255
-3.00838 -39.5066 36.3751 0 0 1  255 255 255 255
-7.22437 -44.2872 36.3751 0 0 1  255 255 255 255
-9.28791 -27.6173 36.3751 0 0 1  255 255 255 255
-8.45338 -56.5327 36.3751 0 0 1  255 255 255 255
-11.836 -21.4168 36.3751 0 0 1  255 255 255 255
-12.3365 -62.4371 36.3751 0 0 1  255 255 255 255
-6.82542 -1.06288 36.3751 0 0 1  255 255 255 255
-12.9621 -42.4766 36.3751 0 0 1  255 255 255 255
-6.91959 -34.4877 36.3751 0 0 1  255 255 255 255
-10.2026 -56.8926 36.3751 0 0 1  255 255 255 255
-16.1765 -27.0626 36.3751 0 0 1  255 255 255 255
-16.1631 -36.4397 36.3751 0 0 1  255 255 255 255
-8.85428 -60.9225 36.3751 0 0 1  255 255 255 255
-12.5234 -15.9593 36.3751 0 0 1  255 255 255 255
-14.426 -11.6043 36.3751 0 0 1  255 255 255 255
-14.5352 -39.7005 36.3751 0 0 1  255 255 255 255
-4.87064 -12.7485 36.3751 0 0 1  255 255 255 255
-4.86946 -50.7511 36.3751 0 0 1  255 255 255 255
-14.2945 -50.7532 36.3751 0 0 1  255 255 255 255
-8.77072 -49.8555 36.3751 0 0 1  255 255 255 255
-10.9437 -53.8521 36.3751 0 0 1  255 255 255 255
-11.3386 -6.37166 36.3751 0 0 1  255 255 255 255
-11.6127 -12.5904 36.3751 0 0 1  255 255 255 255
-3.00115 -15.3045 36.3751 0 0 1  255 255 255 255
-3.00923 -48.2099 36.3751 0 0 1  255 255 255 255
-16.1535 -15.2865 36.3751 0 0 1  255 255 255 255
