ply
format ascii 1.0
comment VCGLIB generated
element vertex 756
property float x
property float y
property float z
property float nx
property float ny
property float nz
property uchar red
property uchar green
property uchar blue
property uchar alpha
element face 0
property list uchar int vertex_indices
end_header
-6.83964 -24.611 12.544 0.478715 0 -0.87797  255 255 255 255
-7.67114 -24.6048 12.0535 0.536913 0 -0.843638  255 255 255 255
-8.50092 -24.611 11.4833 0.59499 0 -0.803733  255 255 255 255
-9.25709 -24.6048 10.883 0.647915 0 -0.761713  255 255 255 255
-10.0006 -24.611 10.204 0.699951 0 -0.714191  255 255 255 255
-10.6669 -24.6048 9.50522 0.746592 0 -0.665282  255 255 255 255
-11.3099 -24.611 8.73034 0.791594 0 -0.611048  255 255 255 255
-11.8738 -24.6048 7.94646 0.83106 0 -0.556183  255 255 255 255
-12.404 -24.611 7.09043 0.868169 0 -0.496268  255 255 255 255
-12.8546 -24.6048 6.23638 0.899708 0 -0.436492  255 255 255 255
-13.2619 -24.611 5.3155 0.928217 0 -0.372038  255 255 255 255
-13.5907 -24.6048 4.40753 0.951228 0 -0.308489  255 255 255 255
-13.8674 -24.611 3.43934 0.970594 0 -0.240724  255 255 255 255
-14.068 -24.6048 2.49476 0.984637 0 -0.174611  255 255 255 255
-14.2088 -24.611 1.49768 0.994491 0 -0.104825  255 255 255 255
-14.2775 -24.6048 0.53447 0.9993 0 -0.037408  255 255 255 255
-14.2797 -24.611 -0.472489 0.999453 0 0.03307  255 255 255 255
-14.2152 -24.6049 -1.43599 0.994936 0 0.100507  255 255 255 255
-14.0787 -24.6111 -2.43366 0.985386 0 0.170335  255 255 255 255
-13.8822 -24.6049 -3.3791 0.97163 0 0.236507  255 255 255 255
-13.6097 -24.6111 -4.34847 0.952559 0 0.304355  255 255 255 255
-13.2849 -24.605 -5.25784 0.929825 0 0.368003  255 255 255 255
-12.8816 -24.6112 -6.18047 0.901596 0 0.432579  255 255 255 255
-12.4347 -24.605 -7.03647 0.870317 0 0.492491  255 255 255 255
-11.9082 -24.6112 -7.8948 0.833468 0 0.552567  255 255 255 255
-11.3477 -24.605 -8.68114 0.79424 0 0.607604  255 255 255 255
-10.7081 -24.6111 -9.45884 0.749472 0 0.662036  255 255 255 255
-10.0447 -24.6049 -10.1605 0.703041 0 0.711149  255 255 255 255
-9.3041 -24.6111 -10.8428 0.651206 0 0.758901  255 255 255 255
-8.55043 -24.6049 -11.4465 0.598455 0 0.801156  255 255 255 255
-7.72295 -24.611 -12.0203 0.540539 0 0.841319  255 255 255 255
-6.89334 -24.6049 -12.5146 0.482473 0 0.875911  255 255 255 255
-5.99474 -24.611 -12.969 0.41958 0 0.907719  255 255 255 255
-5.10498 -24.6049 -13.3444 0.357304 0 0.933988  255 255 255 255
-4.15238 -24.611 -13.6708 0.29063 0 0.956835  255 255 255 255
-3.21942 -24.6049 -13.9201 0.225331 0 0.974282  255 255 255 255
-2.23095 -24.6111 -14.1122 0.156147 0 0.987734  255 255 255 255
-1.27256 -24.6049 -14.2307 0.089068 0 0.996026  255 255 255 255
-0.267057 -24.6111 -14.285 0.018692 0 0.999825  255 255 255 255
0.698506 -24.6049 -14.2704 -0.048889 0 0.998804  255 255 255 255
1.70191 -24.611 -14.1858 -0.119119 0 0.99288  255 255 255 255
2.65627 -24.6047 -14.0384 -0.185915 0 0.982566  255 255 255 255
3.63846 -24.6106 -13.8164 -0.254661 0 0.96703  255 255 255 255
4.56344 -24.604 -13.5391 -0.319401 0 0.94762  255 255 255 255
5.50571 -24.6094 -13.1841 -0.385351 0 0.92277  255 255 255 255
6.38361 -24.6022 -12.7821 -0.446797 0 0.894635  255 255 255 255
7.26786 -24.6066 -12.3008 -0.508687 0 0.860952  255 255 255 255
8.08174 -24.5979 -11.7821 -0.565651 0 0.824645  255 255 255 255
8.89081 -24.6004 -11.1842 -0.622279 0 0.782795  255 255 255 255
9.62474 -24.589 -10.5592 -0.673647 0 0.739053  255 255 255 255
10.3427 -24.5874 -9.85699 -0.723902 0 0.689903  255 255 255 255
10.9822 -24.57 -9.13908 -0.768661 0 0.639656  255 255 255 255
11.5955 -24.559 -8.34731 -0.811582 0 0.584239  255 255 255 255
12.1301 -24.5254 -7.54934 -0.849003 0 0.528388  255 255 255 255
12.6331 -24.4909 -6.67363 -0.884207 0 0.467096  255 255 255 255
13.0593 -24.4496 -5.79555 -0.914034 0 0.405638  255 255 255 255
13.4522 -24.3344 -4.81364 -0.941536 0 0.336913  255 255 255 255
13.7892 -24.4491 -3.74041 -0.965123 0 0.261796  255 255 255 255
13.3647 24.2947 -5.05153 -0.935411 0 0.353563  255 255 255 255
12.9783 24.324 -5.97474 -0.908364 0 0.41818  255 255 255 255
12.5289 24.3994 -6.86722 -0.876915 0 0.480645  255 255 255 255
12.0648 24.4897 -7.65333 -0.84443 0 0.535666  255 255 255 255
11.5541 24.5177 -8.40446 -0.808687 0 0.588239  255 255 255 255
10.9772 24.5072 -9.14517 -0.768307 0 0.640082  255 255 255 255
10.3327 24.4927 -9.86749 -0.723201 0 0.690638  255 255 255 255
9.63003 24.4843 -10.5544 -0.674018 0 0.738715  255 255 255 255
8.87783 24.4863 -11.1945 -0.621371 0 0.783517  255 255 255 255
8.08601 24.4966 -11.7792 -0.56595 0 0.82444  255 255 255 255
7.26691 24.5037 -12.3014 -0.50862 0 0.860991  255 255 255 255
6.42005 24.4817 -12.7638 -0.449347 0 0.893357  255 255 255 255
5.51784 24.4529 -13.179 -0.3862 0 0.922415  255 255 255 255
4.56095 24.5137 -13.54 -0.319227 0 0.947678  255 255 255 255
3.64507 24.546 -13.8147 -0.255123 0 0.966909  255 255 255 255
2.67707 24.5804 -14.0345 -0.187371 0 0.982289  255 255 255 255
1.73431 24.5919 -14.1818 -0.121387 0 0.992605  255 255 255 255
0.740226 24.6071 -14.2683 -0.051809 0 0.998657  255 255 255 255
-0.219035 24.6047 -14.2858 0.015331 0 0.999882  255 255 255 255
-1.22011 24.6123 -14.2353 0.085397 0 0.996347  255 255 255 255
-2.17591 24.6065 -14.1208 0.152295 0 0.988335  255 255 255 255
-3.16298 24.6126 -13.933 0.221381 0 0.975187  255 255 255 255
-4.09559 24.6063 -13.6879 0.286656 0 0.958034  255 255 255 255
-5.04862 24.6123 -13.3658 0.353359 0 0.935488  255 255 255 255
-5.9394 24.606 -12.9945 0.415706 0 0.909499  255 255 255 255
-6.83956 24.6121 -12.544 0.478709 0 0.877973  255 255 255 255
-7.67108 24.6058 -12.0535 0.536908 0 0.843641  255 255 255 255
-8.50088 24.612 -11.4834 0.594987 0 0.803735  255 255 255 255
-9.25708 24.6058 -10.883 0.647915 0 0.761713  255 255 255 255
-10.0006 24.6119 -10.204 0.699953 0 0.714189  255 255 255 255
-10.667 24.6058 -9.50517 0.746595 0 0.665279  255 255 255 255
-11.31 24.6119 -8.73026 0.791598 0 0.611042  255 255 255 255
-11.8738 24.6058 -7.94636 0.831065 0 0.556176  255 255 255 255
-12.404 24.6119 -7.09031 0.868174 0 0.49626  255 255 255 255
-12.8546 24.6058 -6.23625 0.899713 0 0.436483  255 255 255 255
-13.262 24.6119 -5.31536 0.928221 0 0.372029  255 255 255 255
-13.5907 24.6058 -4.4074 0.951231 0 0.308479  255 255 255 255
-13.8674 24.6119 -3.43921 0.970596 0 0.240715  255 255 255 255
-14.068 24.6058 -2.49464 0.984639 0 0.174603  255 255 255 255
-14.2088 24.6119 -1.49758 0.994492 0 0.104817  255 255 255 255
-14.2775 24.6058 -0.534372 0.9993 0 0.037401  255 255 255 255
-14.2797 24.6119 0.472574 0.999453 0 -0.033076  255 255 255 255
-14.2151 24.6058 1.43607 0.994936 0 -0.100512  255 255 255 255
-14.0787 24.6119 2.43373 0.985385 0 -0.17034  255 255 255 255
-13.8821 24.6058 3.37917 0.971629 0 -0.236512  255 255 255 255
-13.6097 24.612 4.34855 0.952557 0 -0.30436  255 255 255 255
-13.2848 24.6058 5.25793 0.929822 0 -0.368009  255 255 255 255
-12.8815 24.612 6.18057 0.901593 0 -0.432586  255 255 255 255
-12.4346 24.6059 7.03659 0.870313 0 -0.492499  255 255 255 255
-11.9081 24.612 7.89492 0.833463 0 -0.552576  255 255 255 255
-11.3476 24.6059 8.68126 0.794234 0 -0.607613  255 255 255 255
-10.708 24.6121 9.45896 0.749465 0 -0.662044  255 255 255 255
-10.0446 24.6059 10.1607 0.703033 0 -0.711157  255 255 255 255
-9.30398 24.6121 10.8429 0.651198 0 -0.758908  255 255 255 255
-8.55031 24.6059 11.4466 0.598447 0 -0.801162  255 255 255 255
-7.72285 24.6121 12.0204 0.540532 0 -0.841323  255 255 255 255
-6.89325 24.6059 12.5146 0.482467 0 -0.875914  255 255 255 255
-5.99468 24.6121 12.9691 0.419575 0 -0.907721  255 255 255 255
-5.10494 24.6059 13.3444 0.357301 0 -0.933989  255 255 255 255
-4.15237 24.6121 13.6708 0.29063 0 -0.956836  255 255 255 255
-3.21945 24.6059 13.9201 0.225333 0 -0.974282  255 255 255 255
-2.23101 24.6121 14.1122 0.156151 0 -0.987733  255 255 255 255
-1.27265 24.6059 14.2307 0.089075 0 -0.996025  255 255 255 255
-0.267167 24.6121 14.285 0.018699 0 -0.999825  255 255 255 255
0.698382 24.6058 14.2704 -0.048881 0 -0.998805  255 255 255 255
1.70178 24.6119 14.1858 -0.11911 0 -0.992881  255 255 255 255
2.65614 24.6056 14.0384 -0.185907 0 -0.982567  255 255 255 255
3.63835 24.6115 13.8165 -0.254652 0 -0.967033  255 255 255 255
4.56333 24.6049 13.5392 -0.319394 0 -0.947622  255 255 255 255
5.50561 24.6103 13.1841 -0.385345 0 -0.922773  255 255 255 255
6.38353 24.603 12.7821 -0.446791 0 -0.894638  255 255 255 255
7.26779 24.6074 12.3009 -0.508682 0 -0.860955  255 255 255 255
8.08167 24.5987 11.7822 -0.565646 0 -0.824648  255 255 255 255
8.89074 24.6012 11.1842 -0.622274 0 -0.7828  255 255 255 255
9.62466 24.5897 10.5593 -0.673642 0 -0.739058  255 255 255 255
10.3427 24.5881 9.85708 -0.723896 0 -0.689909  255 255 255 255
10.9822 24.5707 9.1392 -0.768655 0 -0.639664  255 255 255 255
11.5954 24.5596 8.34746 -0.811575 0 -0.584249  255 255 255 255
12.13 24.5259 7.54951 -0.848996 0 -0.5284  255 255 255 255
12.633 24.4914 6.67384 -0.884199 0 -0.46711  255 255 255 255
13.0592 24.45 5.79579 -0.914027 0 -0.405654  255 255 255 255
13.4521 24.3348 4.81392 -0.941529 0 -0.336932  255 255 255 255
13.7891 24.4494 3.74065 -0.965119 0 -0.261813  255 255 255 255
13.7205 -24.1416 3.98504 -0.960315 0 -0.278918  255 255 255 255
13.7205 24.1415 -3.98501 -0.960315 0 0.278916  255 255 255 255
14.0218 -23.8719 2.74245 -0.981405 0 -0.191948  255 255 255 255
14.0218 23.8718 -2.74241 -0.981406 0 0.191944  255 255 255 255
14.1968 -24.4538 -1.60725 -0.993652 0 0.112493  255 255 255 255
14.1968 24.4539 1.60737 -0.993651 0 -0.112502  255 255 255 255
13.3781 -25.1267 5.01576 -0.936353 0 -0.351059  255 255 255 255
12.9905 -25.1134 5.94797 -0.909225 0 -0.416306  255 255 255 255
12.5543 -25.1487 6.82073 -0.878691 0 -0.477391  255 255 255 255
12.0794 -25.2024 7.63032 -0.845449 0 -0.534056  255 255 255 255
11.5562 -25.2276 8.40154 -0.808836 0 -0.588034  255 255 255 255
10.9729 -25.2288 9.15029 -0.768008 0 -0.64044  255 255 255 255
10.328 -25.2212 9.87248 -0.722867 0 -0.690987  255 255 255 255
9.62804 -25.2127 10.5562 -0.673879 0 -0.738842  255 255 255 255
8.88081 -25.2083 11.1921 -0.621579 0 -0.783351  255 255 255 255
8.09312 -25.209 11.7743 -0.566447 0 -0.824098  255 255 255 255
7.27135 -25.2078 12.2988 -0.508931 0 -0.860807  255 255 255 255
6.41515 -25.195 12.7663 -0.449004 0 -0.89353  255 255 255 255
5.51441 -25.1849 13.1804 -0.38596 0 -0.922515  255 255 255 255
4.5804 -25.2126 13.5334 -0.320588 0 -0.947219  255 255 255 255
3.64303 -25.2396 13.8152 -0.25498 0 -0.966946  255 255 255 255
2.68629 -25.2624 14.0327 -0.188017 0 -0.982166  255 255 255 255
1.72374 -25.276 14.1831 -0.120647 0 -0.992695  255 255 255 255
0.744521 -25.2854 14.2681 -0.05211 0 -0.998641  255 255 255 255
-0.232897 -25.2884 14.2856 0.016301 0 -0.999867  255 255 255 255
-1.21778 -25.2912 14.2355 0.085234 0 -0.996361  255 255 255 255
-2.19098 -25.2908 14.1185 0.15335 0 -0.988172  255 255 255 255
-3.16162 -25.292 13.9333 0.221286 0 -0.975209  255 255 255 255
-4.11089 -25.2909 13.6833 0.287726 0 -0.957713  255 255 255 255
-5.04778 -25.2919 13.3661 0.3533 0 -0.93551  255 255 255 255
-5.95424 -25.2908 12.9877 0.416745 0 -0.909024  255 255 255 255
-6.83895 -25.2918 12.5444 0.478667 0 -0.877997  255 255 255 255
-7.68494 -25.2908 12.0447 0.537879 0 -0.843022  255 255 255 255
-8.50036 -25.2918 11.4838 0.594951 0 -0.803762  255 255 255 255
-9.2696 -25.2908 10.8723 0.648791 0 -0.760967  255 255 255 255
-10.0001 -25.2918 10.2044 0.69992 0 -0.714222  255 255 255 255
-10.6779 -25.2908 9.49291 0.747359 0 -0.66442  255 255 255 255
-11.3095 -25.2918 8.73081 0.791568 0 -0.611081  255 255 255 255
-11.8829 -25.2908 7.93274 0.831702 0 -0.555222  255 255 255 255
-12.4037 -25.2918 7.09094 0.868149 0 -0.496304  255 255 255 255
-12.8618 -25.2908 6.22151 0.900212 0 -0.435451  255 255 255 255
-13.2617 -25.2918 5.31603 0.928202 0 -0.372076  255 255 255 255
-13.5958 -25.2908 4.39182 0.951584 0 -0.307389  255 255 255 255
-13.8672 -25.2918 3.4399 0.970584 0 -0.240763  255 255 255 255
-14.0709 -25.2908 2.47849 0.984839 0 -0.173473  255 255 255 255
-14.2087 -25.2919 1.49827 0.994486 0 -0.104866  255 255 255 255
-14.2781 -25.2908 0.517975 0.999343 0 -0.036254  255 255 255 255
-14.2797 -25.2919 -0.471891 0.999454 0 0.033028  255 255 255 255
-14.2135 -25.2908 -1.4524 0.99482 0 0.101656  255 255 255 255
-14.0788 -25.2919 -2.43306 0.985393 0 0.170293  255 255 255 255
-13.8783 -25.2909 -3.39512 0.971356 0 0.237629  255 255 255 255
-13.6099 -25.292 -4.3479 0.952572 0 0.304315  255 255 255 255
-13.2788 -25.2909 -5.27318 0.929399 0 0.369076  255 255 255 255
-12.8818 -25.292 -6.17994 0.901614 0 0.432542  255 255 255 255
-12.4265 -25.2909 -7.05084 0.869748 0 0.493497  255 255 255 255
-11.9085 -25.292 -7.89432 0.833491 0 0.552533  255 255 255 255
-11.3377 -25.2909 -8.69425 0.793537 0 0.608522  255 255 255 255
-10.7085 -25.2919 -9.4584 0.749499 0 0.662006  255 255 255 255
-10.0329 -25.2909 -10.1722 0.702218 0 0.711962  255 255 255 255
-9.30454 -25.2919 -10.8424 0.651236 0 0.758875  255 255 255 255
-8.53719 -25.2908 -11.4564 0.597529 0 0.801848  255 255 255 255
-7.72345 -25.2919 -12.02 0.540574 0 0.841296  255 255 255 255
-6.87888 -25.2908 -12.5225 0.481462 0 0.876467  255 255 255 255
-5.9953 -25.2919 -12.9688 0.419618 0 0.907701  255 255 255 255
-5.08959 -25.2908 -13.3502 0.356227 0 0.9344  255 255 255 255
-4.15299 -25.2919 -13.6706 0.290673 0 0.956823  255 255 255 255
-3.20339 -25.2908 -13.9238 0.224209 0 0.974541  255 255 255 255
-2.2316 -25.2919 -14.1121 0.156193 0 0.987727  255 255 255 255
-1.2562 -25.2908 -14.2322 0.087923 0 0.996127  255 255 255 255
-0.267732 -25.2919 -14.285 0.018739 0 0.999824  255 255 255 255
0.714906 -25.2908 -14.2696 -0.050037 0 0.998747  255 255 255 255
1.70124 -25.2918 -14.1859 -0.119072 0 0.992886  255 255 255 255
2.67242 -25.2907 -14.0353 -0.187046 0 0.982351  255 255 255 255
3.63785 -25.2915 -13.8166 -0.254618 0 0.967042  255 255 255 255
4.57909 -25.2901 -13.5338 -0.320496 0 0.94725  255 255 255 255
5.50526 -25.2907 -13.1843 -0.38532 0 0.922783  255 255 255 255
6.39862 -25.2888 -12.7746 -0.447848 0 0.89411  255 255 255 255
7.26783 -25.2886 -12.3009 -0.508684 0 0.860953  255 255 255 255
8.09618 -25.2857 -11.7722 -0.566662 0 0.82395  255 255 255 255
8.89169 -25.2843 -11.1835 -0.62234 0 0.782747  255 255 255 255
9.63903 -25.2797 -10.5462 -0.674648 0 0.73814  255 255 255 255
10.3455 -25.2759 -9.85411 -0.724093 0 0.689702  255 255 255 255
10.9975 -25.2678 -9.12067 -0.769732 0 0.638367  255 255 255 255
11.6021 -25.2586 -8.3381 -0.812046 0 0.583594  255 255 255 255
12.1486 -25.2419 -7.51958 -0.850296 0 0.526305  255 255 255 255
12.644 -25.2231 -6.65303 -0.884967 0 0.465654  255 255 255 255
13.0786 -25.2032 -5.75182 -0.915386 0 0.402577  255 255 255 255
13.4631 -25.1828 -4.78307 -0.942299 0 0.334773  255 255 255 255
13.7913 -25.262 -3.73273 -0.965269 0 0.261258  255 255 255 255
13.3782 25.1266 -5.01575 -0.936354 0 0.351058  255 255 255 255
12.9905 25.1133 -5.94797 -0.909225 0 0.416306  255 255 255 255
12.5543 25.1487 -6.82075 -0.87869 0 0.477393  255 255 255 255
12.0793 25.2025 -7.63035 -0.845448 0 0.534058  255 255 255 255
11.5562 25.2277 -8.40156 -0.808835 0 0.588035  255 255 255 255
10.9729 25.2289 -9.15028 -0.768009 0 0.640439  255 255 255 255
10.328 25.2214 -9.87243 -0.722871 0 0.690983  255 255 255 255
9.62816 25.2128 -10.5561 -0.673887 0 0.738835  255 255 255 255
8.881 25.2083 -11.192 -0.621593 0 0.783341  255 255 255 255
8.09337 25.2089 -11.7741 -0.566465 0 0.824086  255 255 255 255
7.27161 25.2075 -12.2986 -0.508949 0 0.860797  255 255 255 255
6.41533 25.1945 -12.7662 -0.449017 0 0.893523  255 255 255 255
5.51441 25.1844 -13.1804 -0.385961 0 0.922515  255 255 255 255
4.58016 25.212 -13.5335 -0.320571 0 0.947224  255 255 255 255
3.64257 25.2392 -13.8154 -0.254948 0 0.966955  255 255 255 255
2.68567 25.2622 -14.0328 -0.187973 0 0.982174  255 255 255 255
1.72307 25.2761 -14.1832 -0.1206 0 0.992701  255 255 255 255
0.743894 25.2858 -14.2681 -0.052066 0 0.998644  255 255 255 255
-0.233413 25.2889 -14.2856 0.016337 0 0.999867  255 255 255 255
-1.21815 25.2919 -14.2355 0.08526 0 0.996359  255 255 255 255
-2.19122 25.2915 -14.1185 0.153366 0 0.988169  255 255 255 255
-3.16174 25.2928 -13.9333 0.221294 0 0.975207  255 255 255 255
-4.11092 25.2917 -13.6833 0.287728 0 0.957712  255 255 255 255
-5.04776 25.2927 -13.3661 0.353299 0 0.93551  255 255 255 255
-5.9542 25.2916 -12.9877 0.416742 0 0.909025  255 255 255 255
-6.8389 25.2926 -12.5444 0.478663 0 0.877999  255 255 255 255
-7.6849 25.2915 -12.0447 0.537876 0 0.843024  255 255 255 255
-8.50033 25.2925 -11.4838 0.594949 0 0.803763  255 255 255 255
-9.2696 25.2915 -10.8723 0.648791 0 0.760967  255 255 255 255
-10.0001 25.2925 -10.2044 0.699921 0 0.714221  255 255 255 255
-10.6779 25.2915 -9.49287 0.747361 0 0.664418  255 255 255 255
-11.3096 25.2925 -8.73077 0.791571 0 0.611077  255 255 255 255
-11.883 25.2914 -7.93267 0.831705 0 0.555218  255 255 255 255
-12.4037 25.2925 -7.09086 0.868152 0 0.496298  255 255 255 255
-12.8618 25.2914 -6.22143 0.900215 0 0.435445  255 255 255 255
-13.2617 25.2925 -5.31595 0.928205 0 0.37207  255 255 255 255
-13.5958 25.2914 -4.39173 0.951586 0 0.307383  255 255 255 255
-13.8672 25.2925 -3.43982 0.970585 0 0.240757  255 255 255 255
-14.0709 25.2914 -2.47842 0.98484 0 0.173467  255 255 255 255
-14.2087 25.2925 -1.4982 0.994487 0 0.104861  255 255 255 255
-14.2781 25.2914 -0.517912 0.999343 0 0.036249  255 255 255 255
-14.2797 25.2925 0.471946 0.999454 0 -0.033032  255 255 255 255
-14.2135 25.2915 1.45245 0.994819 0 -0.101659  255 255 255 255
-14.0788 25.2925 2.43311 0.985393 0 -0.170296  255 255 255 255
-13.8782 25.2915 3.39516 0.971355 0 -0.237632  255 255 255 255
-13.6098 25.2925 4.34795 0.95257 0 -0.304318  255 255 255 255
-13.2788 25.2915 5.27324 0.929397 0 -0.36908  255 255 255 255
-12.8818 25.2926 6.18 0.901612 0 -0.432546  255 255 255 255
-12.4265 25.2915 7.05091 0.869745 0 -0.493502  255 255 255 255
-11.9085 25.2926 7.89439 0.833487 0 -0.552539  255 255 255 255
-11.3376 25.2915 8.69433 0.793533 0 -0.608527  255 255 255 255
-10.7084 25.2926 9.45848 0.749494 0 -0.662011  255 255 255 255
-10.0329 25.2915 10.1722 0.702213 0 -0.711967  255 255 255 255
-9.30447 25.2926 10.8425 0.651231 0 -0.758879  255 255 255 255
-8.53712 25.2915 11.4565 0.597523 0 -0.801851  255 255 255 255
-7.72338 25.2926 12.0201 0.540569 0 -0.841299  255 255 255 255
-6.87882 25.2916 12.5226 0.481458 0 -0.876469  255 255 255 255
-5.99525 25.2926 12.9688 0.419615 0 -0.907702  255 255 255 255
-5.08956 25.2916 13.3502 0.356225 0 -0.9344  255 255 255 255
-4.15298 25.2926 13.6706 0.290672 0 -0.956823  255 255 255 255
-3.2034 25.2916 13.9238 0.22421 0 -0.974541  255 255 255 255
-2.23164 25.2926 14.1121 0.156195 0 -0.987726  255 255 255 255
-1.25625 25.2916 14.2322 0.087927 0 -0.996127  255 255 255 255
-0.2678 25.2926 14.285 0.018744 0 -0.999824  255 255 255 255
0.714829 25.2915 14.2696 -0.050032 0 -0.998748  255 255 255 255
1.70116 25.2925 14.1859 -0.119066 0 -0.992886  255 255 255 255
2.67234 25.2913 14.0354 -0.18704 0 -0.982352  255 255 255 255
3.63778 25.2922 13.8166 -0.254613 0 -0.967043  255 255 255 255
4.57902 25.2907 13.5339 -0.320492 0 -0.947251  255 255 255 255
5.5052 25.2913 13.1843 -0.385316 0 -0.922785  255 255 255 255
6.39857 25.2893 12.7746 -0.447844 0 -0.894112  255 255 255 255
7.26778 25.2892 12.3009 -0.508681 0 -0.860955  255 255 255 255
8.09614 25.2863 11.7722 -0.566659 0 -0.823953  255 255 255 255
8.89164 25.2848 11.1835 -0.622337 0 -0.782749  255 255 255 255
9.63898 25.2803 10.5462 -0.674644 0 -0.738143  255 255 255 255
10.3454 25.2764 9.85417 -0.72409 0 -0.689706  255 255 255 255
10.9975 25.2683 9.12075 -0.769728 0 -0.638372  255 255 255 255
11.602 25.259 8.33819 -0.812041 0 -0.5836  255 255 255 255
12.1485 25.2423 7.5197 -0.850291 0 -0.526313  255 255 255 255
12.6439 25.2235 6.65317 -0.884962 0 -0.465664  255 255 255 255
13.0785 25.2035 5.75198 -0.915381 0 -0.402588  255 255 255 255
13.463 25.183 4.78325 -0.942294 0 -0.334785  255 255 255 255
13.7912 25.2622 3.73288 -0.965266 0 -0.261269  255 255 255 255
13.7411 -25.1886 3.9134 -0.961757 0 -0.273904  255 255 255 255
13.7411 25.1886 -3.91337 -0.961758 0 0.273902  255 255 255 255
14.029 -25.2957 -2.70571 -0.981905 0 0.189376  255 255 255 255
14.0289 25.2959 2.70584 -0.981903 0 -0.189385  255 255 255 255
14.0633 -24.9815 2.52111 -0.984309 0 -0.176456  255 255 255 255
14.0633 24.9814 -2.52108 -0.984309 0 0.176453  255 255 255 255
14.1217 -4.30567 2.17025 -0.988396 0 -0.151898  255 255 255 255
14.123 4.28151 -2.16207 -0.988484 0 0.151326  255 255 255 255
14.2356 -25.7159 -1.21628 -0.99637 0 0.085129  255 255 255 255
14.2356 25.716 1.21633 -0.99637 0 -0.085133  255 255 255 255
14.0537 5.29758 2.57432 -0.983634 0 -0.18018  255 255 255 255
14.0566 -5.29906 -2.55828 -0.983839 0 0.179057  255 255 255 255
14.1106 -11.9866 2.24135 -0.987619 0 -0.156875  255 255 255 255
14.111 11.981 -2.23883 -0.987646 0 0.156699  255 255 255 255
13.7241 -12.3761 3.9726 -0.960567 0 -0.278047  255 255 255 255
13.006 -11.909 5.91418 -0.910304 0 -0.413941  255 255 255 255
12.5233 -11.8051 6.87738 -0.876525 0 -0.481357  255 255 255 255
12.0089 -11.7292 7.74072 -0.840518 0 -0.541783  255 255 255 255
11.4431 -11.6787 8.55506 -0.800914 0 -0.598779  255 255 255 255
10.8255 -11.646 9.32427 -0.757688 0 -0.652617  255 255 255 255
10.1551 -11.6243 10.0502 -0.710769 0 -0.703425  255 255 255 255
9.43558 -11.6099 10.7286 -0.660408 0 -0.750907  255 255 255 255
8.6698 -11.6004 11.3564 -0.60681 0 -0.794847  255 255 255 255
7.87287 -11.5924 11.9227 -0.551032 0 -0.834484  255 255 255 255
7.06089 -11.589 12.4208 -0.4942 0 -0.869348  255 255 255 255
6.20998 -11.6359 12.8674 -0.434644 0 -0.900602  255 255 255 255
5.28979 -11.6186 13.2722 -0.370239 0 -0.928936  255 255 255 255
4.35005 -11.6054 13.6092 -0.304465 0 -0.952523  255 255 255 255
3.39782 -11.5974 13.8776 -0.237817 0 -0.97131  255 255 255 255
2.43456 -11.5863 14.0786 -0.170398 0 -0.985375  255 255 255 255
1.46169 -11.5693 14.2125 -0.102305 0 -0.994753  255 255 255 255
0.473401 -11.5395 14.2797 -0.033134 0 -0.999451  255 255 255 255
-0.532806 -11.5143 14.2776 0.037292 0 -0.999304  255 255 255 255
-1.53877 -11.5057 14.2044 0.1077 0 -0.994183  255 255 255 255
-2.53248 -11.5121 14.0613 0.177251 0 -0.984166  255 255 255 255
-3.49992 -11.5218 13.8522 0.244964 0 -0.969532  255 255 255 255
-4.44583 -11.5266 13.5782 0.311169 0 -0.950355  255 255 255 255
-5.37263 -11.5308 13.2389 0.376037 0 -0.926605  255 255 255 255
-6.27671 -11.5413 12.8349 0.439315 0 -0.898333  255 255 255 255
-7.14235 -11.5535 12.3741 0.499902 0 -0.866082  255 255 255 255
-7.96933 -11.5609 11.8584 0.557783 0 -0.829987  255 255 255 255
-8.75667 -11.5629 11.2895 0.61289 0 -0.790168  255 255 255 255
-9.50588 -11.5592 10.6663 0.665328 0 -0.746551  255 255 255 255
-10.215 -11.5502 9.98929 0.714962 0 -0.699163  255 255 255 255
-10.8823 -11.5425 9.25785 0.761667 0 -0.647969  255 255 255 255
-11.4954 -11.5413 8.4846 0.804578 0 -0.593847  255 255 255 255
-12.052 -11.5399 7.67349 0.843533 0 -0.537077  255 255 255 255
-12.5525 -11.534 6.82401 0.878566 0 -0.477621  255 255 255 255
-12.9969 -11.5293 5.93414 0.909667 0 -0.415338  255 255 255 255
-13.377 -11.5322 5.01885 0.936272 0 -0.351276  255 255 255 255
-13.6912 -11.5381 4.0846 0.958264 0 -0.285886  255 255 255 255
-13.9391 -11.5419 3.13597 0.975615 0 -0.21949  255 255 255 255
-14.1216 -11.5408 2.17102 0.988388 0 -0.151952  255 255 255 255
-14.2378 -11.5343 1.1904 0.996523 0 -0.083317  255 255 255 255
-14.2862 -11.5296 0.194281 0.999908 0 -0.013598  255 255 255 255
-14.2651 -11.5327 -0.799469 0.998433 0 0.055956  255 255 255 255
-14.1757 -11.5392 -1.7842 0.992172 0 0.124878  255 255 255 255
-14.0193 -11.5447 -2.75539 0.981228 0 0.192853  255 255 255 255
-13.7965 -11.5481 -3.7134 0.965634 0 0.259906  255 255 255 255
-13.5087 -11.5497 -4.65263 0.945493 0 0.325644  255 255 255 255
-13.1565 -11.5516 -5.57118 0.920843 0 0.389934  255 255 255 255
-12.7441 -11.5582 -6.45914 0.891976 0 0.452083  255 255 255 255
-12.2734 -11.5594 -7.31413 0.85903 0 0.511925  255 255 255 255
-11.7408 -11.5474 -8.14158 0.821756 0 0.569839  255 255 255 255
-11.1447 -11.5382 -8.94023 0.780033 0 0.625738  255 255 255 255
-10.4968 -11.539 -9.69275 0.734685 0 0.678408  255 255 255 255
-9.80289 -11.5437 -10.394 0.686117 0 0.727492  255 255 255 255
-9.06695 -11.5463 -11.0419 0.634607 0 0.772835  255 255 255 255
-8.28741 -11.5433 -11.6384 0.580046 0 0.814584  255 255 255 255
-7.46407 -11.5338 -12.1828 0.522419 0 0.852689  255 255 255 255
-6.59578 -11.5247 -12.6739 0.461647 0 0.887064  255 255 255 255
-5.69704 -11.5225 -13.1025 0.398743 0 0.917063  255 255 255 255
-4.77391 -11.5248 -13.4663 0.334132 0 0.942526  255 255 255 255
-3.83384 -11.5323 -13.7635 0.268336 0 0.963326  255 255 255 255
-2.87735 -11.5366 -13.9948 0.201389 0 0.979511  255 255 255 255
-1.89962 -11.5345 -14.1607 0.132957 0 0.991122  255 255 255 255
-0.906189 -11.5406 -14.2587 0.063425 0 0.997987  255 255 255 255
0.082155 -11.5503 -14.2873 -0.00575 0 0.999983  255 255 255 255
1.06414 -11.5557 -14.2478 -0.07448 0 0.997222  255 255 255 255
2.03819 -11.5573 -14.1414 -0.142656 0 0.989772  255 255 255 255
3.00441 -11.5566 -13.968 -0.210283 0 0.977641  255 255 255 255
3.95601 -11.5548 -13.7289 -0.276886 0 0.960903  255 255 255 255
4.89064 -11.5522 -13.4244 -0.342302 0 0.93959  255 255 255 255
5.80121 -11.549 -13.0567 -0.406034 0 0.913858  255 255 255 255
6.68554 -11.5456 -12.6268 -0.467929 0 0.883766  255 255 255 255
7.53699 -11.5426 -12.1378 -0.527523 0 0.849541  255 255 255 255
8.35349 -11.5407 -11.591 -0.584671 0 0.811271  255 255 255 255
9.12892 -11.5409 -10.9907 -0.638944 0 0.769253  255 255 255 255
9.86172 -11.5442 -10.3382 -0.690234 0 0.723586  255 255 255 255
10.5474 -11.5526 -9.63768 -0.738226 0 0.674553  255 255 255 255
11.1866 -11.5705 -8.88778 -0.782964 0 0.622067  255 255 255 255
11.7776 -11.608 -8.08835 -0.824327 0 0.566114  255 255 255 255
12.3196 -11.6802 -7.23602 -0.862265 0 0.506458  255 255 255 255
12.8055 -11.7749 -6.33662 -0.89627 0 0.443508  255 255 255 255
13.219 -11.8159 -5.4212 -0.925218 0 0.379437  255 255 255 255
13.562 -11.8827 -4.49487 -0.949224 0 0.314602  255 255 255 255
13.86 -11.8492 -3.46874 -0.970081 0 0.242781  255 255 255 255
13.725 12.3645 -3.96946 -0.960631 0 0.277827  255 255 255 255
13.0062 11.8854 -5.91375 -0.910317 0 0.413911  255 255 255 255
12.5199 11.7771 -6.88371 -0.876282 0 0.481799  255 255 255 255
11.9972 11.7047 -7.75886 -0.839699 0 0.543052  255 255 255 255
11.4212 11.6712 -8.58416 -0.799387 0 0.600816  255 255 255 255
10.8013 11.6599 -9.3522 -0.755999 0 0.654572  255 255 255 255
10.1376 11.6461 -10.0679 -0.709543 0 0.704662  255 255 255 255
9.42597 11.6317 -10.737 -0.659736 0 0.751498  255 255 255 255
8.66789 11.6156 -11.3578 -0.606676 0 0.794949  255 255 255 255
7.87271 11.5999 -11.9228 -0.551021 0 0.834491  255 255 255 255
7.05848 11.5976 -12.4222 -0.494032 0 0.869444  255 255 255 255
6.2075 11.6502 -12.8685 -0.434471 0 0.900686  255 255 255 255
5.2902 11.6314 -13.272 -0.370268 0 0.928925  255 255 255 255
4.34697 11.6119 -13.6102 -0.30425 0 0.952592  255 255 255 255
3.38433 11.6006 -13.8809 -0.236874 0 0.97154  255 255 255 255
2.40754 11.596 -14.0832 -0.168507 0 0.985701  255 255 255 255
1.42282 11.5946 -14.2165 -0.099585 0 0.995029  255 255 255 255
0.435702 11.5963 -14.2809 -0.030495 0 0.999535  255 255 255 255
-0.55021 11.593 -14.2769 0.03851 0 0.999258  255 255 255 255
-1.53323 11.5844 -14.205 0.107313 0 0.994225  255 255 255 255
-2.50965 11.5779 -14.0654 0.175654 0 0.984452  255 255 255 255
-3.47429 11.5724 -13.8586 0.24317 0 0.969984  255 255 255 255
-4.42223 11.5693 -13.5859 0.309517 0 0.950894  255 255 255 255
-5.34891 11.5659 -13.2485 0.374377 0 0.927277  255 255 255 255
-6.25011 11.564 -12.8479 0.437453 0 0.899241  255 255 255 255
-7.12187 11.5617 -12.3859 0.498469 0 0.866908  255 255 255 255
-7.96013 11.5612 -11.8646 0.557139 0 0.830419  255 255 255 255
-8.76052 11.5608 -11.2865 0.613159 0 0.789959  255 255 255 255
-9.51879 11.5624 -10.6548 0.666232 0 0.745744  255 255 255 255
-10.2312 11.5632 -9.97275 0.716093 0 0.698005  255 255 255 255
-10.8943 11.5645 -9.24373 0.762507 0 0.64698  255 255 255 255
-11.5053 11.5639 -8.4712 0.805269 0 0.59291  255 255 255 255
-12.0615 11.5632 -7.65855 0.844198 0 0.536032  255 255 255 255
-12.5604 11.5607 -6.80939 0.879121 0 0.476598  255 255 255 255
-12.9998 11.5591 -5.92761 0.909876 0 0.414881  255 255 255 255
-13.3775 11.5569 -5.01738 0.936311 0 0.351173  255 255 255 255
-13.6917 11.5563 -4.08288 0.958299 0 0.285766  255 255 255 255
-13.9408 11.5555 -3.12851 0.975732 0 0.218968  255 255 255 255
-14.1235 11.5562 -2.15888 0.988518 0 0.151102  255 255 255 255
-14.2388 11.556 -1.17884 0.99659 0 0.082509  255 255 255 255
-14.2862 11.5563 -0.193055 0.999909 0 0.013512  255 255 255 255
-14.2654 11.5554 0.794038 0.998454 0 -0.055576  255 255 255 255
-14.1765 11.556 1.77787 0.992228 0 -0.124435  255 255 255 255
-14.0197 11.5568 2.75337 0.981255 0 -0.192712  255 255 255 255
-13.796 11.5598 3.71542 0.965596 0 -0.260047  255 255 255 255
-13.5065 11.5624 4.65919 0.945334 0 -0.326102  255 255 255 255
-13.1527 11.5663 5.58014 0.920577 0 -0.390561  255 255 255 255
-12.7366 11.5692 6.47399 0.891448 0 -0.453122  255 255 255 255
-12.26 11.5732 7.33655 0.858093 0 -0.513495  255 255 255 255
-11.7255 11.577 8.16359 0.820686 0 -0.57138  255 255 255 255
-11.1361 11.5816 8.95092 0.779432 0 -0.626486  255 255 255 255
-10.4942 11.5801 9.69555 0.734504 0 -0.678604  255 255 255 255
-9.8011 11.5732 10.3957 0.685992 0 -0.727609  255 255 255 255
-9.05947 11.5689 11.048 0.634084 0 -0.773264  255 255 255 255
-8.27361 11.5663 11.6482 0.57908 0 -0.81527  255 255 255 255
-7.44803 11.5669 12.1926 0.521297 0 -0.853375  255 255 255 255
-6.5871 11.5682 12.6784 0.46104 0 -0.88738  255 255 255 255
-5.69524 11.5718 13.1033 0.398617 0 -0.917117  255 255 255 255
-4.77722 11.576 13.4652 0.334364 0 -0.942444  255 255 255 255
-3.83812 11.5815 13.7623 0.268635 0 -0.963242  255 255 255 255
-2.88186 11.5811 13.9938 0.201705 0 -0.979446  255 255 255 255
-1.91079 11.5753 14.1592 0.133739 0 -0.991017  255 255 255 255
-0.929233 11.5717 14.2572 0.065038 0 -0.997883  255 255 255 255
0.057301 11.5695 14.2874 -0.004011 0 -0.999992  255 255 255 255
1.04372 11.5702 14.2493 -0.073051 0 -0.997328  255 255 255 255
2.02501 11.5719 14.1433 -0.141733 0 -0.989905  255 255 255 255
2.99575 11.5761 13.9699 -0.209677 0 -0.977771  255 255 255 255
3.9513 11.5754 13.7303 -0.276556 0 -0.960998  255 255 255 255
4.88849 11.5701 13.4252 -0.342152 0 -0.939645  255 255 255 255
5.80264 11.567 13.0561 -0.406134 0 -0.913813  255 255 255 255
6.68857 11.5646 12.6252 -0.468142 0 -0.883653  255 255 255 255
7.5419 11.5643 12.1348 -0.527867 0 -0.849327  255 255 255 255
8.35862 11.5645 11.5873 -0.58503 0 -0.811012  255 255 255 255
9.13467 11.5683 10.9859 -0.639347 0 -0.768918  255 255 255 255
9.86621 11.5753 10.3339 -0.690549 0 -0.723286  255 255 255 255
10.5501 11.589 9.63472 -0.738416 0 -0.674346  255 255 255 255
11.1844 11.6101 8.89059 -0.782808 0 -0.622263  255 255 255 255
11.7683 11.646 8.10182 -0.823679 0 -0.567056  255 255 255 255
12.3035 11.7039 7.26331 -0.86114 0 -0.508368  255 255 255 255
12.7907 11.781 6.36646 -0.895234 0 -0.445597  255 255 255 255
13.2092 11.8155 5.44521 -0.924527 0 -0.381117  255 255 255 255
13.5562 11.8813 4.5123 -0.948819 0 -0.315821  255 255 255 255
13.857 11.848 3.48073 -0.969871 0 -0.243621  255 255 255 255
14.003 -11.9196 2.83684 -0.98009 0 -0.198554  255 255 255 255
14.0037 11.9116 -2.83372 -0.980134 0 0.198335  255 255 255 255
14.0019 -12.2032 -2.84227 -0.980013 0 0.198934  255 255 255 255
14.0001 12.2025 2.85114 -0.979887 0 -0.199555  255 255 255 255
13.898 -5.6503 3.31351 -0.972736 0 -0.231917  255 255 255 255
13.668 5.76298 4.16148 -0.956642 0 -0.291267  255 255 255 255
13.529 -5.69228 4.59349 -0.946908 0 -0.321504  255 255 255 255
13.2926 5.82269 5.23829 -0.930365 0 -0.366634  255 255 255 255
13.1748 -5.69145 5.52795 -0.922118 0 -0.386908  255 255 255 255
12.905 5.78055 6.13144 -0.903235 0 -0.429147  255 255 255 255
12.7481 -5.81077 6.45129 -0.892254 0 -0.451534  255 255 255 255
12.4637 5.88824 6.98488 -0.872351 0 -0.488881  255 255 255 255
12.2859 -5.88544 7.29315 -0.859904 0 -0.510456  255 255 255 255
11.976 5.95764 7.79153 -0.838216 0 -0.545339  255 255 255 255
11.7795 -5.91646 8.08548 -0.824465 0 -0.565913  255 255 255 255
11.4385 5.9933 8.5611 -0.800598 0 -0.599202  255 255 255 255
11.2034 -5.86595 8.86665 -0.784137 0 -0.620588  255 255 255 255
10.8171 6.03537 9.33398 -0.757102 0 -0.653297  255 255 255 255
10.5074 -5.90193 9.68123 -0.735429 0 -0.677601  255 255 255 255
10.2031 6.04505 10.0014 -0.714129 0 -0.700014  255 255 255 255
9.8196 -5.95231 10.3783 -0.687286 0 -0.726387  255 255 255 255
9.51809 5.95706 10.6555 -0.666183 0 -0.745788  255 255 255 255
9.08697 -5.93924 11.0254 -0.636008 0 -0.771682  255 255 255 255
8.70516 5.98301 11.3293 -0.609285 0 -0.792951  255 255 255 255
8.24334 -5.95296 11.6696 -0.576962 0 -0.816771  255 255 255 255
7.91739 6.03936 11.8932 -0.554148 0 -0.832418  255 255 255 255
7.44743 -6.06213 12.193 -0.521255 0 -0.853401  255 255 255 255
7.07051 6.081 12.4153 -0.494874 0 -0.868965  255 255 255 255
6.62845 -6.0774 12.6569 -0.463934 0 -0.88587  255 255 255 255
6.26247 6.09735 12.8419 -0.438318 0 -0.89882  255 255 255 255
5.7092 -6.07599 13.0972 -0.399594 0 -0.916692  255 255 255 255
5.41061 6.00832 13.2234 -0.378696 0 -0.925521  255 255 255 255
4.80435 -6.07377 13.4555 -0.336263 0 -0.941768  255 255 255 255
4.42003 5.97419 13.5866 -0.309363 0 -0.950944  255 255 255 255
3.80181 -6.07902 13.7724 -0.266094 0 -0.963947  255 255 255 255
3.47241 5.95361 13.8591 -0.243038 0 -0.970017  255 255 255 255
2.89365 -6.15242 13.9914 -0.20253 0 -0.979276  255 255 255 255
2.45404 5.98179 14.0752 -0.171761 0 -0.985139  255 255 255 255
1.9892 -6.12871 14.1483 -0.139227 0 -0.990261  255 255 255 255
1.48979 6.02262 14.2096 -0.104272 0 -0.994549  255 255 255 255
0.987014 -6.08109 14.2534 -0.069082 0 -0.997611  255 255 255 255
0.48082 6.04826 14.2794 -0.033653 0 -0.999434  255 255 255 255
0.007998 -6.0128 14.2875 -0.00056 0 -1  255 255 255 255
-0.453831 6.05926 14.2803 0.031764 0 -0.999495  255 255 255 255
-1.03143 -5.96681 14.2502 0.072191 0 -0.997391  255 255 255 255
-1.41103 5.98468 14.2177 0.098759 0 -0.995111  255 255 255 255
-2.01381 -5.99506 14.1449 0.140949 0 -0.990017  255 255 255 255
-2.47557 6.00716 14.0714 0.173268 0 -0.984875  255 255 255 255
-3.06657 -6.05046 13.9545 0.214633 0 -0.976695  255 255 255 255
-3.41729 6.06354 13.8728 0.239181 0 -0.970975  255 255 255 255
-3.97085 -6.14517 13.7246 0.277924 0 -0.960603  255 255 255 255
-4.31345 6.08627 13.6208 0.301904 0 -0.953338  255 255 255 255
-4.80821 -6.1394 13.4541 0.336533 0 -0.941672  255 255 255 255
-5.21752 6.05074 13.3008 0.365181 0 -0.930937  255 255 255 255
-5.68819 -6.05254 13.1064 0.398124 0 -0.917332  255 255 255 255
-6.17257 6.03148 12.8853 0.432026 0 -0.901861  255 255 255 255
-6.69409 -6.04082 12.6223 0.468527 0 -0.883449  255 255 255 255
-7.03673 6.04146 12.4345 0.49251 0 -0.870307  255 255 255 255
-7.54897 -6.12307 12.1304 0.528362 0 -0.849019  255 255 255 255
-7.86542 6.00838 11.9276 0.550511 0 -0.834828  255 255 255 255
-8.33227 -6.12649 11.6063 0.583186 0 -0.812339  255 255 255 255
-8.72329 5.99637 11.3153 0.610554 0 -0.791974  255 255 255 255
-9.13937 -6.1397 10.982 0.639676 0 -0.768645  255 255 255 255
-9.49311 5.988 10.6777 0.664435 0 -0.747346  255 255 255 255
-9.86983 -6.15034 10.3305 0.690802 0 -0.723044  255 255 255 255
-10.2646 6.01572 9.93834 0.718432 0 -0.695597  255 255 255 255
-10.6058 -6.14676 9.57343 0.74231 0 -0.670056  255 255 255 255
-10.9051 6.08927 9.23105 0.763259 0 -0.646093  255 255 255 255
-11.2213 -6.16805 8.84393 0.785393 0 -0.618998  255 255 255 255
-11.4746 6.13157 8.51265 0.803125 0 -0.595811  255 255 255 255
-11.7716 -6.16799 8.09701 0.823911 0 -0.56672  255 255 255 255
-12.0097 6.12026 7.73952 0.840573 0 -0.541699  255 255 255 255
-12.2902 -6.12221 7.28578 0.860209 0 -0.509941  255 255 255 255
-12.5254 6.1262 6.87357 0.876672 0 -0.481089  255 255 255 255
-12.7977 -6.07865 6.35234 0.895725 0 -0.444608  255 255 255 255
-12.9442 6.12811 6.04816 0.905981 0 -0.423318  255 255 255 255
-13.1977 -6.06547 5.4729 0.923725 0 -0.383055  255 255 255 255
-13.3131 6.03532 5.18598 0.9318 0 -0.362973  255 255 255 255
-13.5337 -6.03338 4.57955 0.947239 0 -0.320528  255 255 255 255
-13.6578 6.00014 4.19479 0.955929 0 -0.293598  255 255 255 255
-13.829 -6.03195 3.5903 0.967912 0 -0.25129  255 255 255 255
-13.9084 5.97194 3.26926 0.973469 0 -0.22882  255 255 255 255
-14.0405 -6.06442 2.64535 0.98271 0 -0.185152  255 255 255 255
-14.102 5.85187 2.29487 0.987016 0 -0.160621  255 255 255 255
-14.1902 -6.05086 1.66431 0.993192 0 -0.116487  255 255 255 255
-14.2382 5.85824 1.1855 0.996552 0 -0.082975  255 255 255 255
-14.2758 -6.05778 0.578318 0.99918 0 -0.040477  255 255 255 255
-14.2859 5.97919 0.210926 0.999891 0 -0.014763  255 255 255 255
-14.2827 -6.12928 -0.369282 0.999666 0 0.025847  255 255 255 255
-14.2694 5.99184 -0.718815 0.998734 0 0.050311  255 255 255 255
-14.2301 -6.12907 -1.27988 0.99598 0 0.08958  255 255 255 255
-14.1827 5.96956 -1.72731 0.992665 0 0.120897  255 255 255 255
-14.1068 -6.12689 -2.26519 0.987352 0 0.158544  255 255 255 255
-14.0319 5.91857 -2.69049 0.98211 0 0.18831  255 255 255 255
-13.927 -6.12997 -3.18944 0.974765 0 0.223233  255 255 255 255
-13.7909 5.88308 -3.73424 0.96524 0 0.261364  255 255 255 255
-13.6704 -6.12975 -4.1538 0.956805 0 0.290729  255 255 255 255
-13.5085 5.95691 -4.65322 0.945478 0 0.325685  255 255 255 255
-13.3735 -6.12882 -5.02817 0.936027 0 0.351928  255 255 255 255
-13.1719 5.95794 -5.5348 0.921917 0 0.387387  255 255 255 255
-13.0042 -6.03222 -5.91799 0.910183 0 0.414207  255 255 255 255
-12.7464 5.98541 -6.4547 0.892133 0 0.451772  255 255 255 255
-12.5039 -6.01129 -6.91264 0.875165 0 0.483824  255 255 255 255
-12.2886 6.03195 -7.28862 0.860092 0 0.51014  255 255 255 255
-11.9934 -6.10115 -7.76469 0.839435 0 0.54346  255 255 255 255
-11.7527 6.08275 -8.12441 0.822588 0 0.568637  255 255 255 255
-11.4412 -6.10057 -8.55754 0.800784 0 0.598953  255 255 255 255
-11.21 6.11195 -8.85829 0.7846 0 0.620003  255 255 255 255
-10.8023 -6.09785 -9.35111 0.756066 0 0.654496  255 255 255 255
-10.6101 6.03513 -9.5686 0.742615 0 0.669718  255 255 255 255
-10.1584 -6.11611 -10.0469 0.710999 0 0.703193  255 255 255 255
-9.88202 6.01087 -10.3188 0.691655 0 0.722228  255 255 255 255
-9.43033 -6.13923 -10.7332 0.66004 0 0.75123  255 255 255 255
-9.16667 5.99286 -10.9592 0.641587 0 0.76705  255 255 255 255
-8.71638 -6.16313 -11.3207 0.61007 0 0.792347  255 255 255 255
-8.38023 5.89077 -11.5717 0.586543 0 0.809918  255 255 255 255
-7.93372 -6.09186 -11.8823 0.555291 0 0.831656  255 255 255 255
-7.45742 5.92089 -12.1869 0.521954 0 0.852974  255 255 255 255
-7.00219 -6.07604 -12.454 0.490092 0 0.87167  255 255 255 255
-6.5974 6.00856 -12.6731 0.461761 0 0.887005  255 255 255 255
-6.13724 -6.1008 -12.9022 0.429553 0 0.903042  255 255 255 255
-5.74983 6.03235 -13.0795 0.402438 0 0.915447  255 255 255 255
-5.28331 -6.10316 -13.2748 0.369786 0 0.929117  255 255 255 255
-4.8591 6.00939 -13.4358 0.340095 0 0.940391  255 255 255 255
-4.3879 -6.0622 -13.597 0.307115 0 0.951672  255 255 255 255
-3.873 6.02139 -13.7525 0.271076 0 0.962558  255 255 255 255
-3.38598 -6.03641 -13.8805 0.236989 0 0.971512  255 255 255 255
-2.93632 6.05622 -13.9825 0.205517 0 0.978654  255 255 255 255
-2.44946 -6.04667 -14.076 0.171441 0 0.985194  255 255 255 255
-1.98926 6.04387 -14.1483 0.13923 0 0.99026  255 255 255 255
-1.49536 -6.04782 -14.209 0.104662 0 0.994508  255 255 255 255
-0.956117 6.05764 -14.2555 0.06692 0 0.997758  255 255 255 255
-0.435084 -6.07343 -14.2809 0.030452 0 0.999536  255 255 255 255
-0.011783 6.09041 -14.2875 0.000825 0 1  255 255 255 255
0.539241 -6.10035 -14.2773 -0.037742 0 0.999288  255 255 255 255
0.913263 6.09294 -14.2583 -0.06392 0 0.997955  255 255 255 255
1.49386 -6.08002 -14.2092 -0.104557 0 0.994519  255 255 255 255
1.8673 6.03997 -14.165 -0.130694 0 0.991423  255 255 255 255
2.49994 -6.08993 -14.0671 -0.174974 0 0.984573  255 255 255 255
2.89554 6.00115 -13.991 -0.202662 0 0.979249  255 255 255 255
3.42469 -6.09328 -13.871 -0.239698 0 0.970847  255 255 255 255
3.86426 5.96996 -13.755 -0.270465 0 0.96273  255 255 255 255
4.38196 -6.09123 -13.5989 -0.306698 0 0.951807  255 255 255 255
4.86815 5.96806 -13.4326 -0.340728 0 0.940162  255 255 255 255
5.26064 -6.07673 -13.2838 -0.368199 0 0.929747  255 255 255 255
5.78074 5.99032 -13.0658 -0.404601 0 0.914493  255 255 255 255
6.16671 -6.04986 -12.8881 -0.431616 0 0.902058  255 255 255 255
6.69839 6.02668 -12.62 -0.468829 0 0.883289  255 255 255 255
7.00041 -6.00491 -12.455 -0.489968 0 0.871741  255 255 255 255
7.52025 6.06785 -12.1482 -0.526352 0 0.850267  255 255 255 255
7.86252 -5.96392 -11.9295 -0.550307 0 0.834962  255 255 255 255
8.34039 6.09478 -11.6005 -0.583754 0 0.81193  255 255 255 255
8.6474 -5.92992 -11.3734 -0.605243 0 0.796041  255 255 255 255
9.07613 6.10431 -11.0343 -0.63525 0 0.772307  255 255 255 255
9.44241 -5.91329 -10.7226 -0.660886 0 0.750486  255 255 255 255
9.80919 6.09314 -10.3881 -0.686558 0 0.727075  255 255 255 255
10.142 -5.90974 -10.0634 -0.70985 0 0.704353  255 255 255 255
10.4526 6.05804 -9.74044 -0.731589 0 0.681746  255 255 255 255
10.8287 -5.89657 -9.32049 -0.757916 0 0.652353  255 255 255 255
11.0763 5.90133 -9.02481 -0.775247 0 0.631658  255 255 255 255
11.4224 -5.90133 -8.5826 -0.799469 0 0.600707  255 255 255 255
11.7392 5.78052 -8.14395 -0.821641 0 0.570005  255 255 255 255
11.9691 -5.89173 -7.80218 -0.83773 0 0.546084  255 255 255 255
12.2887 5.71094 -7.28834 -0.860103 0 0.51012  255 255 255 255
12.474 -5.85343 -6.96656 -0.873068 0 0.487598  255 255 255 255
12.7557 5.68688 -6.43618 -0.892788 0 0.450476  255 255 255 255
12.92 -5.75982 -6.09965 -0.904289 0 0.426922  255 255 255 255
13.1786 5.60348 -5.51879 -0.922387 0 0.386267  255 255 255 255
13.3036 -5.81359 -5.21037 -0.931133 0 0.364681  255 255 255 255
13.5321 5.63063 -4.58409 -0.947131 0 0.320846  255 255 255 255
13.6749 -5.75876 -4.13876 -0.957124 0 0.289677  255 255 255 255
13.9001 5.61408 -3.30435 -0.972888 0 0.231276  255 255 255 255
14.0443 -5.22683 2.62512 -0.982976 0 -0.183735  255 255 255 255
14.0458 5.19895 -2.61684 -0.983084 0 0.183156  255 255 255 255
14.1953 -11.7243 -1.62029 -0.993549 0 0.113406  255 255 255 255
14.1948 11.7238 1.6253 -0.993509 0 -0.113757  255 255 255 255
14.1855 -27.2723 1.70419 -0.992861 0 -0.119278  255 255 255 255
14.1855 27.2722 -1.70418 -0.992861 0 0.119278  255 255 255 255
14.0869 -27.3872 2.38585 -0.985959 0 -0.166989  255 255 255 255
14.0869 27.3872 -2.38584 -0.985959 0 0.166988  255 255 255 255
14.1891 -20.8747 -1.67384 -0.993114 0 0.117154  255 255 255 255
14.189 20.875 1.67437 -0.993109 0 -0.117191  255 255 255 255
13.5475 -20.712 4.53842 -0.948208 0 -0.31765  255 255 255 255
13.0806 -20.5827 5.74716 -0.915529 0 -0.402251  255 255 255 255
12.705 -20.7661 6.53573 -0.889239 0 -0.457444  255 255 255 255
12.3177 -20.7518 7.2392 -0.862134 0 -0.506681  255 255 255 255
11.8691 -20.8607 7.95347 -0.830731 0 -0.556674  255 255 255 255
11.323 -20.881 8.7134 -0.792508 0 -0.609862  255 255 255 255
10.6975 -20.8437 9.47081 -0.748731 0 -0.662874  255 255 255 255
10.008 -20.797 10.1967 -0.700475 0 -0.713677  255 255 255 255
9.23293 -20.7507 10.9035 -0.646225 0 -0.763147  255 255 255 255
8.33042 -20.8435 11.6076 -0.583057 0 -0.812431  255 255 255 255
7.59392 -20.2117 12.1023 -0.531508 0 -0.847053  255 255 255 255
6.82365 -20.8314 12.5527 -0.477595 0 -0.87858  255 255 255 255
5.89401 -20.7253 13.0151 -0.412529 0 -0.910944  255 255 255 255
5.04248 -21.04 13.3681 -0.35293 0 -0.93565  255 255 255 255
4.14714 -21.1524 13.6724 -0.290263 0 -0.956947  255 255 255 255
3.41014 -20.714 13.8746 -0.23868 0 -0.971098  255 255 255 255
2.51988 -20.4604 14.0635 -0.176369 0 -0.984324  255 255 255 255
1.45844 -20.2932 14.2129 -0.102078 0 -0.994776  255 255 255 255
0.508801 -20.4165 14.2784 -0.035612 0 -0.999366  255 255 255 255
-0.499936 -20.2703 14.2788 0.034991 0 -0.999388  255 255 255 255
-1.45156 -20.4007 14.2136 0.101596 0 -0.994826  255 255 255 255
-2.45406 -20.2592 14.0752 0.171762 0 -0.985138  255 255 255 255
-3.3895 -20.3935 13.8796 0.237235 0 -0.971452  255 255 255 255
-4.36489 -20.2545 13.6044 0.305504 0 -0.952191  255 255 255 255
-5.26519 -20.3907 13.282 0.368517 0 -0.929621  255 255 255 255
-6.19398 -20.2529 12.8751 0.433525 0 -0.901142  255 255 255 255
-7.04163 -20.3899 12.4317 0.492853 0 -0.870113  255 255 255 255
-7.90579 -20.2525 11.9009 0.553336 0 -0.832958  255 255 255 255
-8.68457 -20.3897 11.3451 0.607844 0 -0.794056  255 255 255 255
-9.4676 -20.2524 10.7003 0.662649 0 -0.74893  255 255 255 255
-10.1627 -20.3895 10.0425 0.711301 0 -0.702888  255 255 255 255
-10.8497 -20.2521 9.29603 0.759386 0 -0.650641  255 255 255 255
-11.4479 -20.3892 8.54858 0.801253 0 -0.598326  255 255 255 255
-12.0258 -20.2518 7.71448 0.8417 0 -0.539946  255 255 255 255
-12.5155 -20.3889 6.89162 0.875977 0 -0.482353  255 255 255 255
-12.9732 -20.2516 5.98576 0.908009 0 -0.418951  255 255 255 255
-13.345 -20.3889 5.10323 0.934035 0 -0.357181  255 255 255 255
-13.6737 -20.2516 4.14291 0.957036 0 -0.289968  255 255 255 255
-13.9205 -20.389 3.21754 0.974313 0 -0.2252  255 255 255 255
-14.1138 -20.2518 2.22107 0.987843 0 -0.155455  255 255 255 255
-14.2309 -20.3891 1.27048 0.996039 0 -0.088922  255 255 255 255
-14.2852 -20.252 0.256822 0.999838 0 -0.017975  255 255 255 255
-14.2703 -20.3894 -0.700833 0.998796 0 0.049052  255 255 255 255
-14.1845 -20.2523 -1.71229 0.992793 0 0.119845  255 255 255 255
-14.038 -20.3898 -2.65867 0.982534 0 0.186084  255 255 255 255
-13.8138 -20.2527 -3.64856 0.966844 0 0.255367  255 255 255 255
-13.5384 -20.3902 -4.56562 0.947568 0 0.319553  255 255 255 255
-13.1802 -20.2531 -5.51509 0.922495 0 0.386008  255 255 255 255
-12.7812 -20.3904 -6.38546 0.894571 0 0.446926  255 255 255 255
-12.2957 -20.2531 -7.27657 0.860591 0 0.509296  255 255 255 255
-11.7807 -20.3902 -8.0838 0.824546 0 0.565795  255 255 255 255
-11.1771 -20.2528 -8.89968 0.782302 0 0.622899  255 255 255 255
-10.5558 -20.3899 -9.62844 0.738817 0 0.673906  255 255 255 255
-9.84564 -20.2525 -10.3536 0.689108 0 0.724658  255 255 255 255
-9.12986 -20.3895 -10.9899 0.63901 0 0.769198  255 255 255 255
-8.32648 -20.2521 -11.6104 0.582781 0 0.812629  255 255 255 255
-7.52982 -20.3892 -12.1423 0.527021 0 0.849852  255 255 255 255
-6.64854 -20.2518 -12.6463 0.465339 0 0.885132  255 255 255 255
-5.78617 -20.3891 -13.0634 0.404982 0 0.914325  255 255 255 255
-4.84378 -20.2518 -13.4414 0.339022 0 0.940778  255 255 255 255
-3.93221 -20.3892 -13.7357 0.275221 0 0.961381  255 255 255 255
-2.94674 -20.252 -13.9803 0.206246 0 0.9785  255 255 255 255
-2.00342 -20.3895 -14.1463 0.140222 0 0.99012  255 255 255 255
-0.993727 -20.2524 -14.2529 0.069552 0 0.997578  255 255 255 255
-0.036703 -20.3898 -14.2875 0.002569 0 0.999997  255 255 255 255
0.977847 -20.2526 -14.254 -0.068441 0 0.997655  255 255 255 255
1.93026 -20.3897 -14.1565 -0.135101 0 0.990832  255 255 255 255
2.9302 -20.2521 -13.9838 -0.205088 0 0.978743  255 255 255 255
3.85972 -20.3885 -13.7563 -0.270147 0 0.962819  255 255 255 255
4.82567 -20.2499 -13.4479 -0.337755 0 0.941234  255 255 255 255
5.71413 -20.385 -13.0951 -0.399939 0 0.916542  255 255 255 255
6.62682 -20.2445 -12.6577 -0.463819 0 0.88593  255 255 255 255
7.45624 -20.3769 -12.1876 -0.521872 0 0.853024  255 255 255 255
8.29663 -20.2323 -11.6318 -0.580692 0 0.814124  255 255 255 255
9.04958 -20.3591 -11.0561 -0.633391 0 0.773832  255 255 255 255
9.79949 -20.2054 -10.3972 -0.685879 0 0.727716  255 255 255 255
10.4609 -20.3179 -9.73146 -0.732175 0 0.681117  255 255 255 255
11.1083 -20.1376 -8.98544 -0.777484 0 0.628902  255 255 255 255
11.6996 -20.183 -8.20072 -0.81887 0 0.573979  255 255 255 255
12.1967 -20.2057 -7.44131 -0.853663 0 0.520826  255 255 255 255
12.6291 -20.2733 -6.68121 -0.883926 0 0.467626  255 255 255 255
