ply
format ascii 1.0
comment VCGLIB generated
element vertex 1016
property float x
property float y
property float z
property float nx
property float ny
property float nz
property uchar red
property uchar green
property uchar blue
property uchar alpha
element face 0
property list uchar int vertex_indices
end_header
1.28643 12.0472 14.5 1 0 0  255 255 255 255
1.28643 13.2245 14.5 1 0 0  255 255 255 255
1.28643 12.6358 14.5 1 0 0  255 255 255 255
1.28643 12.9351 14.3172 1 0 0  255 255 255 255
1.28643 12.3366 14.3172 1 0 0  255 255 255 255
1.28643 12.3366 14.6828 1 0 0  255 255 255 255
1.28643 12.9351 14.6828 1 0 0  255 255 255 255
1.28643 13.5203 14.3105 1 0 0  255 255 255 255
1.28643 13.504 14.6917 1 0 0  255 255 255 255
1.28643 11.7514 14.6895 1 0 0  255 255 255 255
1.28643 11.7677 14.3083 1 0 0  255 255 255 255
1.28643 14.0277 14.375 1 0 0  255 255 255 255
1.28643 11.244 14.625 1 0 0  255 255 255 255
1.28643 11.2632 14.2583 1 0 0  255 255 255 255
1.28643 14.0084 14.7417 1 0 0  255 255 255 255
1.28643 13.852 14.2301 1 0 0  255 255 255 255
1.28643 11.4197 14.7699 1 0 0  255 255 255 255
1.28643 12.6358 14.7724 1 0 0  255 255 255 255
1.28643 12.0373 14.2276 1 0 0  255 255 255 255
1.28643 13.2343 14.2276 1 0 0  255 255 255 255
1.28643 12.0373 14.7724 1 0 0  255 255 255 255
1.28643 13.2343 14.7724 1 0 0  255 255 255 255
1.28643 12.6358 14.2276 1 0 0  255 255 255 255
1.28643 13.745 14.7578 1 0 0  255 255 255 255
1.28643 11.5267 14.2422 1 0 0  255 255 255 255
1.28643 11.1834 14.8225 1 0 0  255 255 255 255
1.28643 14.0882 14.1775 1 0 0  255 255 255 255
1.28643 14.1321 14.875 1 0 0  255 255 255 255
1.28643 11.1396 14.125 1 0 0  255 0 0 255
1.28643 11.1769 14.443 1 0 0  255 255 255 255
1.28643 14.0948 14.557 1 0 0  255 255 255 255
-0.756017 14.2817 14.5007 0 1 0  255 255 255 255
0.804809 14.2817 14.4993 0 1 0  255 255 255 255
0.024396 14.2817 14.5 0 1 0  255 255 255 255
-0.354969 14.2817 14.6078 0 1 0  255 255 255 255
0.403761 14.2817 14.3922 0 1 0  255 255 255 255
0.343867 14.2817 14.7056 0 1 0  255 255 255 255
-0.295076 14.2817 14.2944 0 1 0  255 255 255 255
-0.946116 14.2817 14.7053 0 1 0  255 255 255 255
1.01218 14.2817 14.7282 0 1 0  255 255 255 255
0.994907 14.2817 14.2947 0 1 0  255 255 255 255
-0.963394 14.2817 14.2718 0 1 0  255 255 255 255
0.599521 14.2817 14.7322 0 1 0  255 255 255 255
-0.550729 14.2817 14.2678 0 1 0  255 255 255 255
-0.542261 14.2817 14.7461 0 1 0  255 255 255 255
0.591053 14.2817 14.2539 0 1 0  255 255 255 255
0.163887 14.2817 14.2695 0 1 0  255 255 255 255
-0.115096 14.2817 14.7305 0 1 0  255 255 255 255
-1.01961 14.2817 14.5 0 1 0  255 255 255 255
1.0684 14.2817 14.5 0 1 0  255 255 255 255
-0.046754 14.2817 14.2292 0 1 0  255 255 255 255
0.095545 14.2817 14.7708 0 1 0  255 255 255 255
0.809741 14.2817 14.798 0 1 0  255 255 255 255
-0.760949 14.2817 14.202 0 1 0  255 255 255 255
0.571967 14.2817 14.5217 0 1 0  255 255 255 255
-0.523175 14.2817 14.4783 0 1 0  255 255 255 255
-0.307644 14.2817 14.8111 0 1 0  255 255 255 255
0.356435 14.2817 14.1889 0 1 0  255 255 255 255
0.22537 14.2817 14.5142 0 1 0  255 255 255 255
-0.176579 14.2817 14.4858 0 1 0  255 255 255 255
0.825981 14.2817 14.1997 0 1 0  255 255 255 255
-0.777189 14.2817 14.8003 0 1 0  255 255 255 255
-1.09741 14.2817 14.875 0 1 0  255 255 255 255
1.147 14.2817 14.8722 0 1 0  255 255 255 255
-1.09821 14.2817 14.1278 0 1 0  255 0 0 255
1.14621 14.2817 14.125 0 1 0  255 0 0 255
0.013725 12.2971 15 0 0 1  255 255 255 255
0.024396 13.2685 15 0 0 1  255 255 255 255
0.532591 11.7513 15 0 0 1  255 255 255 255
-0.42418 11.7092 15 0 0 1  255 255 255 255
-0.497684 12.7441 15 0 0 1  255 255 255 255
0.543415 12.7581 15 0 0 1  255 255 255 255
0.526146 13.6062 15 0 0 1  255 255 255 255
-0.477354 13.6062 15 0 0 1  255 255 255 255
0.050817 11.5217 15 0 0 1  255 255 255 255
-0.740362 12.2365 15 0 0 1  255 255 255 255
0.767838 12.2118 15 0 0 1  255 255 255 255
0.024396 13.7819 15 0 0 1  255 255 255 255
0.051707 12.7736 15 0 0 1  255 255 255 255
0.816042 13.2329 15 0 0 1  255 255 255 255
-0.76725 13.2329 15 0 0 1  255 255 255 255
0.866055 11.4063 15 0 0 1  255 255 255 255
-0.817264 11.4063 15 0 0 1  255 255 255 255
-0.773883 13.9133 15 0 0 1  255 255 255 255
0.822675 13.9133 15 0 0 1  255 255 255 255
-0.329652 13.0942 15 0 0 1  255 255 255 255
0.402682 13.1308 15 0 0 1  255 255 255 255
-0.332039 11.3756 15 0 0 1  255 255 255 255
0.398875 11.3836 15 0 0 1  255 255 255 255
0.242053 11.8914 15 0 0 1  255 255 255 255
-0.31552 12.001 15 0 0 1  255 255 255 255
0.894255 12.5721 15 0 0 1  255 255 255 255
-0.844529 12.5738 15 0 0 1  255 255 255 255
0.383003 12.4057 15 0 0 1  255 255 255 255
0.901858 11.8926 15 0 0 1  255 255 255 255
-0.853066 11.8926 15 0 0 1  255 255 255 255
-0.315869 13.9233 15 0 0 1  255 255 255 255
0.364661 13.9233 15 0 0 1  255 255 255 255
1.00564 13.4951 15 0 0 1  255 255 255 255
-0.956847 13.4951 15 0 0 1  255 255 255 255
-0.34267 12.5198 15 0 0 1  255 255 255 255
-0.274354 13.5105 15 0 0 1  255 255 255 255
0.323146 13.5105 15 0 0 1  255 255 255 255
-0.189689 11.804 15 0 0 1  255 255 255 255
0.985042 12.9177 15 0 0 1  255 255 255 255
-0.936133 12.9179 15 0 0 1  255 255 255 255
0.489313 12.0397 15 0 0 1  255 255 255 255
-0.011909 11.2627 15 0 0 1  255 255 255 255
0.356185 12.8966 15 0 0 1  255 255 255 255
1.05751 12.351 15 0 0 1  255 255 255 255
-1.02534 12.3664 15 0 0 1  255 255 255 255
0.602305 11.2298 15 0 0 1  255 255 255 255
-0.550936 11.2286 15 0 0 1  255 255 255 255
-0.543534 14.0571 15 0 0 1  255 255 255 255
0.592326 14.0571 15 0 0 1  255 255 255 255
-0.091455 13.0423 15 0 0 1  255 255 255 255
-0.473266 13.3186 15 0 0 1  255 255 255 255
0.540032 13.3313 15 0 0 1  255 255 255 255
0.024396 13.9923 15 0 0 1  255 255 255 255
0.291266 11.6075 15 0 0 1  255 255 255 255
1.0406 11.6496 15 0 0 1  255 255 255 255
-0.991808 11.6496 15 0 0 1  255 255 255 255
0.162006 12.4747 15 0 0 1  255 255 255 255
-0.583607 12.5058 15 0 0 1  255 255 255 255
-0.587997 11.9658 15 0 0 1  255 255 255 255
0.623609 12.5081 15 0 0 1  255 255 255 255
-1.0271 13.2229 15 0 0 1  255 255 255 255
1.07592 13.2229 15 0 0 1  255 255 255 255
-0.268071 12.8191 15 0 0 1  255 255 255 255
-0.02101 12.0249 15 0 0 1  255 255 255 255
-0.574265 13.0021 15 0 0 1  255 255 255 255
0.632471 13.0087 15 0 0 1  255 255 255 255
0.264497 12.184 15 0 0 1  255 255 255 255
-0.997102 11.2336 15 0 0 1  255 255 255 255
1.04589 11.2336 15 0 0 1  255 255 255 255
0.618017 11.5011 15 0 0 1  255 255 255 255
-0.577506 11.4845 15 0 0 1  255 255 255 255
1.04291 13.8036 15 0 0 1  255 255 255 255
-0.994117 13.8036 15 0 0 1  255 255 255 255
-1.01881 12.114 15 0 0 1  255 255 255 255
1.06001 12.106 15 0 0 1  255 255 255 255
1.05642 14.0535 15 0 0 1  255 255 255 255
-1.00762 14.0535 15 0 0 1  255 255 255 255
0.165549 13.0685 15 0 0 1  255 255 255 255
0.024396 13.5199 15 0 0 1  255 255 255 255
0.353321 12.6361 15 0 0 1  255 255 255 255
-0.256057 11.1647 15 0 0 1  255 255 255 255
0.298074 11.1955 15 0 0 1  255 255 255 255
0.775746 11.6845 15 0 0 1  255 255 255 255
-0.708637 11.6847 15 0 0 1  255 255 255 255
-0.460182 12.2654 15 0 0 1  255 255 255 255
0.771369 12.7832 15 0 0 1  255 255 255 255
-0.722649 12.7821 15 0 0 1  255 255 255 255
0.249777 13.2992 15 0 0 1  255 255 255 255
-0.193674 13.2957 15 0 0 1  255 255 255 255
-0.173114 11.566 15 0 0 1  255 255 255 255
0.675755 11.9185 15 0 0 1  255 255 255 255
0.793491 13.6955 15 0 0 1  255 255 255 255
-0.7447 13.6955 15 0 0 1  255 255 255 255
0.239099 13.7445 15 0 0 1  255 255 255 255
-0.190308 13.7445 15 0 0 1  255 255 255 255
-0.799845 11.1697 15 0 0 1  255 255 255 255
0.849152 11.1699 15 0 0 1  255 255 255 255
-0.095344 12.5326 15 0 0 1  255 255 255 255
1.10508 11.4334 15 0 0 1  255 255 255 255
-1.05629 11.4334 15 0 0 1  255 255 255 255
-0.256057 14.1249 15 0 0 1  255 255 255 255
0.304848 14.1249 15 0 0 1  255 255 255 255
0.030219 11.7488 15 0 0 1  255 255 255 255
-0.197678 12.2569 15 0 0 1  255 255 255 255
1.11948 12.6324 15 0 0 1  255 255 255 255
-1.0715 12.6333 15 0 0 1  255 255 255 255
-0.79747 14.1183 15 0 0 1  255 255 255 255
0.846261 14.1183 15 0 0 1  255 255 255 255
0.196222 11.3931 15 0 0 1  255 255 255 255
0.554832 13.8262 15 0 0 1  255 255 255 255
-0.50604 13.8262 15 0 0 1  255 255 255 255
-0.683883 13.4697 15 0 0 1  255 255 255 255
0.73627 13.4722 15 0 0 1  255 255 255 255
0.517004 12.2598 15 0 0 1  255 255 255 255
-4.59661 13.9944 14.625 -1 0 0  255 255 255 255
-4.59661 13.9944 14.3162 -1 0 0  255 255 255 255
-4.59661 14.0877 14.8268 -1 0 0  255 255 255 255
-4.59661 14.0982 14.1573 -1 0 0  255 255 255 255
-4.59661 13.8902 14.1568 -1 0 0  255 255 255 255
-4.59661 13.8971 14.8253 -1 0 0  255 255 255 255
-4.59661 13.8883 14.4762 -1 0 0  255 255 255 255
-4.59661 14.1005 14.4762 -1 0 0  255 255 255 255
-4.12536 13.7072 14.5195 0 -1 0  255 255 255 255
-3.97113 13.7072 14.2915 0 -1 0  255 255 255 255
-4.29355 13.7072 14.291 0 -1 0  255 255 255 255
-4.37666 13.7072 14.625 0 -1 0  255 255 255 255
-3.87162 13.7072 14.6376 0 -1 0  255 255 255 255
-4.10999 13.7072 14.7787 0 -1 0  255 255 255 255
-4.13244 13.7072 14.1456 0 -1 0  255 255 255 255
-3.85947 13.7072 14.8301 0 -1 0  255 255 255 255
-4.3969 13.7072 14.8305 0 -1 0  255 255 255 255
-4.4425 13.7072 14.1287 0 -1 0  255 255 255 255
-3.82255 13.7072 14.1288 0 -1 0  255 0 0 255
-3.84575 13.7072 14.4441 0 -1 0  255 255 255 255
-4.41147 13.7072 14.4415 0 -1 0  255 255 255 255
-3.66847 13.9944 14.625 1 0 0  255 255 255 255
-3.66847 13.9944 14.3162 1 0 0  255 255 255 255
-3.66847 13.9011 14.8268 1 0 0  255 255 255 255
-3.66847 13.8907 14.1573 1 0 0  255 255 255 255
-3.66847 14.0986 14.1568 1 0 0  255 255 255 255
-3.66847 14.0918 14.8253 1 0 0  255 255 255 255
-3.66847 14.1005 14.4762 1 0 0  255 255 255 255
-3.66847 13.8883 14.4762 1 0 0  255 255 255 255
-4.13972 14.2817 14.5195 0 1 0  255 255 255 255
-4.29395 14.2817 14.2915 0 1 0  255 255 255 255
-3.97153 14.2817 14.291 0 1 0  255 255 255 255
-3.88843 14.2817 14.625 0 1 0  255 255 255 255
-4.39347 14.2817 14.6376 0 1 0  255 255 255 255
-4.15509 14.2817 14.7787 0 1 0  255 255 255 255
-4.13264 14.2817 14.1456 0 1 0  255 255 255 255
-4.40561 14.2817 14.8301 0 1 0  255 255 255 255
-3.86818 14.2817 14.8305 0 1 0  255 255 255 255
-3.82259 14.2817 14.1287 0 1 0  255 255 255 255
-4.44253 14.2817 14.1288 0 1 0  255 0 0 255
-4.41933 14.2817 14.4441 0 1 0  255 255 255 255
-3.85361 14.2817 14.4415 0 1 0  255 255 255 255
-4.13254 13.9944 15 0 0 1  255 255 255 255
-4.41098 14.0806 15 0 0 1  255 255 255 255
-3.8541 13.9082 15 0 0 1  255 255 255 255
-4.42298 13.8742 15 0 0 1  255 255 255 255
-3.8421 14.1146 15 0 0 1  255 255 255 255
-4.59661 12.5993 14.4082 -1 0 0  255 255 255 255
-4.59661 12.4791 14.6916 -1 0 0  255 255 255 255
-4.59661 12.7682 14.6336 -1 0 0  255 255 255 255
-4.59661 12.4138 14.2366 -1 0 0  255 255 255 255
-4.59661 12.761 14.2366 -1 0 0  255 255 255 255
-4.59661 12.3914 14.4935 -1 0 0  255 255 255 255
-4.59661 12.8143 14.4252 -1 0 0  255 255 255 255
-4.59661 12.6259 14.8206 -1 0 0  255 255 255 255
-4.59661 12.5898 14.1763 -1 0 0  255 255 255 255
-4.59661 12.3717 14.8474 -1 0 0  255 255 255 255
-4.59661 12.8369 14.8469 -1 0 0  255 255 255 255
-4.12536 12.1748 14.5195 0 -1 0  255 255 255 255
-3.97113 12.1748 14.2915 0 -1 0  255 255 255 255
-4.29355 12.1748 14.291 0 -1 0  255 255 255 255
-4.37666 12.1748 14.625 0 -1 0  255 255 255 255
-3.87162 12.1748 14.6376 0 -1 0  255 255 255 255
-4.10999 12.1748 14.7787 0 -1 0  255 255 255 255
-4.13244 12.1748 14.1456 0 -1 0  255 255 255 255
-3.85947 12.1748 14.8301 0 -1 0  255 255 255 255
-4.3969 12.1748 14.8305 0 -1 0  255 255 255 255
-4.4425 12.1748 14.1287 0 -1 0  255 255 255 255
-3.82255 12.1748 14.1288 0 -1 0  255 255 255 255
-3.84575 12.1748 14.4441 0 -1 0  255 255 255 255
-4.41147 12.1748 14.4415 0 -1 0  255 255 255 255
-3.66847 12.5993 14.4082 1 0 0  255 255 255 255
-3.66847 12.4791 14.6916 1 0 0  255 255 255 255
-3.66847 12.7682 14.6336 1 0 0  255 255 255 255
-3.66847 12.4138 14.2366 1 0 0  255 255 255 255
-3.66847 12.761 14.2366 1 0 0  255 255 255 255
-3.66847 12.3914 14.4935 1 0 0  255 255 255 255
-3.66847 12.8143 14.4252 1 0 0  255 255 255 255
-3.66847 12.6259 14.8206 1 0 0  255 255 255 255
-3.66847 12.5898 14.1763 1 0 0  255 255 255 255
-3.66847 12.3717 14.8474 1 0 0  255 255 255 255
-3.66847 12.8369 14.8469 1 0 0  255 255 255 255
-4.13972 13 14.5195 0 1 0  255 255 255 255
-4.29395 13 14.2915 0 1 0  255 255 255 255
-3.97153 13 14.291 0 1 0  255 255 255 255
-3.88843 13 14.625 0 1 0  255 255 255 255
-4.39347 13 14.6376 0 1 0  255 255 255 255
-4.15509 13 14.7787 0 1 0  255 255 255 255
-4.13264 13 14.1456 0 1 0  255 255 255 255
-4.40561 13 14.8301 0 1 0  255 255 255 255
-3.86818 13 14.8305 0 1 0  255 255 255 255
-3.82259 13 14.1287 0 1 0  255 255 255 255
-4.44253 13 14.1288 0 1 0  255 0 0 255
-4.41933 13 14.4441 0 1 0  255 255 255 255
-3.85361 13 14.4415 0 1 0  255 255 255 255
-4.06634 12.5874 15 0 0 1  255 255 255 255
-4.36588 12.5874 15 0 0 1  255 255 255 255
-3.90677 12.7684 15 0 0 1  255 255 255 255
-3.90677 12.4064 15 0 0 1  255 255 255 255
-4.17433 12.801 15 0 0 1  255 255 255 255
-4.17433 12.3739 15 0 0 1  255 255 255 255
-4.40413 12.3522 15 0 0 1  255 255 255 255
-4.40413 12.8227 15 0 0 1  255 255 255 255
-3.82641 12.5874 15 0 0 1  255 255 255 255
-4.59661 10.4679 14.6495 -1 0 0  255 255 255 255
-4.59661 10.4543 14.3527 -1 0 0  255 255 255 255
-4.59661 10.3978 14.8235 -1 0 0  255 255 255 255
-4.59661 10.5268 14.1714 -1 0 0  255 255 255 255
-4.59661 10.3742 14.1548 -1 0 0  255 0 0 255
-4.59661 10.5456 14.8446 -1 0 0  255 255 255 255
-4.13972 10.2156 14.4805 0 -1 0  255 255 255 255
-4.29395 10.2156 14.7085 0 -1 0  255 255 255 255
-3.97153 10.2156 14.709 0 -1 0  255 255 255 255
-4.39347 10.2156 14.3624 0 -1 0  255 255 255 255
-3.88843 10.2156 14.375 0 -1 0  255 255 255 255
-4.15509 10.2156 14.2213 0 -1 0  255 255 255 255
-4.13264 10.2156 14.8544 0 -1 0  255 255 255 255
-4.40561 10.2156 14.1699 0 -1 0  255 255 255 255
-3.86818 10.2156 14.1695 0 -1 0  255 255 255 255
-4.44253 10.2156 14.8712 0 -1 0  255 255 255 255
-3.82259 10.2156 14.8713 0 -1 0  255 255 255 255
-3.85361 10.2156 14.5585 0 -1 0  255 255 255 255
-4.41933 10.2156 14.5559 0 -1 0  255 255 255 255
-3.66847 10.4495 14.3505 1 0 0  255 255 255 255
-3.66847 10.4631 14.6473 1 0 0  255 255 255 255
-3.66847 10.5195 14.1765 1 0 0  255 255 255 255
-3.66847 10.3905 14.8286 1 0 0  255 255 255 255
-3.66847 10.5432 14.8452 1 0 0  255 255 255 255
-3.66847 10.3718 14.1554 1 0 0  255 255 255 255
-4.12536 10.7018 14.4805 0 1 0  255 255 255 255
-4.29342 10.7018 14.7085 0 1 0  255 255 255 255
-3.97097 10.7018 14.709 0 1 0  255 255 255 255
-4.37666 10.7018 14.375 0 1 0  255 255 255 255
-3.87162 10.7018 14.3624 0 1 0  255 255 255 255
-4.10999 10.7018 14.2213 0 1 0  255 255 255 255
-4.13237 10.7018 14.8544 0 1 0  255 255 255 255
-3.85947 10.7018 14.1699 0 1 0  255 255 255 255
-4.3969 10.7018 14.1695 0 1 0  255 255 255 255
-3.82254 10.7018 14.8713 0 1 0  255 255 255 255
-4.44248 10.7018 14.8712 0 1 0  255 255 255 255
-3.84575 10.7018 14.5559 0 1 0  255 255 255 255
-4.41146 10.7018 14.5584 0 1 0  255 255 255 255
-4.13254 10.4587 15 0 0 1  255 255 255 255
-4.36457 10.4818 15 0 0 1  255 255 255 255
-3.90051 10.4356 15 0 0 1  255 255 255 255
-1.23764 7.95352 14.4969 -1 0 0  255 255 255 255
-1.23764 8.3644 14.4817 -1 0 0  255 255 255 255
-1.23764 7.56139 14.6381 -1 0 0  255 255 255 255
-1.23764 7.59928 14.2118 -1 0 0  255 255 255 255
-1.23764 8.14222 14.7003 -1 0 0  255 255 255 255
-1.23764 8.12874 14.2872 -1 0 0  255 255 255 255
-1.23764 8.55288 14.7046 -1 0 0  255 255 255 255
-1.23764 8.5762 14.2632 -1 0 0  255 255 255 255
-1.23764 7.82375 14.735 -1 0 0  255 255 255 255
-1.23764 7.86203 14.2428 -1 0 0  255 255 255 255
-1.23764 7.43286 14.4111 -1 0 0  255 255 255 255
-1.23764 8.35395 14.2226 -1 0 0  255 255 255 255
-1.23764 8.62338 14.4939 -1 0 0  255 255 255 255
-1.23764 8.35707 14.7822 -1 0 0  255 255 255 255
-1.23764 7.40981 14.8044 -1 0 0  255 255 255 255
-1.23764 7.63282 14.8235 -1 0 0  255 255 255 255
-1.23764 8.14722 14.4915 -1 0 0  255 255 255 255
-1.23764 7.39167 14.1762 -1 0 0  255 255 255 255
-1.23764 7.70547 14.4559 -1 0 0  255 255 255 255
-1.23764 7.36237 14.6161 -1 0 0  255 255 255 255
-1.23764 8.68102 14.8443 -1 0 0  255 255 255 255
-1.23764 8.70963 14.1267 -1 0 0  255 0 0 255
0.974969 7.2102 14.4905 0 -1 0  255 255 255 255
-0.754238 7.2102 14.4905 0 -1 0  255 255 255 255
0.110366 7.2102 14.5083 0 -1 0  255 255 255 255
-0.304876 7.2102 14.5504 0 -1 0  255 255 255 255
0.525607 7.2102 14.5504 0 -1 0  255 255 255 255
0.706845 7.2102 14.2975 0 -1 0  255 255 255 255
-0.486114 7.2102 14.2975 0 -1 0  255 255 255 255
-0.983542 7.2102 14.625 0 -1 0  255 255 255 255
1.20427 7.2102 14.625 0 -1 0  255 255 255 255
0.361923 7.2102 14.3029 0 -1 0  255 255 255 255
-0.141191 7.2102 14.3029 0 -1 0  255 255 255 255
1.18472 7.2102 14.2579 0 -1 0  255 255 255 255
-0.963984 7.2102 14.2579 0 -1 0  255 255 255 255
0.748212 7.2102 14.7311 0 -1 0  255 255 255 255
-0.527481 7.2102 14.7311 0 -1 0  255 255 255 255
-0.073471 7.2102 14.7125 0 -1 0  255 255 255 255
0.294202 7.2102 14.7125 0 -1 0  255 255 255 255
0.110366 7.2102 14.2199 0 -1 0  255 255 255 255
-0.805237 7.2102 14.7852 0 -1 0  255 255 255 255
1.02597 7.2102 14.7852 0 -1 0  255 255 255 255
0.943382 7.2102 14.2259 0 -1 0  255 255 255 255
-0.722651 7.2102 14.2259 0 -1 0  255 255 255 255
-1.04413 7.2102 14.8226 0 -1 0  255 255 255 255
1.26486 7.2102 14.8226 0 -1 0  255 255 255 255
0.495046 7.2102 14.7907 0 -1 0  255 255 255 255
-0.274315 7.2102 14.7907 0 -1 0  255 255 255 255
1.30859 7.2102 14.125 0 -1 0  255 0 0 255
-1.08786 7.2102 14.125 0 -1 0  255 0 0 255
-0.516203 7.2102 14.5124 0 -1 0  255 255 255 255
0.736934 7.2102 14.5124 0 -1 0  255 255 255 255
0.110366 7.2102 14.8227 0 -1 0  255 255 255 255
-0.104927 7.2102 14.5152 0 -1 0  255 255 255 255
0.325658 7.2102 14.5152 0 -1 0  255 255 255 255
1.2708 7.2102 14.4434 0 -1 0  255 255 255 255
-1.05007 7.2102 14.4434 0 -1 0  255 255 255 255
1.45837 8.09136 14.5413 1 0 0  255 255 255 255
1.45837 7.69128 14.5183 1 0 0  255 255 255 255
1.45837 8.50645 14.6315 1 0 0  255 255 255 255
1.45837 8.45375 14.2119 1 0 0  255 255 255 255
1.45837 7.91347 14.2997 1 0 0  255 255 255 255
1.45837 7.91542 14.7218 1 0 0  255 255 255 255
1.45837 7.50281 14.2954 1 0 0  255 255 255 255
1.45837 7.47949 14.7368 1 0 0  255 255 255 255
1.45837 8.19156 14.2565 1 0 0  255 255 255 255
1.45837 8.28455 14.7302 1 0 0  255 255 255 255
1.45837 8.62419 14.4101 1 0 0  255 255 255 255
1.45837 7.69603 14.7803 1 0 0  255 255 255 255
1.45837 7.4323 14.5061 1 0 0  255 255 255 255
1.45837 7.69861 14.2178 1 0 0  255 255 255 255
1.45837 8.65086 14.8072 1 0 0  255 255 255 255
1.45837 7.89617 14.5106 1 0 0  255 255 255 255
1.45837 8.66494 14.1758 1 0 0  255 255 255 255
1.45837 8.44875 14.8424 1 0 0  255 255 255 255
1.45837 8.35864 14.4636 1 0 0  255 255 255 255
1.45837 8.6942 14.6144 1 0 0  255 255 255 255
1.45837 7.37467 14.1557 1 0 0  255 255 255 255
1.45837 7.34606 14.8733 1 0 0  255 255 255 255
1.45837 8.10455 14.8114 1 0 0  255 255 255 255
0.968391 8.84549 14.4815 0 1 0  255 255 255 255
-0.754238 8.84549 14.4905 0 1 0  255 255 255 255
0.110366 8.84549 14.5 0 1 0  255 255 255 255
-0.304876 8.84549 14.5504 0 1 0  255 255 255 255
0.525607 8.84549 14.4496 0 1 0  255 255 255 255
0.712593 8.84549 14.6978 0 1 0  255 255 255 255
-0.486114 8.84549 14.2975 0 1 0  255 255 255 255
1.20427 8.84549 14.625 0 1 0  255 255 255 255
-0.983542 8.84549 14.625 0 1 0  255 255 255 255
0.361923 8.84549 14.6971 0 1 0  255 255 255 255
-0.141191 8.84549 14.3029 0 1 0  255 255 255 255
1.18368 8.84549 14.2624 0 1 0  255 255 255 255
-0.963984 8.84549 14.2579 0 1 0  255 255 255 255
-0.527481 8.84549 14.7311 0 1 0  255 255 255 255
0.731175 8.84549 14.26 0 1 0  255 255 255 255
-0.067286 8.84549 14.7192 0 1 0  255 255 255 255
0.288017 8.84549 14.2808 0 1 0  255 255 255 255
1.02803 8.84549 14.7711 0 1 0  255 255 255 255
-0.805237 8.84549 14.7852 0 1 0  255 255 255 255
-0.722651 8.84549 14.2259 0 1 0  255 255 255 255
0.078644 8.84549 14.2093 0 1 0  255 255 255 255
0.142087 8.84549 14.7907 0 1 0  255 255 255 255
1.26486 8.84549 14.8226 0 1 0  255 255 255 255
-1.04413 8.84549 14.8226 0 1 0  255 255 255 255
0.975345 8.84549 14.1865 0 1 0  255 255 255 255
0.486986 8.84549 14.2052 0 1 0  255 255 255 255
-0.274315 8.84549 14.7907 0 1 0  255 255 255 255
1.30859 8.84549 14.125 0 1 0  255 0 0 255
-1.08786 8.84549 14.125 0 1 0  255 0 0 255
-0.516203 8.84549 14.5124 0 1 0  255 255 255 255
0.734566 8.84549 14.4781 0 1 0  255 255 255 255
-0.104138 8.84549 14.515 0 1 0  255 255 255 255
0.324869 8.84549 14.485 0 1 0  255 255 255 255
-1.05007 8.84549 14.4434 0 1 0  255 255 255 255
1.27041 8.84549 14.4431 0 1 0  255 255 255 255
0.643224 8.04263 15 0 0 1  255 255 255 255
-0.422493 8.04263 15 0 0 1  255 255 255 255
0.110366 7.79839 15 0 0 1  255 255 255 255
0.110366 8.31656 15 0 0 1  255 255 255 255
0.965407 8.41561 15 0 0 1  255 255 255 255
-0.751122 7.70704 15 0 0 1  255 255 255 255
0.971853 7.70704 15 0 0 1  255 255 255 255
-0.744675 8.41561 15 0 0 1  255 255 255 255
-0.296785 7.64175 15 0 0 1  255 255 255 255
0.517516 7.64175 15 0 0 1  255 255 255 255
-0.294507 8.4288 15 0 0 1  255 255 255 255
0.515239 8.4288 15 0 0 1  255 255 255 255
1.09332 8.02784 15 0 0 1  255 255 255 255
-0.872584 8.02784 15 0 0 1  255 255 255 255
0.300402 8.05806 15 0 0 1  255 255 255 255
-0.079783 8.05844 15 0 0 1  255 255 255 255
0.110366 7.48338 15 0 0 1  255 255 255 255
0.723365 7.48442 15 0 0 1  255 255 255 255
-0.502634 7.48442 15 0 0 1  255 255 255 255
0.724706 8.5871 15 0 0 1  255 255 255 255
-0.503975 8.5871 15 0 0 1  255 255 255 255
1.18988 8.55925 15 0 0 1  255 255 255 255
-0.969148 8.55925 15 0 0 1  255 255 255 255
-0.969264 7.49907 15 0 0 1  255 255 255 255
1.19 7.49907 15 0 0 1  255 255 255 255
0.245006 8.565 15 0 0 1  255 255 255 255
-0.042376 8.56087 15 0 0 1  255 255 255 255
0.711983 7.78051 15 0 0 1  255 255 255 255
-0.491252 7.78051 15 0 0 1  255 255 255 255
1.20596 8.25772 15 0 0 1  255 255 255 255
-0.985228 8.25772 15 0 0 1  255 255 255 255
-0.985228 7.79797 15 0 0 1  255 255 255 255
1.20596 7.79797 15 0 0 1  255 255 255 255
0.716593 8.29787 15 0 0 1  255 255 255 255
-0.495862 8.29787 15 0 0 1  255 255 255 255
-0.146522 7.43916 15 0 0 1  255 255 255 255
0.367253 7.43916 15 0 0 1  255 255 255 255
-0.216675 7.83837 15 0 0 1  255 255 255 255
0.437393 7.83832 15 0 0 1  255 255 255 255
0.871006 7.94508 15 0 0 1  255 255 255 255
-0.650274 7.94508 15 0 0 1  255 255 255 255
0.499456 8.23367 15 0 0 1  255 255 255 255
-0.278747 8.23374 15 0 0 1  255 255 255 255
0.973226 7.40977 15 0 0 1  255 255 255 255
-0.752495 7.40977 15 0 0 1  255 255 255 255
0.979613 8.65059 15 0 0 1  255 255 255 255
-0.758882 8.65059 15 0 0 1  255 255 255 255
-0.246892 8.6446 15 0 0 1  255 255 255 255
0.467623 8.6446 15 0 0 1  255 255 255 255
-0.074088 7.64366 15 0 0 1  255 255 255 255
0.294818 7.64365 15 0 0 1  255 255 255 255
0.915917 8.16446 15 0 0 1  255 255 255 255
-0.695186 8.16446 15 0 0 1  255 255 255 255
-0.109212 8.33011 15 0 0 1  255 255 255 255
0.330587 8.32629 15 0 0 1  255 255 255 255
-1.09563 8.70579 15 0 0 1  255 255 255 255
-1.09566 7.35056 15 0 0 1  255 255 255 255
1.31636 8.70579 15 0 0 1  255 255 255 255
1.31639 7.35056 15 0 0 1  255 255 255 255
3.22625 14.7679 14.5022 -1 0 0  255 255 255 255
3.22625 14.574 14.291 -1 0 0  255 255 255 255
3.22625 14.9617 14.291 -1 0 0  255 255 255 255
3.22625 14.5661 14.7167 -1 0 0  255 255 255 255
3.22625 14.9697 14.7167 -1 0 0  255 255 255 255
3.22625 14.5044 14.5026 -1 0 0  255 255 255 255
3.22625 15.0313 14.5026 -1 0 0  255 255 255 255
3.22625 14.7679 14.7865 -1 0 0  255 255 255 255
3.22625 14.7679 14.2024 -1 0 0  255 255 255 255
3.22625 15.0929 14.1635 -1 0 0  255 255 255 255
3.22625 14.4429 14.1635 -1 0 0  255 255 255 255
3.22625 14.4367 14.8425 -1 0 0  255 255 255 255
3.22625 15.0991 14.8425 -1 0 0  255 255 255 255
4.76617 14.2817 14.4979 0 -1 0  255 255 255 255
3.71423 14.2817 14.5037 0 -1 0  255 255 255 255
4.24278 14.2817 14.5079 0 -1 0  255 255 255 255
4.00725 14.2817 14.2625 0 -1 0  255 255 255 255
4.52152 14.2817 14.2814 0 -1 0  255 255 255 255
4.48107 14.2817 14.7418 0 -1 0  255 255 255 255
3.9633 14.2817 14.7214 0 -1 0  255 255 255 255
3.47906 14.2817 14.625 0 -1 0  255 255 255 255
5.00649 14.2817 14.375 0 -1 0  255 255 255 255
4.98659 14.2817 14.7398 0 -1 0  255 255 255 255
3.49888 14.2817 14.2612 0 -1 0  255 255 255 255
4.83477 14.2817 14.2223 0 -1 0  255 255 255 255
3.6498 14.2817 14.7784 0 -1 0  255 255 255 255
4.23454 14.2817 14.7942 0 -1 0  255 255 255 255
4.25142 14.2817 14.2103 0 -1 0  255 255 255 255
3.74661 14.2817 14.2549 0 -1 0  255 255 255 255
4.73853 14.2817 14.7469 0 -1 0  255 255 255 255
3.4184 14.2817 14.8205 0 -1 0  255 255 255 255
5.06716 14.2817 14.1795 0 -1 0  255 255 255 255
5.11409 14.2817 14.875 0 -1 0  255 255 255 255
3.37147 14.2817 14.125 0 -1 0  255 0 0 255
3.4085 14.2817 14.4496 0 -1 0  255 255 255 255
5.07147 14.2817 14.5562 0 -1 0  255 255 255 255
4.55005 14.2817 14.5213 0 -1 0  255 255 255 255
3.93526 14.2817 14.483 0 -1 0  255 255 255 255
5.25931 14.7679 14.4978 1 0 0  255 255 255 255
5.25931 14.574 14.709 1 0 0  255 255 255 255
5.25931 14.9617 14.709 1 0 0  255 255 255 255
5.25931 14.5661 14.2833 1 0 0  255 255 255 255
5.25931 14.9697 14.2833 1 0 0  255 255 255 255
5.25931 15.0313 14.4974 1 0 0  255 255 255 255
5.25931 14.5044 14.4974 1 0 0  255 255 255 255
5.25931 14.7679 14.2135 1 0 0  255 255 255 255
5.25931 14.7679 14.7976 1 0 0  255 255 255 255
5.25931 15.0929 14.8365 1 0 0  255 255 255 255
5.25931 14.4429 14.8365 1 0 0  255 255 255 255
5.25931 15.0991 14.1575 1 0 0  255 255 255 255
5.25931 14.4367 14.1575 1 0 0  255 255 255 255
4.76617 15.254 14.5021 0 1 0  255 255 255 255
3.71939 15.254 14.5021 0 1 0  255 255 255 255
4.24278 15.254 14.4921 0 1 0  255 255 255 255
3.96404 15.254 14.7186 0 1 0  255 255 255 255
4.52152 15.254 14.7186 0 1 0  255 255 255 255
4.00449 15.254 14.2582 0 1 0  255 255 255 255
4.48107 15.254 14.2582 0 1 0  255 255 255 255
5.00649 15.254 14.625 0 1 0  255 255 255 255
3.47906 15.254 14.625 0 1 0  255 255 255 255
4.98659 15.254 14.2602 0 1 0  255 255 255 255
3.49897 15.254 14.2602 0 1 0  255 255 255 255
3.65078 15.254 14.7777 0 1 0  255 255 255 255
4.83477 15.254 14.7777 0 1 0  255 255 255 255
4.24278 15.254 14.2178 0 1 0  255 255 255 255
4.24278 15.254 14.7821 0 1 0  255 255 255 255
3.74703 15.254 14.2531 0 1 0  255 255 255 255
4.73853 15.254 14.2531 0 1 0  255 255 255 255
3.4184 15.254 14.8205 0 1 0  255 255 255 255
5.06716 15.254 14.8205 0 1 0  255 255 255 255
3.37147 15.254 14.125 0 1 0  255 0 0 255
5.11409 15.254 14.125 0 1 0  255 0 0 255
5.07147 15.254 14.4438 0 1 0  255 255 255 255
3.41409 15.254 14.4438 0 1 0  255 255 255 255
3.93551 15.254 14.4787 0 1 0  255 255 255 255
4.55005 15.254 14.4787 0 1 0  255 255 255 255
3.6844 14.7507 15 0 0 1  255 255 255 255
4.80116 14.7851 15 0 0 1  255 255 255 255
4.24278 14.7679 15 0 0 1  255 255 255 255
3.98146 14.5812 15 0 0 1  255 255 255 255
3.96411 14.952 15 0 0 1  255 255 255 255
4.5041 14.9546 15 0 0 1  255 255 255 255
4.52145 14.5837 15 0 0 1  255 255 255 255
5.01237 14.6463 15 0 0 1  255 255 255 255
3.47319 14.8894 15 0 0 1  255 255 255 255
3.49166 14.5327 15 0 0 1  255 255 255 255
4.9939 15.003 15 0 0 1  255 255 255 255
3.6433 15.0303 15 0 0 1  255 255 255 255
4.84226 14.5055 15 0 0 1  255 255 255 255
4.24188 15.0337 15 0 0 1  255 255 255 255
4.24368 14.5021 15 0 0 1  255 255 255 255
4.73798 15.0189 15 0 0 1  255 255 255 255
3.74758 14.5169 15 0 0 1  255 255 255 255
3.41428 15.0814 15 0 0 1  255 255 255 255
5.07128 14.4544 15 0 0 1  255 255 255 255
5.11409 15.1325 15 0 0 1  255 255 255 255
3.37147 14.4033 15 0 0 1  255 255 255 255
3.40796 14.7124 15 0 0 1  255 255 255 255
5.0776 14.8234 15 0 0 1  255 255 255 255
3.22625 12.1161 14.6528 -1 0 0  255 255 255 255
3.22625 12.1161 14.3157 -1 0 0  255 255 255 255
3.22625 11.9666 14.4905 -1 0 0  255 255 255 255
3.22625 12.2689 14.4937 -1 0 0  255 255 255 255
3.22625 11.9651 14.7951 -1 0 0  255 255 255 255
3.22625 12.2671 14.7951 -1 0 0  255 255 255 255
3.22625 12.2767 14.1958 -1 0 0  255 255 255 255
3.22625 11.9555 14.1958 -1 0 0  255 255 255 255
3.22625 12.1161 14.1415 -1 0 0  255 255 255 255
3.22625 12.1161 14.8687 -1 0 0  255 255 255 255
3.71423 11.7625 14.5037 0 -1 0  255 255 255 255
4.76617 11.7625 14.4979 0 -1 0  255 255 255 255
4.24278 11.7625 14.5079 0 -1 0  255 255 255 255
4.00725 11.7625 14.2625 0 -1 0  255 255 255 255
4.52152 11.7625 14.2814 0 -1 0  255 255 255 255
4.48107 11.7625 14.7418 0 -1 0  255 255 255 255
3.9633 11.7625 14.7214 0 -1 0  255 255 255 255
3.47906 11.7625 14.625 0 -1 0  255 255 255 255
5.00649 11.7625 14.375 0 -1 0  255 255 255 255
4.98659 11.7625 14.7398 0 -1 0  255 255 255 255
3.49888 11.7625 14.2612 0 -1 0  255 255 255 255
4.83477 11.7625 14.2223 0 -1 0  255 255 255 255
3.6498 11.7625 14.7784 0 -1 0  255 255 255 255
4.23454 11.7625 14.7942 0 -1 0  255 255 255 255
4.25142 11.7625 14.2103 0 -1 0  255 255 255 255
3.74661 11.7625 14.2549 0 -1 0  255 255 255 255
4.73853 11.7625 14.7469 0 -1 0  255 255 255 255
3.4184 11.7625 14.8205 0 -1 0  255 255 255 255
5.06716 11.7625 14.1795 0 -1 0  255 255 255 255
5.11409 11.7625 14.875 0 -1 0  255 255 255 255
3.37147 11.7625 14.125 0 -1 0  255 0 0 255
3.4085 11.7625 14.4496 0 -1 0  255 255 255 255
5.07147 11.7625 14.5562 0 -1 0  255 255 255 255
4.55005 11.7625 14.5213 0 -1 0  255 255 255 255
3.93526 11.7625 14.483 0 -1 0  255 255 255 255
5.25931 12.1161 14.6528 1 0 0  255 255 255 255
5.25931 12.1161 14.3157 1 0 0  255 255 255 255
5.25931 11.9666 14.4905 1 0 0  255 255 255 255
5.25931 12.2689 14.4937 1 0 0  255 255 255 255
5.25931 12.2671 14.7951 1 0 0  255 255 255 255
5.25931 11.9651 14.7951 1 0 0  255 255 255 255
5.25931 11.9555 14.1958 1 0 0  255 255 255 255
5.25931 12.2767 14.1958 1 0 0  255 255 255 255
5.25931 12.1161 14.1415 1 0 0  255 255 255 255
5.25931 12.1161 14.8486 1 0 0  255 255 255 255
3.71939 12.4696 14.5021 0 1 0  255 255 255 255
4.76617 12.4696 14.5021 0 1 0  255 255 255 255
4.24278 12.4696 14.4921 0 1 0  255 255 255 255
3.96404 12.4696 14.7186 0 1 0  255 255 255 255
4.52152 12.4696 14.7186 0 1 0  255 255 255 255
4.00449 12.4696 14.2582 0 1 0  255 255 255 255
4.48107 12.4696 14.2582 0 1 0  255 255 255 255
5.00649 12.4696 14.625 0 1 0  255 255 255 255
3.47906 12.4696 14.625 0 1 0  255 255 255 255
4.98659 12.4696 14.2602 0 1 0  255 255 255 255
3.49897 12.4696 14.2602 0 1 0  255 255 255 255
3.65078 12.4696 14.7777 0 1 0  255 255 255 255
4.83477 12.4696 14.7777 0 1 0  255 255 255 255
4.24278 12.4696 14.2178 0 1 0  255 255 255 255
4.24278 12.4696 14.7821 0 1 0  255 255 255 255
3.74703 12.4696 14.2531 0 1 0  255 255 255 255
4.73853 12.4696 14.2531 0 1 0  255 255 255 255
3.4184 12.4696 14.8205 0 1 0  255 255 255 255
5.06716 12.4696 14.8205 0 1 0  255 255 255 255
3.37147 12.4696 14.125 0 1 0  255 0 0 255
5.11409 12.4696 14.125 0 1 0  255 0 0 255
5.07147 12.4696 14.4438 0 1 0  255 255 255 255
3.41409 12.4696 14.4438 0 1 0  255 255 255 255
3.93551 12.4696 14.4787 0 1 0  255 255 255 255
4.55005 12.4696 14.4787 0 1 0  255 255 255 255
4.92278 12.1161 15 0 0 1  255 255 255 255
3.56277 12.1161 15 0 0 1  255 255 255 255
4.50133 12.1044 15 0 0 1  255 255 255 255
3.98423 12.1044 15 0 0 1  255 255 255 255
4.24278 12.2504 15 0 0 1  255 255 255 255
4.24278 11.9719 15 0 0 1  255 255 255 255
4.76963 12.2501 15 0 0 1  255 255 255 255
3.71593 12.2501 15 0 0 1  255 255 255 255
4.76198 11.9825 15 0 0 1  255 255 255 255
3.72358 11.9825 15 0 0 1  255 255 255 255
3.43451 12.2759 15 0 0 1  255 255 255 255
3.43579 11.9563 15 0 0 1  255 255 255 255
5.05104 12.2759 15 0 0 1  255 255 255 255
5.04977 11.9563 15 0 0 1  255 255 255 255
3.36834 12.1161 15 0 0 1  255 255 255 255
5.11722 12.1161 15 0 0 1  255 255 255 255
3.95682 12.3191 15 0 0 1  255 255 255 255
3.95234 11.9095 15 0 0 1  255 255 255 255
4.53322 11.9095 15 0 0 1  255 255 255 255
4.52874 12.3191 15 0 0 1  255 255 255 255
2.54875 3.09493 14.4993 -1 0 0  255 255 255 255
2.54875 4.65173 14.4993 -1 0 0  255 255 255 255
2.54875 3.87333 14.5017 -1 0 0  255 255 255 255
2.54875 3.49512 14.3913 -1 0 0  255 255 255 255
2.54875 4.25154 14.3913 -1 0 0  255 255 255 255
2.54875 4.19687 14.7036 -1 0 0  255 255 255 255
2.54875 3.54979 14.7036 -1 0 0  255 255 255 255
2.54875 4.85894 14.7283 -1 0 0  255 255 255 255
2.54875 2.88772 14.7283 -1 0 0  255 255 255 255
2.54875 4.84144 14.2947 -1 0 0  255 255 255 255
2.54875 2.90522 14.2947 -1 0 0  255 255 255 255
2.54875 4.44738 14.7326 -1 0 0  255 255 255 255
2.54875 3.29929 14.7326 -1 0 0  255 255 255 255
2.54875 4.49335 14.2622 -1 0 0  255 255 255 255
2.54875 3.25331 14.2622 -1 0 0  255 255 255 255
2.54875 3.87333 14.278 -1 0 0  255 255 255 255
2.54875 3.87333 14.7039 -1 0 0  255 255 255 255
2.54875 4.91488 14.5 -1 0 0  255 255 255 255
2.54875 2.83178 14.5 -1 0 0  255 255 255 255
2.54875 3.64255 14.2129 -1 0 0  255 255 255 255
2.54875 4.10412 14.2129 -1 0 0  255 255 255 255
2.54875 3.08964 14.7983 -1 0 0  255 255 255 255
2.54875 4.65702 14.7983 -1 0 0  255 255 255 255
2.54875 4.41864 14.5222 -1 0 0  255 255 255 255
2.54875 3.32803 14.5222 -1 0 0  255 255 255 255
2.54875 3.67947 14.4978 -1 0 0  255 255 255 255
2.54875 4.06719 14.4978 -1 0 0  255 255 255 255
2.54875 3.06961 14.1749 -1 0 0  255 255 255 255
2.54875 4.67705 14.1749 -1 0 0  255 255 255 255
2.54875 4.99374 14.8722 -1 0 0  255 255 255 255
2.54875 2.75292 14.8722 -1 0 0  255 255 255 255
2.54875 2.75368 14.125 -1 0 0  255 255 255 255
2.54875 4.99299 14.125 -1 0 0  255 0 0 255
2.54875 3.44239 14.199 -1 0 0  255 255 255 255
2.54875 4.30428 14.199 -1 0 0  255 255 255 255
3.76712 2.61372 14.4484 0 -1 0  255 255 255 255
3.05184 2.61372 14.5 0 -1 0  255 255 255 255
3.38684 2.61372 14.6378 0 -1 0  255 255 255 255
3.32215 2.61372 14.3189 0 -1 0  255 255 255 255
3.93344 2.61372 14.7054 0 -1 0  255 255 255 255
2.84023 2.61372 14.7054 0 -1 0  255 255 255 255
2.82803 2.61372 14.2704 0 -1 0  255 255 255 255
3.95728 2.61372 14.2624 0 -1 0  255 255 255 255
3.58895 2.61372 14.2617 0 -1 0  255 255 255 255
3.63503 2.61372 14.7287 0 -1 0  255 255 255 255
3.14798 2.61372 14.7424 0 -1 0  255 255 255 255
3.08418 2.61372 14.2474 0 -1 0  255 255 255 255
2.76684 2.61372 14.5 0 -1 0  255 255 255 255
4.00683 2.61372 14.5 0 -1 0  255 255 255 255
3.54002 2.61372 14.4791 0 -1 0  255 255 255 255
3.77123 2.61372 14.1733 0 -1 0  255 255 255 255
3.79448 2.61372 14.8478 0 -1 0  255 255 255 255
2.97919 2.61372 14.8478 0 -1 0  255 255 255 255
4.06947 2.61372 14.8713 0 -1 0  255 255 255 255
2.7042 2.61372 14.8713 0 -1 0  255 255 255 255
4.08817 2.61372 14.1281 0 -1 0  255 0 0 255
2.68843 2.61372 14.125 0 -1 0  255 0 0 255
4.22492 3.09493 14.5007 1 0 0  255 255 255 255
4.22492 4.65173 14.5007 1 0 0  255 255 255 255
4.22492 3.87333 14.4976 1 0 0  255 255 255 255
4.22492 4.25154 14.6087 1 0 0  255 255 255 255
4.22492 3.49512 14.6087 1 0 0  255 255 255 255
4.22492 4.19687 14.2964 1 0 0  255 255 255 255
4.22492 3.54979 14.2964 1 0 0  255 255 255 255
4.22492 4.84144 14.7053 1 0 0  255 255 255 255
4.22492 2.90522 14.7053 1 0 0  255 255 255 255
4.22492 2.88772 14.2717 1 0 0  255 255 255 255
4.22492 4.85894 14.2717 1 0 0  255 255 255 255
4.22492 3.29929 14.2674 1 0 0  255 255 255 255
4.22492 4.44738 14.2674 1 0 0  255 255 255 255
4.22492 4.49335 14.7378 1 0 0  255 255 255 255
4.22492 3.25331 14.7378 1 0 0  255 255 255 255
4.22492 3.87333 14.296 1 0 0  255 255 255 255
4.22492 3.87333 14.7219 1 0 0  255 255 255 255
4.22492 2.83178 14.5 1 0 0  255 255 255 255
4.22492 4.91488 14.5 1 0 0  255 255 255 255
4.22492 4.10412 14.7871 1 0 0  255 255 255 255
4.22492 3.64255 14.7871 1 0 0  255 255 255 255
4.22492 4.65702 14.2017 1 0 0  255 255 255 255
4.22492 3.08964 14.2017 1 0 0  255 255 255 255
4.22492 3.32803 14.4778 1 0 0  255 255 255 255
4.22492 4.41864 14.4778 1 0 0  255 255 255 255
4.22492 4.06719 14.5021 1 0 0  255 255 255 255
4.22492 3.67947 14.5021 1 0 0  255 255 255 255
4.22492 4.67705 14.8251 1 0 0  255 255 255 255
4.22492 3.06961 14.8251 1 0 0  255 255 255 255
4.22492 2.75368 14.875 1 0 0  255 255 255 255
4.22492 4.99299 14.875 1 0 0  255 255 255 255
4.22492 4.99374 14.1278 1 0 0  255 255 255 255
4.22492 2.75292 14.1278 1 0 0  255 255 255 255
4.22492 3.44239 14.801 1 0 0  255 255 255 255
4.22492 4.30428 14.801 1 0 0  255 255 255 255
3.76712 5.13294 14.5516 0 1 0  255 255 255 255
3.05184 5.13294 14.5 0 1 0  255 255 255 255
3.38684 5.13294 14.3622 0 1 0  255 255 255 255
3.32215 5.13294 14.6811 0 1 0  255 255 255 255
2.82803 5.13294 14.7296 0 1 0  255 255 255 255
2.84023 5.13294 14.2946 0 1 0  255 255 255 255
3.95728 5.13294 14.7376 0 1 0  255 255 255 255
3.93344 5.13294 14.2946 0 1 0  255 255 255 255
3.58895 5.13294 14.7383 0 1 0  255 255 255 255
3.63503 5.13294 14.2713 0 1 0  255 255 255 255
3.14798 5.13294 14.2576 0 1 0  255 255 255 255
3.08418 5.13294 14.7526 0 1 0  255 255 255 255
2.76684 5.13294 14.5 0 1 0  255 255 255 255
4.00683 5.13294 14.5 0 1 0  255 255 255 255
3.54002 5.13294 14.5209 0 1 0  255 255 255 255
3.77123 5.13294 14.8267 0 1 0  255 255 255 255
3.79448 5.13294 14.1522 0 1 0  255 255 255 255
2.97919 5.13294 14.1522 0 1 0  255 255 255 255
4.08817 5.13294 14.8719 0 1 0  255 255 255 255
4.06947 5.13294 14.1287 0 1 0  255 255 255 255
2.68843 5.13294 14.875 0 1 0  255 255 255 255
2.7042 5.13294 14.1287 0 1 0  255 0 0 255
3.38735 4.16977 15 0 0 1  255 255 255 255
3.4553 3.38348 15 0 0 1  255 255 255 255
3.06676 4.61948 15 0 0 1  255 255 255 255
3.70042 4.62831 15 0 0 1  255 255 255 255
3.05691 3.71357 15 0 0 1  255 255 255 255
3.02836 3.06202 15 0 0 1  255 255 255 255
3.69853 3.80486 15 0 0 1  255 255 255 255
3.78015 3.05871 15 0 0 1  255 255 255 255
2.95611 4.15325 15 0 0 1  255 255 255 255
3.81943 4.2023 15 0 0 1  255 255 255 255
3.40516 2.99384 15 0 0 1  255 255 255 255
3.86868 3.44283 15 0 0 1  255 255 255 255
3.38684 4.77982 15 0 0 1  255 255 255 255
2.90165 3.4386 15 0 0 1  255 255 255 255
3.37393 3.695 15 0 0 1  255 255 255 255
2.86208 4.81968 15 0 0 1  255 255 255 255
3.86616 4.81961 15 0 0 1  255 255 255 255
3.38091 4.48125 15 0 0 1  255 255 255 255
2.82226 4.41328 15 0 0 1  255 255 255 255
2.82475 3.90793 15 0 0 1  255 255 255 255
3.95068 4.43674 15 0 0 1  255 255 255 255
2.83754 2.90249 15 0 0 1  255 255 255 255
3.18324 3.47354 15 0 0 1  255 255 255 255
3.94202 3.94625 15 0 0 1  255 255 255 255
3.17147 3.98886 15 0 0 1  255 255 255 255
3.64174 4.87658 15 0 0 1  255 255 255 255
3.12968 4.8762 15 0 0 1  255 255 255 255
3.17622 2.87419 15 0 0 1  255 255 255 255
3.96648 3.67009 15 0 0 1  255 255 255 255
3.14018 4.34029 15 0 0 1  255 255 255 255
3.62632 4.04194 15 0 0 1  255 255 255 255
3.6039 4.34982 15 0 0 1  255 255 255 255
3.96463 2.87405 15 0 0 1  255 255 255 255
2.80255 3.19411 15 0 0 1  255 255 255 255
3.62101 2.86238 15 0 0 1  255 255 255 255
3.27124 3.19874 15 0 0 1  255 255 255 255
3.97638 3.21746 15 0 0 1  255 255 255 255
3.64067 3.56341 15 0 0 1  255 255 255 255
2.77616 3.64939 15 0 0 1  255 255 255 255
3.54929 3.15615 15 0 0 1  255 255 255 255
2.73144 4.15401 15 0 0 1  255 255 255 255
4.03239 4.17836 15 0 0 1  255 255 255 255
3.443 3.93879 15 0 0 1  255 255 255 255
2.75409 4.63455 15 0 0 1  255 255 255 255
4.02672 4.66911 15 0 0 1  255 255 255 255
3.71174 3.30367 15 0 0 1  255 255 255 255
3.04499 3.28356 15 0 0 1  255 255 255 255
2.73531 4.97437 15 0 0 1  255 255 255 255
4.04056 4.95178 15 0 0 1  255 255 255 255
4.07357 3.04223 15 0 0 1  255 255 255 255
3.80588 4.98962 15 0 0 1  255 255 255 255
2.96779 4.98962 15 0 0 1  255 255 255 255
3.7963 2.7658 15 0 0 1  255 255 255 255
2.99296 2.77722 15 0 0 1  255 255 255 255
2.69731 2.76253 15 0 0 1  255 255 255 255
0 3.57458 14.4951 -1 0 0  255 255 255 255
0 3.17882 14.4778 -1 0 0  255 255 255 255
0 3.94818 14.6434 -1 0 0  255 255 255 255
0 3.91681 14.2107 -1 0 0  255 255 255 255
0 3.38437 14.7098 -1 0 0  255 255 255 255
0 3.00303 14.7042 -1 0 0  255 255 255 255
0 3.41154 14.2851 -1 0 0  255 255 255 255
0 2.97296 14.2612 -1 0 0  255 255 255 255
0 3.69672 14.7359 -1 0 0  255 255 255 255
0 3.66444 14.2402 -1 0 0  255 255 255 255
0 2.93388 14.4903 -1 0 0  255 255 255 255
0 4.0771 14.4125 -1 0 0  255 255 255 255
0 3.18914 14.2193 -1 0 0  255 255 255 255
0 4.09827 14.8054 -1 0 0  255 255 255 255
0 3.90752 14.837 -1 0 0  255 255 255 255
0 3.19352 14.794 -1 0 0  255 255 255 255
0 3.38431 14.4923 -1 0 0  255 255 255 255
0 4.11032 14.1787 -1 0 0  255 255 255 255
0 3.81297 14.4563 -1 0 0  255 255 255 255
0 4.14806 14.621 -1 0 0  255 255 255 255
0 2.87386 14.8406 -1 0 0  255 255 255 255
0 2.84128 14.125 -1 0 0  255 255 255 255
0.335141 2.70928 14.6753 0 -1 0  255 255 255 255
0.335141 2.70928 14.3247 0 -1 0  255 255 255 255
0.188007 2.70928 14.5 0 -1 0  255 255 255 255
0.479097 2.70928 14.5 0 -1 0  255 255 255 255
0.481821 2.70928 14.8064 0 -1 0  255 255 255 255
0.188461 2.70928 14.8064 0 -1 0  255 255 255 255
0.481821 2.70928 14.1936 0 -1 0  255 255 255 255
0.188461 2.70928 14.1936 0 -1 0  255 255 255 255
0.335141 2.70928 14.864 0 -1 0  255 255 255 255
0.335141 2.70928 14.1424 0 -1 0  255 255 255 255
0.670282 3.58294 14.4973 1 0 0  255 255 255 255
0.670282 3.17882 14.5222 1 0 0  255 255 255 255
0.670282 3.9641 14.6302 1 0 0  255 255 255 255
0.670282 3.91352 14.2121 1 0 0  255 255 255 255
0.670282 3.38498 14.2897 1 0 0  255 255 255 255
0.670282 3.00303 14.2958 1 0 0  255 255 255 255
0.670282 3.4126 14.7144 1 0 0  255 255 255 255
0.670282 2.97296 14.7388 1 0 0  255 255 255 255
0.670282 3.66262 14.2473 1 0 0  255 255 255 255
0.670282 3.73031 14.7418 1 0 0  255 255 255 255
0.670282 2.93388 14.5097 1 0 0  255 255 255 255
0.670282 4.0789 14.4109 1 0 0  255 255 255 255
0.670282 3.18919 14.7807 1 0 0  255 255 255 255
0.670282 4.0958 14.8027 1 0 0  255 255 255 255
0.670282 3.19352 14.206 1 0 0  255 255 255 255
0.670282 3.38984 14.5059 1 0 0  255 255 255 255
0.670282 4.11326 14.1777 1 0 0  255 255 255 255
0.670282 3.9015 14.8467 1 0 0  255 255 255 255
0.670282 3.82206 14.4566 1 0 0  255 255 255 255
0.670282 4.1502 14.6205 1 0 0  255 255 255 255
0.670282 2.87386 14.1594 1 0 0  255 255 255 255
0.670282 2.84128 14.875 1 0 0  255 255 255 255
0.335141 4.2932 14.6753 0 1 0  255 255 255 255
0.335141 4.2932 14.3247 0 1 0  255 255 255 255
0.188007 4.2932 14.5 0 1 0  255 255 255 255
0.479097 4.2932 14.5 0 1 0  255 255 255 255
0.481821 4.2932 14.8064 0 1 0  255 255 255 255
0.188461 4.2932 14.8064 0 1 0  255 255 255 255
0.481821 4.2932 14.1936 0 1 0  255 255 255 255
0.188461 4.2932 14.1936 0 1 0  255 255 255 255
0.335141 4.2932 14.136 0 1 0  255 255 255 255
0.335141 4.2932 14.864 0 1 0  255 255 255 255
0.335141 3.97211 15 0 0 1  255 255 255 255
0.335141 3.03038 15 0 0 1  255 255 255 255
0.335141 3.61741 15 0 0 1  255 255 255 255
0.284748 3.31467 15 0 0 1  255 255 255 255
0.494145 3.40966 15 0 0 1  255 255 255 255
0.213593 3.80242 15 0 0 1  255 255 255 255
0.461936 3.84353 15 0 0 1  255 255 255 255
0.485843 2.90283 15 0 0 1  255 255 255 255
0.184439 2.90283 15 0 0 1  255 255 255 255
0.184439 4.09966 15 0 0 1  255 255 255 255
0.485843 4.09966 15 0 0 1  255 255 255 255
0.481143 3.16876 15 0 0 1  255 255 255 255
0.149945 3.10526 15 0 0 1  255 255 255 255
0.191261 3.49098 15 0 0 1  255 255 255 255
0.335141 2.84565 15 0 0 1  255 255 255 255
0.335141 4.15683 15 0 0 1  255 255 255 255
0.526357 3.62741 15 0 0 1  255 255 255 255
-5.40924 22.0238 13.5244 -0.371546 0.928415 0  255 255 255 255
-4.78544 22.4739 13.5318 -0.763875 0.645365 0  255 255 255 255
-4.45492 23.8753 13.4993 -0.971748 -0.236019 0  255 255 255 255
-5.99843 25.09 13.507 -0.000991 -1 0  255 255 255 255
-6.86081 24.8368 13.4942 0.541387 -0.840773 0  255 255 255 255
-7.58811 23.5776 13.5059 0.99881 -0.048779 0  255 255 255 255
-7.38023 22.7107 13.4941 0.868069 0.496443 0  255 255 255 255
-6.52702 21.9999 13.4861 0.331461 0.943469 0  255 255 255 255
-6.73157 22.0883 13.494 0.460108 0.887863 0  255 255 255 255
-5.68804 21.9409 13.5086 -0.196199 0.980564 0  255 255 255 255
-5.15342 22.1541 13.5626 -0.532441 0.846467 0  255 255 255 255
-4.66092 22.6427 13.4439 -0.842185 0.539188 0  255 255 255 255
-4.54757 22.8531 13.481 -0.913479 0.406885 0  255 255 255 255
-4.45413 23.128 13.5028 -0.972247 0.233957 0  255 255 255 255
-4.41215 23.4174 13.5268 -0.998651 0.051926 0  255 255 255 255
-4.41803 23.6596 13.5701 -0.99495 -0.100371 0  255 255 255 255
-4.52112 24.084 13.428 -0.93011 -0.367282 0  255 255 255 255
-4.62741 24.3025 13.4698 -0.863267 -0.504748 0  255 255 255 255
-4.79942 24.5425 13.4895 -0.75508 -0.655632 0  255 255 255 255
-5.01709 24.7498 13.5003 -0.61818 -0.786037 0  255 255 255 255
-5.26987 24.9124 13.5113 -0.459201 -0.888332 0  255 255 255 255
-5.54343 25.023 13.5317 -0.287153 -0.957885 0  255 255 255 255
-5.78054 25.0748 13.575 -0.138025 -0.990429 0  255 255 255 255
-6.2166 25.0752 13.4428 0.136226 -0.990678 0  255 255 255 255
-6.44792 25.0256 13.5003 0.28171 -0.9595 0  255 255 255 255
-6.6693 24.9423 13.5579 0.420945 -0.907086 0  255 255 255 255
-7.03582 24.7063 13.4272 0.651458 -0.758685 0  255 255 255 255
-7.20713 24.5349 13.4729 0.759204 -0.650853 0  255 255 255 255
-7.37696 24.295 13.5 0.86601 -0.500027 0  255 255 255 255
-7.49973 24.0281 13.5271 0.943228 -0.332147 0  255 255 255 255
-7.56256 23.7941 13.5728 0.98274 -0.18499 0  255 255 255 255
-7.58378 23.3595 13.4423 0.996086 0.088385 0  255 255 255 255
-7.54564 23.127 13.5 0.9721 0.234565 0  255 255 255 255
-7.47393 22.9037 13.5577 0.927001 0.375058 0  255 255 255 255
-7.26377 22.5351 13.4274 0.794822 0.606842 0  255 255 255 255
-7.1149 22.3664 13.4731 0.701197 0.712967 0  255 255 255 255
-6.92321 22.2055 13.4978 0.580636 0.814163 0  255 255 255 255
-6.28696 21.9361 13.4941 0.180476 0.983579 0  255 255 255 255
-5.82124 21.9201 13.7531 -0.112429 0.99366 0  255 255 255 255
-6.16862 21.919 13.7467 0.106051 0.994361 0  255 255 255 255
-6.17025 21.9191 13.2486 0.107074 0.994251 0  255 255 255 255
-5.82064 21.9201 13.2533 -0.112802 0.993617 0  255 255 255 255
-5.5482 21.9755 13.7601 -0.284152 0.958779 0  255 255 255 255
-5.28458 22.08 13.7747 -0.449951 0.893053 0  255 255 255 255
-5.07876 22.2041 13.801 -0.579398 0.815045 0  255 255 255 255
-4.78604 22.4732 13.7822 -0.763497 0.645812 0  255 255 255 255
-4.94091 22.3141 13.6676 -0.666094 0.745867 0  255 255 255 255
-4.63551 22.6838 13.7116 -0.858173 0.513361 0  255 255 255 255
-4.49806 22.9782 13.742 -0.944614 0.328183 0  255 255 255 255
-4.42682 23.2693 13.7567 -0.98942 0.145082 0  255 255 255 255
-4.41095 23.5548 13.7683 -0.999405 -0.034493 0  255 255 255 255
-4.44454 23.8296 13.756 -0.978279 -0.207292 0  255 255 255 255
-4.53771 24.1243 13.6982 -0.919681 -0.392666 0  255 255 255 255
-4.70193 24.4182 13.7339 -0.816395 -0.577494 0  255 255 255 255
-4.9022 24.6502 13.7461 -0.690442 -0.723387 0  255 255 255 255
-5.13922 24.8368 13.7532 -0.541369 -0.840785 0  255 255 255 255
-5.40379 24.974 13.7613 -0.374971 -0.927036 0  255 255 255 255
-5.6776 25.057 13.7714 -0.202769 -0.979227 0  255 255 255 255
-5.95195 25.0893 13.7604 -0.03022 -0.999543 0  255 255 255 255
-6.25692 25.0691 13.7091 0.161585 -0.986859 0  255 255 255 255
-6.56646 24.9857 13.7529 0.356265 -0.934385 0  255 255 255 255
-6.81972 24.8624 13.7504 0.51555 -0.85686 0  255 255 255 255
-7.06819 24.6777 13.6975 0.671816 -0.740719 0  255 255 255 255
-7.29155 24.4274 13.7377 0.812294 -0.583248 0  255 255 255 255
-7.44376 24.1661 13.7557 0.908023 -0.41892 0  255 255 255 255
-7.53986 23.8962 13.7692 0.968464 -0.249153 0  255 255 255 255
-7.58517 23.6238 13.7594 0.996964 -0.07786 0  255 255 255 255
-7.57964 23.3188 13.7086 0.993482 0.113987 0  255 255 255 255
-7.51151 23.0066 13.7528 0.950637 0.310307 0  255 255 255 255
-7.40199 22.75 13.7502 0.881754 0.47171 0  255 255 255 255
-7.23564 22.4993 13.697 0.777129 0.629341 0  255 255 255 255
-7.01257 22.2741 13.734 0.636835 0.771 0  255 255 255 255
-6.79396 22.1224 13.736 0.499346 0.866403 0  255 255 255 255
-6.61485 22.0337 13.6905 0.386699 0.922206 0  255 255 255 255
-6.41741 21.9658 13.7362 0.262524 0.964925 0  255 255 255 255
-6.42687 21.9684 13.2472 0.268471 0.963288 0  255 255 255 255
-6.6672 22.0568 13.2544 0.419624 0.907698 0  255 255 255 255
-6.84245 22.1515 13.2993 0.529843 0.848096 0  255 255 255 255
