ply
format ascii 1.0
comment VCGLIB generated
element vertex 1092
property float x
property float y
property float z
property float nx
property float ny
property float nz
property uchar red
property uchar green
property uchar blue
property uchar alpha
element face 0
property list uchar int vertex_indices
end_header
99.8935 -4 20.6502 0 -1 0  255 255 255 255
-41.1835 -4 0.70425 0 -1 0  255 255 255 255
41.1835 -4 0.70425 0 -1 0  255 255 255 255
-32.4676 -4 14.4852 0 -1 0  255 255 255 255
-56.6343 -4 -4.78039 0 -1 0  255 255 255 255
-9.43337 -4 9.40695 0 -1 0  255 255 255 255
14.3652 -4 96.4238 0 -1 0  255 255 255 255
56.6314 -4 -4.77104 0 -1 0  255 255 255 255
2.1016 -4 -2.17772 0 -1 0  255 255 255 255
-95.006 -4 12.7443 0 -1 0  255 255 255 255
42.4719 -4 -15.4028 0 -1 0  255 255 255 255
18.6459 -4 20.9754 0 -1 0  255 255 255 255
-42.4665 -4 -15.4062 0 -1 0  255 255 255 255
35.0469 -4 -11.0654 0 -1 0  255 255 255 255
-35.0469 -4 -11.0654 0 -1 0  255 255 255 255
-6.74419 -4 57.5238 0 -1 0  255 255 255 255
-17.8067 -4 86.4482 0 -1 0  255 255 255 255
1.38145 -4 51.6791 0 -1 0  255 255 255 255
-99.94 -4 6.59491 0 -1 0  255 255 255 255
20.1148 -4 -12.8018 0 -1 0  255 255 255 255
-20.1148 -4 -12.8018 0 -1 0  255 255 255 255
-14.7178 -4 103.348 0 -1 0  255 255 255 255
-6.4773 -4 7.58354 0 -1 0  255 255 255 255
-28.4058 -4 -1.35436 0 -1 0  255 255 255 255
28.4058 -4 -1.35436 0 -1 0  255 255 255 255
15.1027 -4 103.424 0 -1 0  255 255 255 255
0.573207 -4 35.5918 0 -1 0  255 255 255 255
99.9599 -4 -6.42018 0 -1 0  255 255 255 255
-89.0032 -4 -3.17535 0 -1 0  255 255 255 255
17.9044 -4 86.0771 0 -1 0  255 255 255 255
-102.836 -4 17.5322 0 -1 0  255 255 255 255
0.021705 -4 64.7957 0 -1 0  255 255 255 255
-8.85752 -4 -12.8873 0 -1 0  255 255 255 255
-5.91411 -4 44.2862 0 -1 0  255 255 255 255
-10.843 -4 76.9772 0 -1 0  255 255 255 255
7.99597 -4 23.7418 0 -1 0  255 255 255 255
2.80639 -4 33.4047 0 -1 0  255 255 255 255
2.37695 -4 54.2681 0 -1 0  255 255 255 255
5.9531 -4 52.1449 0 -1 0  255 255 255 255
84.3955 -4 4.37453 0 -1 0  255 255 255 255
-29.397 -4 14.3781 0 -1 0  255 255 255 255
54.664 -4 3.07732 0 -1 0  255 255 255 255
3.09322 -4 75.2835 0 -1 0  255 255 255 255
-52.6733 -4 13.7097 0 -1 0  255 255 255 255
52.6904 -4 13.6998 0 -1 0  255 255 255 255
-84.426 -4 4.35405 0 -1 0  255 255 255 255
-5.25894 -4 68.8928 0 -1 0  255 255 255 255
-6.16134 -4 71.0372 0 -1 0  255 255 255 255
-89.5697 -4 -9.81163 0 -1 0  255 255 255 255
-87.0835 -4 -6.8679 0 -1 0  255 255 255 255
-39.1034 -4 -5.57255 0 -1 0  255 255 255 255
39.1034 -4 -5.57255 0 -1 0  255 255 255 255
89.4875 -4 -10.0815 0 -1 0  255 255 255 255
102.839 -4 -17.6244 0 -1 0  255 255 255 255
-54.664 -4 3.07868 0 -1 0  255 255 255 255
-50.2562 -4 -20.3164 0 -1 0  255 255 255 255
50.2546 -4 -20.3235 0 -1 0  255 255 255 255
61.8745 -4 17.6796 0 -1 0  255 255 255 255
14.0914 -4 86.5073 0 -1 0  255 255 255 255
-61.8968 -4 17.7191 0 -1 0  255 255 255 255
74.4704 -4 -20.8487 0 -1 0  255 255 255 255
-91.7412 -4 -10.8083 0 -1 0  255 255 255 255
91.4913 -4 -10.8547 0 -1 0  255 255 255 255
87.0225 -4 -13.2901 0 -1 0  255 255 255 255
0.934648 -4 71.9433 0 -1 0  255 255 255 255
-74.0064 -4 -4.32772 0 -1 0  255 255 255 255
-74.4558 -4 -20.8492 0 -1 0  255 255 255 255
-15.4833 -4 50.7838 0 -1 0  255 255 255 255
-14.1687 -4 122.982 0 -1 0  255 255 255 255
17.9291 -4 92.4179 0 -1 0  255 255 255 255
-7.4964 -4 66.9633 0 -1 0  255 255 255 255
7.4515 -4 67.1739 0 -1 0  255 255 255 255
-15.2469 -4 76.1898 0 -1 0  255 255 255 255
46.609 -4 11.639 0 -1 0  255 255 255 255
3.63783 -4 66.8905 0 -1 0  255 255 255 255
74.0097 -4 -4.32943 0 -1 0  255 255 255 255
14.9615 -4 76.1239 0 -1 0  255 255 255 255
-27.6226 -4 -4.91127 0 -1 0  255 255 255 255
27.6226 -4 -4.91127 0 -1 0  255 255 255 255
-87.0416 -4 -13.2553 0 -1 0  255 255 255 255
3.34784 -4 1.84128 0 -1 0  255 255 255 255
-46.4863 -4 11.7314 0 -1 0  255 255 255 255
11.616 -4 25.2515 0 -1 0  255 255 255 255
-16.8675 -4 15.3991 0 -1 0  255 255 255 255
-58.7435 -4 -5.53642 0 -1 0  255 255 255 255
11.0862 -4 16.0447 0 -1 0  255 255 255 255
-11.5901 -4 104.544 0 -1 0  255 255 255 255
6.70516 -4 87.656 0 -1 0  255 255 255 255
58.7498 -4 -5.52983 0 -1 0  255 255 255 255
-76.4899 -4 -4.96916 0 -1 0  255 255 255 255
76.4938 -4 -4.97224 0 -1 0  255 255 255 255
0.480509 -4 81.1048 0 -1 0  255 255 255 255
-17.9523 -4 92.4506 0 -1 0  255 255 255 255
-7.22999 -4 23.153 0 -1 0  255 255 255 255
-33.3599 -4 -6.02957 0 -1 0  255 255 255 255
33.3599 -4 -6.02957 0 -1 0  255 255 255 255
14.1846 -4 122.955 0 -1 0  255 255 255 255
-0.983008 -4 87.4583 0 -1 0  255 255 255 255
-17.9647 -4 96.4731 0 -1 0  255 255 255 255
-15.0239 -4 61.4514 0 -1 0  255 255 255 255
-8.2586 -4 62.0833 0 -1 0  255 255 255 255
-97.1173 -4 7.6567 0 -1 0  255 255 255 255
-72.6061 -4 1.16599 0 -1 0  255 255 255 255
-10.1551 -4 -20.3908 0 -1 0  255 255 255 255
0.028409 -4 85.1509 0 -1 0  255 255 255 255
6.01909 -4 102.75 0 -1 0  255 255 255 255
-5.63767 -4 85.3296 0 -1 0  255 255 255 255
-5.60474 -4 18.329 0 -1 0  255 255 255 255
-90.6101 -4 -17.3633 0 -1 0  255 255 255 255
17.9054 -4 96.3889 0 -1 0  255 255 255 255
48.2481 -4 -9.94535 0 -1 0  255 255 255 255
-61.4241 -4 -10.4343 0 -1 0  255 255 255 255
4.38109 -4 -10.4255 0 -1 0  255 255 255 255
61.4346 -4 -10.4357 0 -1 0  255 255 255 255
-43.3987 -4 17.4151 0 -1 0  255 255 255 255
43.4032 -4 17.4143 0 -1 0  255 255 255 255
22.8803 -4 12.6038 0 -1 0  255 255 255 255
86.6294 -4 -6.78407 0 -1 0  255 255 255 255
-9.20261 -4 64.3923 0 -1 0  255 255 255 255
-15.8043 -4 -13.2778 0 -1 0  255 255 255 255
15.8043 -4 -13.2778 0 -1 0  255 255 255 255
-82.9801 -4 -12.5777 0 -1 0  255 255 255 255
90.6318 -4 -17.3712 0 -1 0  255 255 255 255
99.3328 -4 4.83458 0 -1 0  255 255 255 255
-48.2415 -4 -9.94663 0 -1 0  255 255 255 255
82.9412 -4 -12.5605 0 -1 0  255 255 255 255
-1.68092 -4 -11.1327 0 -1 0  255 255 255 255
-14.6355 -4 113.58 0 -1 0  255 255 255 255
-99.7301 -4 -4.90997 0 -1 0  255 255 255 255
14.9398 -4 61.7286 0 -1 0  255 255 255 255
9.55758 -4 64.6005 0 -1 0  255 255 255 255
71.2788 -4 20.1829 0 -1 0  255 255 255 255
-97.3208 -4 0.941101 0 -1 0  255 255 255 255
93.6413 -4 9.19507 0 -1 0  255 255 255 255
-10.7917 -4 6.08522 0 -1 0  255 255 255 255
1.36418 -4 57.8689 0 -1 0  255 255 255 255
-71.2492 -4 20.1851 0 -1 0  255 255 255 255
63.5449 -4 3.24877 0 -1 0  255 255 255 255
-10.8806 -4 29.8875 0 -1 0  255 255 255 255
-63.5323 -4 3.2556 0 -1 0  255 255 255 255
14.9494 -4 55.3915 0 -1 0  255 255 255 255
93.7889 -4 20.4031 0 -1 0  255 255 255 255
5.53156 -4 73.3659 0 -1 0  255 255 255 255
97.3013 -4 -0.977163 0 -1 0  255 255 255 255
14.6358 -4 113.62 0 -1 0  255 255 255 255
-93.7636 -4 20.4045 0 -1 0  255 255 255 255
-7.85815 -4 5.31999 0 -1 0  255 255 255 255
7.95023 -4 83.1784 0 -1 0  255 255 255 255
-7.94227 -4 82.2094 0 -1 0  255 255 255 255
0.24787 -4 60.6147 0 -1 0  255 255 255 255
17.8161 -4 25.7459 0 -1 0  255 255 255 255
-17.8364 -4 36.8742 0 -1 0  255 255 255 255
5.16695 -4 59.749 0 -1 0  255 255 255 255
-32.3378 -4 8.60552 0 -1 0  255 255 255 255
13.2271 -4 9.07044 0 -1 0  255 255 255 255
6.44418 -4 21.8 0 -1 0  255 255 255 255
32.3399 -4 8.60199 0 -1 0  255 255 255 255
97.1503 -4 -7.45255 0 -1 0  255 255 255 255
99.5542 -4 11.8298 0 -1 0  255 255 255 255
99.2595 -4 13.8613 0 -1 0  255 255 255 255
53.5267 -4 -9.90995 0 -1 0  255 255 255 255
-37.4987 -4 2.23968 0 -1 0  255 255 255 255
37.4987 -4 2.23968 0 -1 0  255 255 255 255
-78.1265 -4 8.90828 0 -1 0  255 255 255 255
-22.8065 -4 -8.12885 0 -1 0  255 255 255 255
22.8065 -4 -8.12885 0 -1 0  255 255 255 255
-4.61415 -4 96.2041 0 -1 0  255 255 255 255
102.89 -4 7.21773 0 -1 0  255 255 255 255
11.2356 -4 76.8676 0 -1 0  255 255 255 255
8.6784 -4 94.3671 0 -1 0  255 255 255 255
8.99428 -4 77.5442 0 -1 0  255 255 255 255
-102.903 -4 -7.20827 0 -1 0  255 255 255 255
78.1374 -4 8.8999 0 -1 0  255 255 255 255
-89.4793 -4 2.7919 0 -1 0  255 255 255 255
-83.6361 -4 6.76114 0 -1 0  255 255 255 255
5.69158 -4 68.9168 0 -1 0  255 255 255 255
-10.4875 -4 98.0826 0 -1 0  255 255 255 255
-53.5153 -4 -9.9149 0 -1 0  255 255 255 255
-15.0077 -4 83.5464 0 -1 0  255 255 255 255
53.8355 -4 20.4302 0 -1 0  255 255 255 255
5.01538 -4 35.2438 0 -1 0  255 255 255 255
-79.8254 -4 14.6897 0 -1 0  255 255 255 255
-53.8287 -4 20.4311 0 -1 0  255 255 255 255
79.8507 -4 14.6778 0 -1 0  255 255 255 255
25.7739 -4 -17.4111 0 -1 0  255 255 255 255
-25.7739 -4 -17.4111 0 -1 0  255 255 255 255
-5.65114 -4 -16.163 0 -1 0  255 255 255 255
-58.6119 -4 -14.0625 0 -1 0  255 255 255 255
22.184 -4 16.9503 0 -1 0  255 255 255 255
4.50998 -4 44.4865 0 -1 0  255 255 255 255
-99.2434 -4 -18.0071 0 -1 0  255 255 255 255
-1.07019 -4 68.3327 0 -1 0  255 255 255 255
-65.2648 -4 -3.00443 0 -1 0  255 255 255 255
83.6279 -4 6.75689 0 -1 0  255 255 255 255
-3.43582 -4 -17.3523 0 -1 0  255 255 255 255
58.6177 -4 -14.0596 0 -1 0  255 255 255 255
9.28765 -4 53.3491 0 -1 0  255 255 255 255
-70.8828 -4 7.00719 0 -1 0  255 255 255 255
65.264 -4 -3.00078 0 -1 0  255 255 255 255
49.3781 -4 -17.416 0 -1 0  255 255 255 255
92.6562 -4 2.2375 0 -1 0  255 255 255 255
-3.14009 -4 46.0736 0 -1 0  255 255 255 255
-49.3688 -4 -17.4203 0 -1 0  255 255 255 255
11.7658 -4 -3.20165 0 -1 0  255 255 255 255
-11.6174 -4 -3.04833 0 -1 0  255 255 255 255
71.0138 -4 7.04425 0 -1 0  255 255 255 255
-44.515 -4 2.32543 0 -1 0  255 255 255 255
44.515 -4 2.32543 0 -1 0  255 255 255 255
99.3132 -4 17.7859 0 -1 0  255 255 255 255
-15.5459 -4 37.4811 0 -1 0  255 255 255 255
-2.36312 -4 101.246 0 -1 0  255 255 255 255
33.4064 -4 20.4189 0 -1 0  255 255 255 255
99.0013 -4 -17.982 0 -1 0  255 255 255 255
-1.84358 -4 43.9519 0 -1 0  255 255 255 255
58.6002 -4 17.1416 0 -1 0  255 255 255 255
-11.9835 -4 38.8372 0 -1 0  255 255 255 255
3.92212 -4 37.8925 0 -1 0  255 255 255 255
-58.5892 -4 17.1436 0 -1 0  255 255 255 255
15.3964 -4 25.1549 0 -1 0  255 255 255 255
-88.1284 -4 10.4666 0 -1 0  255 255 255 255
3.00701 -4 47.1937 0 -1 0  255 255 255 255
42.2957 -4 20.4234 0 -1 0  255 255 255 255
-42.2917 -4 20.4248 0 -1 0  255 255 255 255
67.634 -4 -4.49152 0 -1 0  255 255 255 255
-99.622 -4 17.7102 0 -1 0  255 255 255 255
-67.6313 -4 -4.48419 0 -1 0  255 255 255 255
-15.0485 -4 89.3565 0 -1 0  255 255 255 255
15.2703 -4 89.192 0 -1 0  255 255 255 255
38.1355 -4 -20.4692 0 -1 0  255 255 255 255
0.894864 -4 31.3652 0 -1 0  255 255 255 255
92.7051 -4 6.68467 0 -1 0  255 255 255 255
-93.747 -4 -9.04068 0 -1 0  255 255 255 255
-38.1334 -4 -20.4699 0 -1 0  255 255 255 255
-29.4933 -4 1.15904 0 -1 0  255 255 255 255
29.4933 -4 1.15904 0 -1 0  255 255 255 255
80.6496 -4 3.96382 0 -1 0  255 255 255 255
87.946 -4 6.3603 0 -1 0  255 255 255 255
-91.9048 -4 10.8397 0 -1 0  255 255 255 255
15.476 -4 51.234 0 -1 0  255 255 255 255
63.6462 -4 13.6351 0 -1 0  255 255 255 255
-80.9261 -4 3.9799 0 -1 0  255 255 255 255
89.7259 -4 18.1067 0 -1 0  255 255 255 255
-63.6294 -4 13.6385 0 -1 0  255 255 255 255
11.2359 -4 80.9982 0 -1 0  255 255 255 255
96.9126 -4 -14.5792 0 -1 0  255 255 255 255
7.3569 -4 14.1506 0 -1 0  255 255 255 255
99.9768 -4 7.76322 0 -1 0  255 255 255 255
32.8037 -4 5.70674 0 -1 0  255 255 255 255
-32.8028 -4 5.70763 0 -1 0  255 255 255 255
11.3223 -4 74.5579 0 -1 0  255 255 255 255
6.96453 -4 29.3974 0 -1 0  255 255 255 255
-66.8458 -4 -7.46871 0 -1 0  255 255 255 255
-5.03639 -4 48.5145 0 -1 0  255 255 255 255
-100.401 -4 -15.0193 0 -1 0  255 255 255 255
66.8663 -4 -7.48118 0 -1 0  255 255 255 255
-88.157 -4 -20.2121 0 -1 0  255 255 255 255
9.46385 -4 26.5519 0 -1 0  255 255 255 255
-13.8976 -4 -16.5151 0 -1 0  255 255 255 255
13.8976 -4 -16.5151 0 -1 0  255 255 255 255
88.1967 -4 -20.2643 0 -1 0  255 255 255 255
102.724 -4 14.0466 0 -1 0  255 255 255 255
18.4144 -4 5.82359 0 -1 0  255 255 255 255
18.1776 -4 89.9691 0 -1 0  255 255 255 255
-81.9587 -4 10.8036 0 -1 0  255 255 255 255
-102.886 -4 -14.2051 0 -1 0  255 255 255 255
-17.9807 -4 89.9409 0 -1 0  255 255 255 255
-26.7657 -4 20.5487 0 -1 0  255 255 255 255
4.66052 -4 125.573 0 -1 0  255 255 255 255
81.9813 -4 10.8071 0 -1 0  255 255 255 255
88.3658 -4 10.256 0 -1 0  255 255 255 255
-4.4823 -4 122.645 0 -1 0  255 255 255 255
-12.0925 -4 51.3593 0 -1 0  255 255 255 255
5.31259 -4 -17.4271 0 -1 0  255 255 255 255
2.94236 -4 101.339 0 -1 0  255 255 255 255
-36.067 -4 -4.36105 0 -1 0  255 255 255 255
36.067 -4 -4.36105 0 -1 0  255 255 255 255
-4.57722 -4 125.565 0 -1 0  255 255 255 255
15.5471 -4 29.1919 0 -1 0  255 255 255 255
-55.3504 -4 -0.846976 0 -1 0  255 255 255 255
55.3505 -4 -0.840152 0 -1 0  255 255 255 255
-52.8517 -4 0.391676 0 -1 0  255 255 255 255
-99.7166 -4 -7.82697 0 -1 0  255 255 255 255
-18.5269 -4 5.85884 0 -1 0  255 255 255 255
6.13349 -4 41.728 0 -1 0  255 255 255 255
-89.8792 -4 17.9675 0 -1 0  255 255 255 255
-5.7134 -4 -13.1732 0 -1 0  255 255 255 255
103.054 -4 17.7493 0 -1 0  255 255 255 255
52.849 -4 0.392477 0 -1 0  255 255 255 255
-45.2032 -4 -17.1232 0 -1 0  255 255 255 255
45.2096 -4 -17.1232 0 -1 0  255 255 255 255
6.61377 -4 38.5728 0 -1 0  255 255 255 255
-3.9721 -4 4.65848 0 -1 0  255 255 255 255
6.59168 -4 10.0682 0 -1 0  255 255 255 255
-17.7781 -4 24.2024 0 -1 0  255 255 255 255
-87.9358 -4 6.35927 0 -1 0  255 255 255 255
-72.5924 -4 -6.52585 0 -1 0  255 255 255 255
54.7235 -4 17.8678 0 -1 0  255 255 255 255
-54.715 -4 17.8697 0 -1 0  255 255 255 255
-9.76758 -4 117.956 0 -1 0  255 255 255 255
72.602 -4 -6.52776 0 -1 0  255 255 255 255
-18.3616 -4 60.7066 0 -1 0  255 255 255 255
12.8656 -4 54.4341 0 -1 0  255 255 255 255
-102.97 -4 -17.7425 0 -1 0  255 255 255 255
-74.5096 -4 5.79284 0 -1 0  255 255 255 255
15.5079 -4 120.605 0 -1 0  255 255 255 255
74.4675 -4 5.9341 0 -1 0  255 255 255 255
-18.7609 -4 19.9277 0 -1 0  255 255 255 255
45.7053 -4 -3.32653 0 -1 0  255 255 255 255
-7.27453 -4 99.7093 0 -1 0  255 255 255 255
-26.5044 -4 -20.2231 0 -1 0  255 255 255 255
26.5044 -4 -20.2231 0 -1 0  255 255 255 255
-15.5367 -4 120.649 0 -1 0  255 255 255 255
39.0931 -4 6.16488 0 -1 0  255 255 255 255
-39.0931 -4 6.16488 0 -1 0  255 255 255 255
-45.7047 -4 -3.32414 0 -1 0  255 255 255 255
-96.7399 -4 -14.6167 0 -1 0  255 255 255 255
-36.2209 -4 9.04195 0 -1 0  255 255 255 255
36.2209 -4 9.04193 0 -1 0  255 255 255 255
-75.5039 -4 1.7866 0 -1 0  255 255 255 255
11.5109 -4 120.101 0 -1 0  255 255 255 255
-32.5662 -4 -20.7832 0 -1 0  255 255 255 255
32.5662 -4 -20.7832 0 -1 0  255 255 255 255
-14.4449 -4 28.0811 0 -1 0  255 255 255 255
-14.9694 -4 30.4913 0 -1 0  255 255 255 255
78.353 -4 -9.12756 0 -1 0  255 255 255 255
-13.9924 -4 14.8327 0 -1 0  255 255 255 255
50.5217 -4 6.16624 0 -1 0  255 255 255 255
46.6716 -4 -20.4404 0 -1 0  255 255 255 255
-2.1785 -4 36.3244 0 -1 0  255 255 255 255
60.7005 -4 5.55444 0 -1 0  255 255 255 255
-46.6744 -4 -20.432 0 -1 0  255 255 255 255
-9.22071 -4 91.5784 0 -1 0  255 255 255 255
0.807672 -4 78.3947 0 -1 0  255 255 255 255
75.5368 -4 1.64407 0 -1 0  255 255 255 255
-50.5175 -4 6.16634 0 -1 0  255 255 255 255
26.5301 -4 -8.36413 0 -1 0  255 255 255 255
-26.5301 -4 -8.36413 0 -1 0  255 255 255 255
-78.3417 -4 -9.12562 0 -1 0  255 255 255 255
-15.5738 -4 95.6128 0 -1 0  255 255 255 255
64.1494 -4 8.08925 0 -1 0  255 255 255 255
79.1475 -4 18.218 0 -1 0  255 255 255 255
-79.1076 -4 18.2259 0 -1 0  255 255 255 255
-60.6972 -4 5.56215 0 -1 0  255 255 255 255
97.0031 -4 14.5065 0 -1 0  255 255 255 255
-64.143 -4 8.10719 0 -1 0  255 255 255 255
15.7576 -4 92.9426 0 -1 0  255 255 255 255
18.5664 -4 -8.01054 0 -1 0  255 255 255 255
-18.5664 -4 -8.01054 0 -1 0  255 255 255 255
-17.9859 -4 68.4688 0 -1 0  255 255 255 255
6.41977 -4 -4.33491 0 -1 0  255 255 255 255
-6.18469 -4 -4.52726 0 -1 0  255 255 255 255
58.9079 -4 0.48745 0 -1 0  255 255 255 255
-18.4286 -4 27.758 0 -1 0  255 255 255 255
17.9922 -4 68.4638 0 -1 0  255 255 255 255
-58.9061 -4 0.47724 0 -1 0  255 255 255 255
-5.40536 -4 102.171 0 -1 0  255 255 255 255
-76.8977 -4 -20.6412 0 -1 0  255 255 255 255
17.7311 -4 76.9345 0 -1 0  255 255 255 255
-17.6872 -4 76.9375 0 -1 0  255 255 255 255
6.64411 -4 -20.5957 0 -1 0  255 255 255 255
76.914 -4 -20.6378 0 -1 0  255 255 255 255
-15.8079 -4 92.4255 0 -1 0  255 255 255 255
23.4026 -4 1.92569 0 -1 0  255 255 255 255
-23.4026 -4 1.92569 0 -1 0  255 255 255 255
14.9261 -4 57.5382 0 -1 0  255 255 255 255
18.0223 -4 106.161 0 -1 0  255 255 255 255
85.9401 -4 -10.165 0 -1 0  255 255 255 255
-51.0008 -4 12.995 0 -1 0  255 255 255 255
51.0182 -4 13.0031 0 -1 0  255 255 255 255
-11.8358 -4 119.815 0 -1 0  255 255 255 255
75.3288 -4 18.2184 0 -1 0  255 255 255 255
-18.0479 -4 106.2 0 -1 0  255 255 255 255
18.847 -4 12.5396 0 -1 0  255 255 255 255
-75.2928 -4 18.2279 0 -1 0  255 255 255 255
-89.3426 -4 -13.7382 0 -1 0  255 255 255 255
89.349 -4 -13.7169 0 -1 0  255 255 255 255
-11.7081 -4 89.8437 0 -1 0  255 255 255 255
-3.47602 -4 7.8188 0 -1 0  255 255 255 255
29.8675 -4 5.47697 0 -1 0  255 255 255 255
-29.8675 -4 5.47708 0 -1 0  255 255 255 255
-22.3466 -4 4.1707 0 -1 0  255 255 255 255
22.3466 -4 4.1707 0 -1 0  255 255 255 255
-11.9437 -4 12.9619 0 -1 0  255 255 255 255
15.1227 -4 43.9419 0 -1 0  255 255 255 255
-85.9001 -4 -10.1024 0 -1 0  255 255 255 255
-12.1827 -4 27.7805 0 -1 0  255 255 255 255
11.7819 -4 105.486 0 -1 0  255 255 255 255
15.5779 -4 11.7103 0 -1 0  255 255 255 255
-100.803 -4 -20.6158 0 -1 0  255 255 255 255
92.9744 -4 -15.1689 0 -1 0  255 255 255 255
13.6914 -4 5.4201 0 -1 0  255 255 255 255
-36.6096 -4 -16.7546 0 -1 0  255 255 255 255
36.6097 -4 -16.7546 0 -1 0  255 255 255 255
-2.5983 -4 78.5958 0 -1 0  255 255 255 255
8.92585 -4 59.1489 0 -1 0  255 255 255 255
-96.8245 -4 14.6516 0 -1 0  255 255 255 255
100.814 -4 -20.6241 0 -1 0  255 255 255 255
62.6114 -4 -4.50967 0 -1 0  255 255 255 255
8.62522 -4 79.8592 0 -1 0  255 255 255 255
41.7969 -4 16.0559 0 -1 0  255 255 255 255
-41.7952 -4 16.0568 0 -1 0  255 255 255 255
-2.00044 -4 95.75 0 -1 0  255 255 255 255
14.6512 -4 -20.6679 0 -1 0  255 255 255 255
-14.6512 -4 -20.6679 0 -1 0  255 255 255 255
17.6621 -4 16.157 0 -1 0  255 255 255 255
18.1384 -4 123.345 0 -1 0  255 255 255 255
-18.1411 -4 123.349 0 -1 0  255 255 255 255
56.9534 -4 14.9632 0 -1 0  255 255 255 255
78.9069 -4 2.91993 0 -1 0  255 255 255 255
-10.5324 -4 22.9827 0 -1 0  255 255 255 255
-8.92675 -4 85.9277 0 -1 0  255 255 255 255
-56.94 -4 14.9659 0 -1 0  255 255 255 255
96.4546 -4 5.95404 0 -1 0  255 255 255 255
-2.70011 -4 21.1952 0 -1 0  255 255 255 255
-1.74721 -4 61.9077 0 -1 0  255 255 255 255
-78.9483 -4 2.93723 0 -1 0  255 255 255 255
7.34676 -4 97.028 0 -1 0  255 255 255 255
30.1647 -4 20.6134 0 -1 0  255 255 255 255
-29.4286 -4 -5.85668 0 -1 0  255 255 255 255
29.4286 -4 -5.85668 0 -1 0  255 255 255 255
85.1022 -4 -13.9739 0 -1 0  255 255 255 255
23.3656 -4 -20.4767 0 -1 0  255 255 255 255
-23.3656 -4 -20.4767 0 -1 0  255 255 255 255
87.0159 -4 4.14383 0 -1 0  255 255 255 255
76.4617 -4 4.04888 0 -1 0  255 255 255 255
-92.641 -4 -2.63557 0 -1 0  255 255 255 255
9.04093 -4 73.2201 0 -1 0  255 255 255 255
58.4498 -4 11.1157 0 -1 0  255 255 255 255
-78.2001 -4 6.52661 0 -1 0  255 255 255 255
-58.4351 -4 11.1199 0 -1 0  255 255 255 255
61.0815 -4 14.3334 0 -1 0  255 255 255 255
-62.5997 -4 -4.51478 0 -1 0  255 255 255 255
64.3741 -4 -16.2396 0 -1 0  255 255 255 255
78.2067 -4 6.52953 0 -1 0  255 255 255 255
-61.0662 -4 14.3357 0 -1 0  255 255 255 255
50.3546 -4 -3.73885 0 -1 0  255 255 255 255
-85.0875 -4 -13.9489 0 -1 0  255 255 255 255
-64.3673 -4 -16.2438 0 -1 0  255 255 255 255
-50.3521 -4 -3.7401 0 -1 0  255 255 255 255
6.98076 -4 -11.0879 0 -1 0  255 255 255 255
-4.16123 -4 -20.5103 0 -1 0  255 255 255 255
11.3668 -4 57.0964 0 -1 0  255 255 255 255
68.2585 -4 -16.8522 0 -1 0  255 255 255 255
21.6308 -4 20.5325 0 -1 0  255 255 255 255
-77.1507 -4 3.55727 0 -1 0  255 255 255 255
4.07816 -4 123.08 0 -1 0  255 255 255 255
-2.81867 -4 1.80929 0 -1 0  255 255 255 255
-68.248 -4 -16.8505 0 -1 0  255 255 255 255
3.36361 -4 98.2338 0 -1 0  255 255 255 255
43.087 -4 13.5279 0 -1 0  255 255 255 255
-43.0865 -4 13.5285 0 -1 0  255 255 255 255
-98.5287 -4 -13.8654 0 -1 0  255 255 255 255
90.3602 -4 -20.528 0 -1 0  255 255 255 255
60.7388 -4 2.41079 0 -1 0  255 255 255 255
-48.3606 -4 20.3315 0 -1 0  255 255 255 255
78.7233 -4 -15.3125 0 -1 0  255 255 255 255
48.3666 -4 20.3301 0 -1 0  255 255 255 255
-78.8081 -4 -15.3644 0 -1 0  255 255 255 255
94.886 -4 1.24482 0 -1 0  255 255 255 255
-60.733 -4 2.40423 0 -1 0  255 255 255 255
-15.335 -4 87.0727 0 -1 0  255 255 255 255
-9.59594 -4 78.6927 0 -1 0  255 255 255 255
-9.85011 -4 80.8762 0 -1 0  255 255 255 255
-43.3547 -4 -13.361 0 -1 0  255 255 255 255
18.2827 -4 108.999 0 -1 0  255 255 255 255
43.3554 -4 -13.3579 0 -1 0  255 255 255 255
-90.3471 -4 -20.5344 0 -1 0  255 255 255 255
86.0097 -4 18.0684 0 -1 0  255 255 255 255
-4.25507 -4 31.8472 0 -1 0  255 255 255 255
-18.2724 -4 108.985 0 -1 0  255 255 255 255
-3.98912 -4 38.6238 0 -1 0  255 255 255 255
-3.55742 -4 98.8668 0 -1 0  255 255 255 255
81.7001 -4 0.469061 0 -1 0  255 255 255 255
12.1269 -4 12.1555 0 -1 0  255 255 255 255
95.2225 -4 -12.4715 0 -1 0  255 255 255 255
-15.995 -4 -7.10823 0 -1 0  255 255 255 255
15.995 -4 -7.10823 0 -1 0  255 255 255 255
9.81308 -4 118.091 0 -1 0  255 255 255 255
-86.0015 -4 18.082 0 -1 0  255 255 255 255
11.1243 -4 60.7534 0 -1 0  255 255 255 255
10.1135 -4 92.3667 0 -1 0  255 255 255 255
2.80572 -4 86.7204 0 -1 0  255 255 255 255
14.7466 -4 14.3334 0 -1 0  255 255 255 255
-91.9267 -4 14.6232 0 -1 0  255 255 255 255
-2.19551 -4 70.0423 0 -1 0  255 255 255 255
82.0459 -4 -8.32997 0 -1 0  255 255 255 255
12.485 -4 93.6236 0 -1 0  255 255 255 255
4.14972 -4 31.112 0 -1 0  255 255 255 255
24.2263 -4 17.5935 0 -1 0  255 255 255 255
-92.9594 -4 -15.1577 0 -1 0  255 255 255 255
1.08516 -4 17.042 0 -1 0  255 255 255 255
-82.0568 -4 -8.35618 0 -1 0  255 255 255 255
-79.1254 -4 0.623371 0 -1 0  255 255 255 255
-95.1431 -4 -1.81784 0 -1 0  255 255 255 255
35.6671 -4 -20.9537 0 -1 0  255 255 255 255
34.263 -4 10.474 0 -1 0  255 255 255 255
-35.6666 -4 -20.9536 0 -1 0  255 255 255 255
79.0968 -4 0.571495 0 -1 0  255 255 255 255
-25.0072 -4 -12.6166 0 -1 0  255 255 255 255
25.0072 -4 -12.6166 0 -1 0  255 255 255 255
63.0801 -4 -20.8013 0 -1 0  255 255 255 255
81.2838 -4 -10.2806 0 -1 0  255 255 255 255
-34.2644 -4 10.4729 0 -1 0  255 255 255 255
88.2699 -4 20.6956 0 -1 0  255 255 255 255
-95.1969 -4 -12.3613 0 -1 0  255 255 255 255
-75.0649 -4 -16.8004 0 -1 0  255 255 255 255
44.6085 -4 -10.3132 0 -1 0  255 255 255 255
75.1208 -4 -16.8344 0 -1 0  255 255 255 255
-44.6068 -4 -10.3134 0 -1 0  255 255 255 255
-63.0717 -4 -20.8014 0 -1 0  255 255 255 255
-81.6932 -4 0.473489 0 -1 0  255 255 255 255
-77.5261 -4 -17.7253 0 -1 0  255 255 255 255
77.5505 -4 -17.7233 0 -1 0  255 255 255 255
-2.60665 -4 16.6335 0 -1 0  255 255 255 255
-12.7204 -4 -6.53709 0 -1 0  255 255 255 255
12.6804 -4 -6.57568 0 -1 0  255 255 255 255
18.3269 -4 60.4069 0 -1 0  255 255 255 255
-81.2951 -4 -10.3045 0 -1 0  255 255 255 255
71.2017 -4 3.01082 0 -1 0  255 255 255 255
-86.9325 -4 4.1267 0 -1 0  255 255 255 255
-3.73863 -4 10.7048 0 -1 0  255 255 255 255
63.9058 -4 0.223803 0 -1 0  255 255 255 255
6.65849 -4 100.117 0 -1 0  255 255 255 255
-21.5555 -4 11.7949 0 -1 0  255 255 255 255
-63.897 -4 0.228479 0 -1 0  255 255 255 255
-72.3542 -4 5.02009 0 -1 0  255 255 255 255
94.6223 -4 -18.7725 0 -1 0  255 255 255 255
3.55236 -4 7.55789 0 -1 0  255 255 255 255
-88.2337 -4 20.6975 0 -1 0  255 255 255 255
4.45579 -4 50.1781 0 -1 0  255 255 255 255
-17.8749 -4 117.897 0 -1 0  255 255 255 255
-11.8205 -4 88.1871 0 -1 0  255 255 255 255
17.8761 -4 117.899 0 -1 0  255 255 255 255
-11.0452 -4 84.2596 0 -1 0  255 255 255 255
-76.1131 -4 9.53991 0 -1 0  255 255 255 255
-12.359 -4 106.505 0 -1 0  255 255 255 255
-97.0931 -4 17.2829 0 -1 0  255 255 255 255
76.1286 -4 9.5348 0 -1 0  255 255 255 255
-94.6459 -4 -18.7618 0 -1 0  255 255 255 255
-47.9864 -4 7.55534 0 -1 0  255 255 255 255
38.356 -4 20.7391 0 -1 0  255 255 255 255
47.7675 -4 7.32689 0 -1 0  255 255 255 255
92.9443 -4 -1.43716 0 -1 0  255 255 255 255
-38.3536 -4 20.7396 0 -1 0  255 255 255 255
-27.8287 -4 10.3566 0 -1 0  255 255 255 255
34.4496 -4 -1.32135 0 -1 0  255 255 255 255
-34.4496 -4 -1.32135 0 -1 0  255 255 255 255
-9.49165 -4 52.5422 0 -1 0  255 255 255 255
-19.3084 -4 -15.6599 0 -1 0  255 255 255 255
19.3084 -4 -15.6599 0 -1 0  255 255 255 255
-8.4904 -4 105.529 0 -1 0  255 255 255 255
-8.71081 -4 35.3931 0 -1 0  255 255 255 255
60.0407 -4 -17.9975 0 -1 0  255 255 255 255
89.2773 -4 2.78053 0 -1 0  255 255 255 255
-60.0325 -4 -17.9988 0 -1 0  255 255 255 255
-9.77588 -4 33.3267 0 -1 0  255 255 255 255
-5.25999 -4 29.579 0 -1 0  255 255 255 255
66.545 -4 -9.27107 0 -1 0  255 255 255 255
4.77336 -4 95.8065 0 -1 0  255 255 255 255
-6.23983 -4 2.44652 0 -1 0  255 255 255 255
-1.88795 -4 81.7213 0 -1 0  255 255 255 255
75.831 -4 16.1034 0 -1 0  255 255 255 255
-66.5428 -4 -9.23014 0 -1 0  255 255 255 255
-75.7953 -4 16.112 0 -1 0  255 255 255 255
68.6623 -4 4.22721 0 -1 0  255 255 255 255
-86.9497 -4 -4.11938 0 -1 0  255 255 255 255
15.1555 -4 79.0102 0 -1 0  255 255 255 255
-20.9998 -4 20.7482 0 -1 0  255 255 255 255
100.337 -4 15.5756 0 -1 0  255 255 255 255
-68.646 -4 4.23896 0 -1 0  255 255 255 255
-96.0914 -4 -2.78097 0 -1 0  255 255 255 255
15.7531 -4 105.906 0 -1 0  255 255 255 255
-15.1694 -4 11.9339 0 -1 0  255 255 255 255
-15.7919 -4 105.799 0 -1 0  255 255 255 255
15.1721 -4 37.9998 0 -1 0  255 255 255 255
96.935 -4 -20.3296 0 -1 0  255 255 255 255
2.47578 -4 -15.3997 0 -1 0  255 255 255 255
-11.7704 -4 101.474 0 -1 0  255 255 255 255
60.0153 -4 -20.7259 0 -1 0  255 255 255 255
-50.2395 -4 -10.7482 0 -1 0  255 255 255 255
-79.614 -4 -13.0525 0 -1 0  255 255 255 255
-96.9306 -4 -20.3265 0 -1 0  255 255 255 255
48.0841 -4 17.749 0 -1 0  255 255 255 255
-0.948279 -4 -20.5969 0 -1 0  255 255 255 255
12.5641 -4 -18.126 0 -1 0  255 255 255 255
-12.5772 -4 -18.1117 0 -1 0  255 255 255 255
-48.0776 -4 17.7507 0 -1 0  255 255 255 255
-60.0091 -4 -20.7259 0 -1 0  255 255 255 255
79.6319 -4 -13.0439 0 -1 0  255 255 255 255
67.5934 -4 9.62597 0 -1 0  255 255 255 255
-17.2703 -4 0.496944 0 -1 0  255 255 255 255
17.0945 -4 0.524126 0 -1 0  255 255 255 255
8.94048 -4 105.613 0 -1 0  255 255 255 255
50.1771 -4 -10.7298 0 -1 0  255 255 255 255
-5.75608 -4 50.8906 0 -1 0  255 255 255 255
-89.9552 -4 -4.5116 0 -1 0  255 255 255 255
0.313175 -4 99.2497 0 -1 0  255 255 255 255
1.44344 -4 123.208 0 -1 0  255 255 255 255
35.195 -4 3.88993 0 -1 0  255 255 255 255
-35.195 -4 3.88993 0 -1 0  255 255 255 255
6.81338 -4 25.082 0 -1 0  255 255 255 255
-66.9355 -4 12.9688 0 -1 0  255 255 255 255
-67.6302 -4 9.61658 0 -1 0  255 255 255 255
13.2479 -4 10.8566 0 -1 0  255 255 255 255
39.1084 -4 -8.91248 0 -1 0  255 255 255 255
-39.1072 -4 -8.91263 0 -1 0  255 255 255 255
-12.2368 -4 35.6361 0 -1 0  255 255 255 255
17.9973 -4 114.58 0 -1 0  255 255 255 255
66.9523 -4 12.9654 0 -1 0  255 255 255 255
-103.472 -4 5.61972 0 -1 0  255 255 255 255
9.30198 -4 100.208 0 -1 0  255 255 255 255
103.474 -4 -5.61855 0 -1 0  255 255 255 255
-77.1542 -4 -11.7713 0 -1 0  255 255 255 255
6.81414 -4 3.23057 0 -1 0  255 255 255 255
77.1916 -4 -11.7383 0 -1 0  255 255 255 255
-1.3376 -4 54.5012 0 -1 0  255 255 255 255
-7.83247 -4 55.2481 0 -1 0  255 255 255 255
81.3181 -4 7.84697 0 -1 0  255 255 255 255
1.44798 -4 125.857 0 -1 0  255 255 255 255
-20.3235 -4 -6.69893 0 -1 0  255 255 255 255
20.3235 -4 -6.69893 0 -1 0  255 255 255 255
-22.8678 -4 15.2179 0 -1 0  255 255 255 255
-17.9987 -4 114.586 0 -1 0  255 255 255 255
-1.70594 -4 126.109 0 -1 0  255 255 255 255
57.1858 -4 18.4166 0 -1 0  255 255 255 255
11.837 -4 62.8306 0 -1 0  255 255 255 255
-57.1774 -4 18.4191 0 -1 0  255 255 255 255
9.30106 -4 43.9712 0 -1 0  255 255 255 255
-0.98443 -4 27.979 0 -1 0  255 255 255 255
44.6827 -4 8.4541 0 -1 0  255 255 255 255
75.8865 -4 -14.0535 0 -1 0  255 255 255 255
-81.3203 -4 7.8572 0 -1 0  255 255 255 255
-75.8667 -4 -14.0533 0 -1 0  255 255 255 255
-49.2662 -4 -7.15821 0 -1 0  255 255 255 255
-8.12675 -4 -4.23339 0 -1 0  255 255 255 255
8.02496 -4 -4.33909 0 -1 0  255 255 255 255
9.71271 -4 10.3908 0 -1 0  255 255 255 255
-62.0954 -4 -13.1296 0 -1 0  255 255 255 255
-44.6779 -4 8.4517 0 -1 0  255 255 255 255
30.6614 -4 17.4528 0 -1 0  255 255 255 255
-18.4837 -4 29.9559 0 -1 0  255 255 255 255
88.3121 -4 14.3464 0 -1 0  255 255 255 255
49.4981 -4 7.55265 0 -1 0  255 255 255 255
-93.0717 -4 1.11663 0 -1 0  255 255 255 255
96.4661 -4 2.80575 0 -1 0  255 255 255 255
86.8191 -4 -4.39359 0 -1 0  255 255 255 255
4.89452 -4 48.6338 0 -1 0  255 255 255 255
-100.411 -4 9.79112 0 -1 0  255 255 255 255
18.6098 -4 9.95146 0 -1 0  255 255 255 255
49.2833 -4 -7.16572 0 -1 0  255 255 255 255
62.0982 -4 -13.1312 0 -1 0  255 255 255 255
43.9205 -4 10.4459 0 -1 0  255 255 255 255
-77.0619 -4 20.6655 0 -1 0  255 255 255 255
-7.72967 -4 97.0186 0 -1 0  255 255 255 255
39.4295 -4 17.8521 0 -1 0  255 255 255 255
-39.4275 -4 17.8522 0 -1 0  255 255 255 255
77.0806 -4 20.6584 0 -1 0  255 255 255 255
9.79376 -4 86.677 0 -1 0  255 255 255 255
18.4608 -4 36.0862 0 -1 0  255 255 255 255
22.1327 -4 -9.69946 0 -1 0  255 255 255 255
-22.1327 -4 -9.69946 0 -1 0  255 255 255 255
-100.618 -4 -10.7493 0 -1 0  255 255 255 255
-22.6505 -4 -4.13071 0 -1 0  255 255 255 255
22.6505 -4 -4.13071 0 -1 0  255 255 255 255
-18.0858 -4 45.184 0 -1 0  255 255 255 255
-49.7958 -4 7.37486 0 -1 0  255 255 255 255
-8.078 -4 12.1002 0 -1 0  255 255 255 255
23.3846 -4 20.6033 0 -1 0  255 255 255 255
-43.9167 -4 10.4446 0 -1 0  255 255 255 255
100.398 -4 -9.77158 0 -1 0  255 255 255 255
-7.73729 -4 31.9969 0 -1 0  255 255 255 255
-35.1126 -4 -17.8763 0 -1 0  255 255 255 255
35.1126 -4 -17.8763 0 -1 0  255 255 255 255
-98.031 -4 3.81879 0 -1 0  255 255 255 255
-6.05976 -4 37.5792 0 -1 0  255 255 255 255
98.024 -4 -3.79911 0 -1 0  255 255 255 255
-88.2285 -4 14.3463 0 -1 0  255 255 255 255
36.6833 -4 5.81568 0 -1 0  255 255 255 255
-36.6833 -4 5.81568 0 -1 0  255 255 255 255
8.94087 -4 68.669 0 -1 0  255 255 255 255
76.7784 -4 12.6708 0 -1 0  255 255 255 255
-53.6369 -4 -3.25433 0 -1 0  255 255 255 255
-8.96049 -4 68.6443 0 -1 0  255 255 255 255
-103.095 -4 11.4096 0 -1 0  255 255 255 255
53.6382 -4 -3.24928 0 -1 0  255 255 255 255
-5.95192 -4 94.0961 0 -1 0  255 255 255 255
-0.641648 -4 12.0512 0 -1 0  255 255 255 255
7.73053 -4 120.119 0 -1 0  255 255 255 255
-15.1574 -4 117.483 0 -1 0  255 255 255 255
-66.0453 -4 6.6883 0 -1 0  255 255 255 255
70.3073 -4 15.2051 0 -1 0  255 255 255 255
15.0099 -4 41.5593 0 -1 0  255 255 255 255
97.132 -4 -17.3954 0 -1 0  255 255 255 255
8.11205 -4 32.7701 0 -1 0  255 255 255 255
19.6427 -4 17.9248 0 -1 0  255 255 255 255
-76.7691 -4 12.679 0 -1 0  255 255 255 255
103.095 -4 -11.4083 0 -1 0  255 255 255 255
25.7918 -4 -6.90879 0 -1 0  255 255 255 255
-25.7918 -4 -6.90879 0 -1 0  255 255 255 255
15.2561 -4 117.335 0 -1 0  255 255 255 255
18.3988 -4 33.0672 0 -1 0  255 255 255 255
-68.4901 -4 -20.7744 0 -1 0  255 255 255 255
-10.2758 -4 108.006 0 -1 0  255 255 255 255
68.4957 -4 -20.7724 0 -1 0  255 255 255 255
-23.4571 -4 -6.54649 0 -1 0  255 255 255 255
23.4571 -4 -6.54649 0 -1 0  255 255 255 255
66.0605 -4 6.67458 0 -1 0  255 255 255 255
11.4483 -4 37.1058 0 -1 0  255 255 255 255
-97.3858 -4 -17.2549 0 -1 0  255 255 255 255
13.3248 -4 25.9257 0 -1 0  255 255 255 255
-70.2817 -4 15.2111 0 -1 0  255 255 255 255
-27.0332 -4 -12.5954 0 -1 0  255 255 255 255
27.0332 -4 -12.5954 0 -1 0  255 255 255 255
-40.8121 -4 2.93165 0 -1 0  255 255 255 255
40.8121 -4 2.93165 0 -1 0  255 255 255 255
-15.5215 -4 44.0766 0 -1 0  255 255 255 255
-15.5718 -4 25.8296 0 -1 0  255 255 255 255
-40.6659 -4 -11.8586 0 -1 0  255 255 255 255
12.7908 -4 38.6284 0 -1 0  255 255 255 255
86.4035 -4 8.94508 0 -1 0  255 255 255 255
4.6278 -4 27.7558 0 -1 0  255 255 255 255
9.1669 -4 5.08178 0 -1 0  255 255 255 255
40.6651 -4 -11.8599 0 -1 0  255 255 255 255
-29.5122 -4 18.2339 0 -1 0  255 255 255 255
-86.4453 -4 8.95453 0 -1 0  255 255 255 255
84.0711 -4 10.2429 0 -1 0  255 255 255 255
9.28263 -4 38.9041 0 -1 0  255 255 255 255
-74.6591 -4 7.44647 0 -1 0  255 255 255 255
-84.064 -4 10.249 0 -1 0  255 255 255 255
-4.91628 -4 26.0665 0 -1 0  255 255 255 255
-18.6028 -4 9.93645 0 -1 0  255 255 255 255
-78.9008 -4 -7.37529 0 -1 0  255 255 255 255
27.6277 -4 17.7297 0 -1 0  255 255 255 255
-28.3983 -4 3.3247 0 -1 0  255 255 255 255
28.3983 -4 3.3247 0 -1 0  255 255 255 255
-13.2499 -4 110.297 0 -1 0  255 255 255 255
78.9095 -4 -7.37672 0 -1 0  255 255 255 255
57.4979 -4 -17.8009 0 -1 0  255 255 255 255
-57.4912 -4 -17.8033 0 -1 0  255 255 255 255
74.669 -4 7.47637 0 -1 0  255 255 255 255
89.1275 -4 -16.3623 0 -1 0  255 255 255 255
-15.8593 -4 33.6526 0 -1 0  255 255 255 255
-13.2114 -4 16.1956 0 -1 0  255 255 255 255
-4.16319 -4 0.801475 0 -1 0  255 255 255 255
-23.5868 -4 13.543 0 -1 0  255 255 255 255
61.2648 -4 -14.5014 0 -1 0  255 255 255 255
18.3199 -4 112.2 0 -1 0  255 255 255 255
-6.43675 -4 125.837 0 -1 0  255 255 255 255
-18.3021 -4 112.058 0 -1 0  255 255 255 255
23.027 -4 -15.4879 0 -1 0  255 255 255 255
-23.027 -4 -15.4879 0 -1 0  255 255 255 255
85.763 -4 -17.4292 0 -1 0  255 255 255 255
-61.2584 -4 -14.5035 0 -1 0  255 255 255 255
-16.565 -4 17.7311 0 -1 0  255 255 255 255
46.2728 -4 -12.131 0 -1 0  255 255 255 255
-77.6559 -4 -2.58927 0 -1 0  255 255 255 255
1.83587 -4 95.0893 0 -1 0  255 255 255 255
98.4066 -4 1.00406 0 -1 0  255 255 255 255
12.9439 -4 116.282 0 -1 0  255 255 255 255
-0.825504 -4 89.847 0 -1 0  255 255 255 255
-89.1272 -4 -16.3523 0 -1 0  255 255 255 255
-9.44411 -4 58.6215 0 -1 0  255 255 255 255
43.8313 -4 -20.7975 0 -1 0  255 255 255 255
-6.0404 -4 62.4955 0 -1 0  255 255 255 255
-43.8293 -4 -20.7981 0 -1 0  255 255 255 255
93.7213 -4 12.936 0 -1 0  255 255 255 255
19.9802 -4 -2.01458 0 -1 0  255 255 255 255
-19.9802 -4 -2.01458 0 -1 0  255 255 255 255
1.78557 -4 13.8185 0 -1 0  255 255 255 255
10.8956 -4 113.525 0 -1 0  255 255 255 255
-46.2511 -4 -12.1388 0 -1 0  255 255 255 255
77.6533 -4 -2.59863 0 -1 0  255 255 255 255
-60.417 -4 0.854966 0 -1 0  255 255 255 255
-79.8095 -4 -20.7978 0 -1 0  255 255 255 255
-22.2512 -4 18.1041 0 -1 0  255 255 255 255
0.683456 -4 15.2187 0 -1 0  255 255 255 255
4.26074 -4 4.76231 0 -1 0  255 255 255 255
0.992896 -4 12.1964 0 -1 0  255 255 255 255
-14.6559 -4 55.4545 0 -1 0  255 255 255 255
60.4134 -4 0.833498 0 -1 0  255 255 255 255
63.9468 -4 20.7758 0 -1 0  255 255 255 255
29.432 -4 12.0971 0 -1 0  255 255 255 255
-13.2472 -4 100.669 0 -1 0  255 255 255 255
11.8873 -4 42.9186 0 -1 0  255 255 255 255
-18.0716 -4 66.4989 0 -1 0  255 255 255 255
-63.9338 -4 20.7754 0 -1 0  255 255 255 255
29.7639 -4 14.4042 0 -1 0  255 255 255 255
-51.7132 -4 -2.61039 0 -1 0  255 255 255 255
71.5764 -4 -20.8607 0 -1 0  255 255 255 255
-1.27022 -4 -12.6967 0 -1 0  255 255 255 255
-85.7858 -4 -17.8304 0 -1 0  255 255 255 255
18.0782 -4 66.4953 0 -1 0  255 255 255 255
79.8545 -4 -20.7917 0 -1 0  255 255 255 255
51.7123 -4 -2.60729 0 -1 0  255 255 255 255
101.07 -4 10.2663 0 -1 0  255 255 255 255
12.9847 -4 98.2085 0 -1 0  255 255 255 255
7.84326 -4 89.7436 0 -1 0  255 255 255 255
82.5106 -4 -5.17091 0 -1 0  255 255 255 255
93.4658 -4 -5.39158 0 -1 0  255 255 255 255
-71.5701 -4 -20.8644 0 -1 0  255 255 255 255
12.7358 -4 90.2572 0 -1 0  255 255 255 255
12.056 -4 4.55959 0 -1 0  255 255 255 255
57.2278 -4 -2.38081 0 -1 0  255 255 255 255
-42.0133 -4 7.24888 0 -1 0  255 255 255 255
42.0137 -4 7.24901 0 -1 0  255 255 255 255
-103.333 -4 8.65374 0 -1 0  255 255 255 255
-7.99378 -4 120.454 0 -1 0  255 255 255 255
15.7194 -4 65.6034 0 -1 0  255 255 255 255
-15.7243 -4 65.5533 0 -1 0  255 255 255 255
6.583 -4 62.3671 0 -1 0  255 255 255 255
0.969905 -4 -12.4426 0 -1 0  255 255 255 255
103.335 -4 -8.65266 0 -1 0  255 255 255 255
-13.3512 -4 117.14 0 -1 0  255 255 255 255
-18.1328 -4 119.603 0 -1 0  255 255 255 255
-17.9976 -4 78.7311 0 -1 0  255 255 255 255
-15.2935 -4 79.4371 0 -1 0  255 255 255 255
-7.54743 -4 8.91684 0 -1 0  255 255 255 255
23.5069 -4 -18.636 0 -1 0  255 255 255 255
-23.5069 -4 -18.636 0 -1 0  255 0 0 255
-14.8135 -4 1.66422 0 -1 0  255 255 255 255
18.1345 -4 119.605 0 -1 0  255 255 255 255
-91.1836 -4 -6.87188 0 -1 0  255 255 255 255
60.2252 -4 16.729 0 -1 0  255 255 255 255
-60.2115 -4 16.7302 0 -1 0  255 255 255 255
16.2625 -4 109.226 0 -1 0  255 255 255 255
-82.4943 -4 -5.21292 0 -1 0  255 255 255 255
58.4828 -4 -1.7844 0 -1 0  255 255 255 255
-12.9339 -4 21.812 0 -1 0  255 255 255 255
-26.4833 -4 13.3705 0 -1 0  255 255 255 255
9.11807 -4 13.8078 0 -1 0  255 255 255 255
-57.2237 -4 -2.38857 0 -1 0  255 255 255 255
18.1874 -4 41.7633 0 -1 0  255 255 255 255
13.2614 -4 110.004 0 -1 0  255 255 255 255
18.0074 -4 78.7434 0 -1 0  255 255 255 255
-58.4823 -4 -1.79303 0 -1 0  255 255 255 255
5.65759 -4 56.8769 0 -1 0  255 255 255 255
-15.1222 -4 74.3727 0 -1 0  255 255 255 255
6.34992 -4 126.064 0 -1 0  255 255 255 255
-16.0589 -4 58.1226 0 -1 0  255 255 255 255
11.0374 -4 48.7723 0 -1 0  255 255 255 255
38.6284 -4 0.066554 0 -1 0  255 255 255 255
-38.6284 -4 0.066554 0 -1 0  255 255 255 255
-35.6443 -4 -13.7176 0 -1 0  255 255 255 255
35.6443 -4 -13.7176 0 -1 0  255 255 255 255
-35.8566 -4 7.37334 0 -1 0  255 255 255 255
35.8569 -4 7.37313 0 -1 0  255 255 255 255
-9.8822 -4 2.44742 0 -1 0  255 255 255 255
-3.23477 -4 34.8578 0 -1 0  255 255 255 255
-16.1683 -4 109.297 0 -1 0  255 255 255 255
45.1675 -4 20.7693 0 -1 0  255 255 255 255
-45.1613 -4 20.7712 0 -1 0  255 255 255 255
15.0504 -4 74.3174 0 -1 0  255 255 255 255
-10.4645 -4 14.93 0 -1 0  255 255 255 255
13.1893 -4 100.759 0 -1 0  255 255 255 255
8.15883 -4 19.7 0 -1 0  255 255 255 255
-37.43 -4 -5.58569 0 -1 0  255 255 255 255
37.4301 -4 -5.58573 0 -1 0  255 255 255 255
-93.6036 -4 -5.69324 0 -1 0  255 255 255 255
16.2401 -4 95.862 0 -1 0  255 255 255 255
63.9384 -4 -9.13535 0 -1 0  255 255 255 255
-95.5181 -4 11.226 0 -1 0  255 255 255 255
100.193 -4 -16.2553 0 -1 0  255 255 255 255
-82.6571 -4 -2.28871 0 -1 0  255 255 255 255
98.1798 -4 11.0113 0 -1 0  255 255 255 255
-29.412 -4 12.0596 0 -1 0  255 255 255 255
-63.9175 -4 -9.12052 0 -1 0  255 255 255 255
46.9487 -4 -18.9404 0 -1 0  255 255 255 255
44.6319 -4 13.8299 0 -1 0  255 255 255 255
-47.0636 -4 -18.686 0 -1 0  255 255 255 255
-44.6275 -4 13.8306 0 -1 0  255 255 255 255
-13.5054 -4 31.1432 0 -1 0  255 255 255 255
15.6807 -4 18.4338 0 -1 0  255 255 255 255
90.5869 -4 3.82332 0 -1 0  255 255 255 255
-1.38001 -4 123.57 0 -1 0  255 255 255 255
4.27937 -4 0.508875 0 -1 0  255 255 255 255
-100.168 -4 16.1894 0 -1 0  255 255 255 255
-4.0414 -4 84.9203 0 -1 0  255 255 255 255
-5.05979 -4 -11.3791 0 -1 0  255 255 255 255
-18.4433 -4 39.6516 0 -1 0  255 255 255 255
36.4032 -4 -8.38123 0 -1 0  255 255 255 255
-36.403 -4 -8.38125 0 -1 0  255 255 255 255
-10.5061 -4 41.2487 0 -1 0  255 255 255 255
4.65755 -4 -13.8052 0 -1 0  255 255 255 255
68.1186 -4 18.1534 0 -1 0  255 255 255 255
21.1284 -4 18.2499 0 -1 0  255 255 255 255
3.99834 -4 56.5969 0 -1 0  255 255 255 255
-6.21511 -4 32.9252 0 -1 0  255 255 255 255
-12.9287 -4 125.805 0 -1 0  255 255 255 255
-68.096 -4 18.1559 0 -1 0  255 255 255 255
3.83706 -4 60.4106 0 -1 0  255 255 255 255
12.9049 -4 125.831 0 -1 0  255 255 255 255
15.3829 -4 -9.92048 0 -1 0  255 255 255 255
-15.3829 -4 -9.92048 0 -1 0  255 255 255 255
7.64916 -4 48.927 0 -1 0  255 255 255 255
14.7124 -4 1.95402 0 -1 0  255 255 255 255
-7.21435 -4 -0.869864 0 -1 0  255 255 255 255
3.28426 -4 10.5825 0 -1 0  255 255 255 255
-0.920369 -4 9.14643 0 -1 0  255 255 255 255
21.7483 -4 15.5421 0 -1 0  255 255 255 255
64.8416 -4 17.7994 0 -1 0  255 255 255 255
-18.2094 -4 98.293 0 -1 0  255 255 255 255
-4.05107 -4 55.3867 0 -1 0  255 255 255 255
39.6722 -4 -7.22111 0 -1 0  255 255 255 255
-64.8236 -4 17.8008 0 -1 0  255 255 255 255
71.658 -4 12.8656 0 -1 0  255 255 255 255
-1.14197 -4 -18.3985 0 -1 0  255 255 255 255
31.272 -4 4.79061 0 -1 0  255 255 255 255
-31.2717 -4 4.79093 0 -1 0  255 255 255 255
-39.6716 -4 -7.22076 0 -1 0  255 255 255 255
-3.7628 -4 90.0921 0 -1 0  255 255 255 255
-5.22063 -4 20.6686 0 -1 0  255 255 255 255
-20.9832 -4 -4.23457 0 -1 0  255 255 255 255
20.9832 -4 -4.23457 0 -1 0  255 255 255 255
8.98339 -4 57.4514 0 -1 0  255 255 255 255
-8.09152 -4 50.9469 0 -1 0  255 255 255 255
25.7947 -4 -1.99985 0 -1 0  255 255 255 255
-25.7947 -4 -1.99985 0 -1 0  255 255 255 255
-71.637 -4 12.88 0 -1 0  255 255 255 255
61.7679 -4 10.7215 0 -1 0  255 255 255 255
-18.3677 -4 84.7156 0 -1 0  255 255 255 255
-98.4776 -4 -1.0278 0 -1 0  255 255 255 255
18.6039 -4 84.7042 0 -1 0  255 255 255 255
6.27933 -4 82.5378 0 -1 0  255 255 255 255
49.6989 -4 9.76953 0 -1 0  255 255 255 255
59.5202 -4 20.8365 0 -1 0  255 255 255 255
-61.7535 -4 10.7269 0 -1 0  255 255 255 255
8.88236 -4 -18.2016 0 -1 0  255 255 255 255
89.7898 -4 -4.91133 0 -1 0  255 255 255 255
18.2181 -4 52.9475 0 -1 0  255 255 255 255
1.53908 -4 1.08393 0 -1 0  255 255 255 255
-14.0414 -4 60.2552 0 -1 0  255 255 255 255
-20.201 -4 14.5136 0 -1 0  255 255 255 255
18.2192 -4 98.27 0 -1 0  255 255 255 255
14.1527 -4 77.6867 0 -1 0  255 255 255 255
-59.5116 -4 20.84 0 -1 0  255 255 255 255
-49.7775 -4 9.85707 0 -1 0  255 255 255 255
-8.59453 -4 14.6356 0 -1 0  255 255 255 255
9.99358 -4 52.0701 0 -1 0  255 255 255 255
-96.1419 -4 5.91565 0 -1 0  255 255 255 255
10.7687 -4 109.25 0 -1 0  255 255 255 255
52.1669 -4 -9.04576 0 -1 0  255 255 255 255
-15.9744 -4 125.943 0 -1 0  255 255 255 255
-2.55338 -4 58.449 0 -1 0  255 255 255 255
72.8222 -4 0.637961 0 -1 0  255 255 255 255
-52.1571 -4 -9.04989 0 -1 0  255 255 255 255
-6.2297 -4 10.0922 0 -1 0  255 255 255 255
-31.105 -4 -2.47824 0 -1 0  255 255 255 255
31.105 -4 -2.47824 0 -1 0  255 255 255 255
-66.3464 -4 0.300041 0 -1 0  255 255 255 255
-1.24997 -4 -7.1298 0 -1 0  255 255 255 255
-8.73192 -4 49.2249 0 -1 0  255 255 255 255
-38.6272 -4 8.79709 0 -1 0  255 255 255 255
38.6272 -4 8.79706 0 -1 0  255 255 255 255
-37.7428 -4 11.7121 0 -1 0  255 255 255 255
12.5981 -4 22.2966 0 -1 0  255 255 255 255
-1.26844 -4 -1.01873 0 -1 0  255 255 255 255
37.7428 -4 11.712 0 -1 0  255 255 255 255
-13.0271 -4 -3.91652 0 -1 0  255 255 255 255
13.1021 -4 -3.91659 0 -1 0  255 255 255 255
82.971 -4 -20.9942 0 -1 0  255 255 255 255
-10.9655 -4 112.451 0 -1 0  255 255 255 255
-10.1095 -4 73.4351 0 -1 0  255 255 255 255
57.6398 -4 3.47153 0 -1 0  255 255 255 255
7.25437 -4 36.1204 0 -1 0  255 255 255 255
-57.6391 -4 3.46439 0 -1 0  255 255 255 255
3.49683 -4 93.0572 0 -1 0  255 255 255 255
1.25685 -4 -8.01207 0 -1 0  255 255 255 255
-6.08351 -4 88.2977 0 -1 0  255 255 255 255
103.404 -4 2.08975 0 -1 0  255 255 255 255
66.4362 -4 0.35281 0 -1 0  255 255 255 255
-103.404 -4 -2.08982 0 -1 0  255 255 255 255
11.4886 -4 -14.1162 0 -1 0  255 255 255 255
-11.5477 -4 -14.1435 0 -1 0  255 255 255 255
15.4633 -4 23.6694 0 -1 0  255 255 255 255
-82.9332 -4 -20.9309 0 -1 0  255 255 255 255
40.8677 -4 -20.8763 0 -1 0  255 255 255 255
-13.0135 -4 7.49982 0 -1 0  255 255 255 255
-9.36837 -4 11.3192 0 -1 0  255 255 255 255
-40.867 -4 -20.8769 0 -1 0  255 255 255 255
-7.9043 -4 43.1896 0 -1 0  255 255 255 255
55.8209 -4 -11.8693 0 -1 0  255 255 255 255
18.378 -4 27.9609 0 -1 0  255 255 255 255
38.4431 -4 16.7208 0 -1 0  255 255 255 255
-55.808 -4 -11.8766 0 -1 0  255 255 255 255
-38.4422 -4 16.72 0 -1 0  255 255 255 255
96.4957 -4 17.9996 0 -1 0  255 255 255 255
16.025 -4 125.927 0 -1 0  255 255 255 255
26.557 -4 13.0485 0 -1 0  255 255 255 255
-58.9475 -4 -11.7611 0 -1 0  255 255 255 255
-1.98921 -4 50.1831 0 -1 0  255 255 255 255
-69.6733 -4 -7.09324 0 -1 0  255 255 255 255
18.3007 -4 22.8592 0 -1 0  255 255 255 255
69.69 -4 -7.10109 0 -1 0  255 255 255 255
18.2165 -4 30.6607 0 -1 0  255 255 255 255
-40.865 -4 -17.8137 0 -1 0  255 255 255 255
2.77805 -4 58.0519 0 -1 0  255 255 255 255
40.8671 -4 -17.8117 0 -1 0  255 255 255 255
58.9579 -4 -11.7554 0 -1 0  255 255 255 255
3.64102 -4 29.4241 0 -1 0  255 255 255 255
84.0407 -4 16.4114 0 -1 0  255 255 255 255
11.261 -4 54.8994 0 -1 0  255 255 255 255
35.1143 -4 0.456732 0 -1 0  255 255 255 255
-35.1143 -4 0.456732 0 -1 0  255 255 255 255
-8.64625 -4 102.397 0 -1 0  255 255 255 255
1.81726 -4 70.2791 0 -1 0  255 255 255 255
0.329845 -4 46.1493 0 -1 0  255 255 255 255
-17.1993 -4 4.67273 0 -1 0  255 255 255 255
-8.34898 -4 38.0886 0 -1 0  255 255 255 255
33.6389 -4 1.92382 0 -1 0  255 255 255 255
-33.6389 -4 1.92382 0 -1 0  255 255 255 255
-46.2444 -4 -15.7617 0 -1 0  255 255 255 255
1.51627 -4 43.9029 0 -1 0  255 255 255 255
92.4797 -4 17.703 0 -1 0  255 255 255 255
69.6791 -4 20.753 0 -1 0  255 255 255 255
31.5855 -4 -17.805 0 -1 0  255 255 255 255
-31.5855 -4 -17.805 0 -1 0  255 255 255 255
-55.8593 -4 9.12351 0 -1 0  255 255 255 255
-8.88905 -4 87.5768 0 -1 0  255 255 255 255
18.2021 -4 38.6925 0 -1 0  255 255 255 255
-33.4539 -4 7.14864 0 -1 0  255 255 255 255
55.87 -4 9.11634 0 -1 0  255 255 255 255
8.97833 -4 35.4874 0 -1 0  255 255 255 255
33.4587 -4 7.1463 0 -1 0  255 255 255 255
39.5602 -4 -14.498 0 -1 0  255 255 255 255
-20.9493 -4 -21.0076 0 -1 0  255 255 255 255
20.9493 -4 -21.0076 0 -1 0  255 255 255 255
-39.5598 -4 -14.4975 0 -1 0  255 255 255 255
16.1814 -4 114.855 0 -1 0  255 255 255 255
46.2655 -4 -15.7335 0 -1 0  255 255 255 255
6.37677 -4 44.5318 0 -1 0  255 255 255 255
-69.6501 -4 20.757 0 -1 0  255 255 255 255
-47.2728 -4 10.4527 0 -1 0  255 255 255 255
-45.5655 -4 -8.89061 0 -1 0  255 255 255 255
-100.555 -4 14.2185 0 -1 0  255 255 255 255
10.4211 -4 116.472 0 -1 0  255 255 255 255
15.5244 -4 36.4433 0 -1 0  255 255 255 255
47.3005 -4 10.3817 0 -1 0  255 255 255 255
4.49759 -4 19.6677 0 -1 0  255 255 255 255
-83.9893 -4 16.425 0 -1 0  255 255 255 255
-31.3016 -4 17.3833 0 -1 0  255 255 255 255
-2.45588 -4 87.4049 0 -1 0  255 255 255 255
33.4109 -4 -14.8194 0 -1 0  255 255 255 255
-33.4109 -4 -14.8194 0 -1 0  255 255 255 255
85.2803 -4 12.116 0 -1 0  255 255 255 255
-85.2599 -4 12.1316 0 -1 0  255 255 255 255
-16.1723 -4 114.837 0 -1 0  255 255 255 255
-3.04405 -4 66.472 0 -1 0  255 255 255 255
-30.7571 -4 20.5633 0 -1 0  255 255 255 255
-0.249068 -4 52.0375 0 -1 0  255 255 255 255
-80.9833 -4 9.48765 0 -1 0  255 255 255 255
-6.35916 -4 82.8894 0 -1 0  255 255 255 255
45.568 -4 -8.8956 0 -1 0  255 255 255 255
6.56779 -4 -7.31104 0 -1 0  255 255 255 255
18.1745 -4 49.8955 0 -1 0  255 255 255 255
3.86651 -4 53.9358 0 -1 0  255 255 255 255
-20.4324 -4 -10.0585 0 -1 0  255 255 255 255
20.4324 -4 -10.0585 0 -1 0  255 255 255 255
17.1644 -4 19.8205 0 -1 0  255 255 255 255
-10.2711 -4 116.302 0 -1 0  255 255 255 255
-70.7517 -4 3.11056 0 -1 0  255 255 255 255
8.17388 -4 62.4473 0 -1 0  255 255 255 255
42.1343 -4 -2.97443 0 -1 0  255 255 255 255
-19.9528 -4 17.2817 0 -1 0  255 255 255 255
-15.53 -4 70.8161 0 -1 0  255 255 255 255
-82.6598 -4 13.2387 0 -1 0  255 255 255 255
100.607 -4 -14.1931 0 -1 0  255 255 255 255
-11.5006 -4 61.4106 0 -1 0  255 255 255 255
7.4175 -4 11.3161 0 -1 0  255 255 255 255
55.3791 -4 15.4002 0 -1 0  255 255 255 255
-7.98383 -4 3.90672 0 -1 0  255 255 255 255
13.1248 -4 114.555 0 -1 0  255 255 255 255
-55.3688 -4 15.4045 0 -1 0  255 255 255 255
80.9947 -4 9.4797 0 -1 0  255 255 255 255
3.63351 -4 70.9623 0 -1 0  255 255 255 255
-42.1351 -4 -2.96952 0 -1 0  255 255 255 255
7.14803 -4 -0.817363 0 -1 0  255 255 255 255
6.38055 -4 53.5314 0 -1 0  255 255 255 255
9.29618 -4 1.09672 0 -1 0  255 255 255 255
82.6788 -4 13.2233 0 -1 0  255 255 255 255
-73.882 -4 2.43992 0 -1 0  255 255 255 255
15.534 -4 70.8091 0 -1 0  255 255 255 255
-51.947 -4 -21.1084 0 -1 0  255 255 255 255
52.72 -4 -5.69332 0 -1 0  255 255 255 255
22.347 -4 -1.12175 0 -1 0  255 255 255 255
-22.347 -4 -1.12175 0 -1 0  255 255 255 255
-52.7131 -4 -5.69695 0 -1 0  255 255 255 255
51.9504 -4 -21.1089 0 -1 0  255 255 255 255
-8.89641 -4 17.598 0 -1 0  255 255 255 255
-13.8968 -4 45.2628 0 -1 0  255 255 255 255
12.7875 -4 16.9933 0 -1 0  255 255 255 255
-13.139 -4 114.486 0 -1 0  255 255 255 255
-31.8691 -4 -0.151401 0 -1 0  255 255 255 255
