ply
format ascii 1.0
comment VCGLIB generated
element vertex 1127
property float x
property float y
property float z
property float nx
property float ny
property float nz
property uchar red
property uchar green
property uchar blue
property uchar alpha
element face 0
property list uchar int vertex_indices
end_header
-7.81318 99 155.889 0 1 0  255 255 255 255
111.641 99 124.815 0 1 0  255 255 255 255
-119.36 99 85.5095 0 1 0  255 255 255 255
17.3067 99 130.274 0 1 0  255 255 255 255
191.385 99 163.613 0 1 0  255 255 255 255
-191.385 99 163.613 0 1 0  255 255 255 255
191.385 99 31.3869 0 1 0  255 255 255 255
-191.385 99 31.3869 0 1 0  255 255 255 255
7.52067 99 82.7127 0 1 0  255 255 255 255
-59.9974 99 6.9029 0 1 0  255 255 255 255
-59.9974 99 188.097 0 1 0  255 255 255 255
191.426 99 188.398 0 1 0  255 255 255 255
191.426 99 6.6019 0 1 0  255 255 255 255
-191.426 99 188.398 0 1 0  255 255 255 255
-191.426 99 6.6019 0 1 0  255 255 255 255
-99.835 99 177.116 0 1 0  255 255 255 255
-120.198 99 148.411 0 1 0  255 255 255 255
0.664512 99 29.2919 0 1 0  255 255 255 255
46.5953 99 78.3707 0 1 0  255 255 255 255
-47.1072 99 35.1314 0 1 0  255 255 255 255
-47.5819 99 158.996 0 1 0  255 255 255 255
101.233 99 16.7956 0 1 0  255 255 255 255
125.54 99 95.7498 0 1 0  255 255 255 255
-63.5818 99 51.4557 0 1 0  255 255 255 255
70.408 99 26.7349 0 1 0  255 255 255 255
191.241 99 80.946 0 1 0  255 255 255 255
-191.241 99 80.946 0 1 0  255 255 255 255
29.1551 99 64.0687 0 1 0  255 255 255 255
-122.738 99 138.723 0 1 0  255 255 255 255
-191.486 99 50.5527 0 1 0  255 255 255 255
191.486 99 50.5527 0 1 0  255 255 255 255
-191.507 99 93.4649 0 1 0  255 255 255 255
191.506 99 93.4648 0 1 0  255 255 255 255
14.2185 99 154.91 0 1 0  255 255 255 255
55.5719 99 101.252 0 1 0  255 255 255 255
53.335 99 88.7306 0 1 0  255 255 255 255
8.03108 99 93.6207 0 1 0  255 255 255 255
-57.0459 99 62.8144 0 1 0  255 255 255 255
107.234 99 130.277 0 1 0  255 255 255 255
85.8834 99 106.809 0 1 0  255 255 255 255
15.5892 99 177.802 0 1 0  255 255 255 255
-78.0717 99 45.5015 0 1 0  255 255 255 255
-137.005 99 74.703 0 1 0  255 255 255 255
137.019 99 74.6999 0 1 0  255 255 255 255
-63.4326 99 89.2287 0 1 0  255 255 255 255
-131.421 99 159.279 0 1 0  255 255 255 255
34.4487 99 164.933 0 1 0  255 255 255 255
35.2075 99 29.8519 0 1 0  255 255 255 255
11.8846 99 188.984 0 1 0  255 255 255 255
12.0732 99 6.32298 0 1 0  255 255 255 255
124.084 99 86.8163 0 1 0  255 255 255 255
136.658 99 132.13 0 1 0  255 255 255 255
-113.228 99 89.5036 0 1 0  255 255 255 255
181.41 99 71.7933 0 1 0  255 255 255 255
-181.41 99 71.7933 0 1 0  255 255 255 255
96.4935 99 75.7665 0 1 0  255 255 255 255
48.737 99 67.1212 0 1 0  255 255 255 255
100.36 99 32.4972 0 1 0  255 255 255 255
-113.074 99 176.684 0 1 0  255 255 255 255
-42.7601 99 78.3332 0 1 0  255 255 255 255
-78.5003 99 68.2688 0 1 0  255 255 255 255
133.42 99 35.432 0 1 0  255 255 255 255
171.969 99 17.8812 0 1 0  255 255 255 255
171.969 99 177.119 0 1 0  255 255 255 255
42.7972 99 148.859 0 1 0  255 255 255 255
-42.565 99 148.695 0 1 0  255 255 255 255
-42.67 99 46.2828 0 1 0  255 255 255 255
-153.365 99 104.063 0 1 0  255 255 255 255
-183.437 99 143.786 0 1 0  255 255 255 255
183.437 99 143.786 0 1 0  255 255 255 255
153.363 99 104.062 0 1 0  255 255 255 255
-133.014 99 101.51 0 1 0  255 255 255 255
-110.74 99 15.0412 0 1 0  255 255 255 255
13.5929 99 71.2655 0 1 0  255 255 255 255
31.1686 99 41.0822 0 1 0  255 255 255 255
111.866 99 14.8283 0 1 0  255 255 255 255
110.924 99 180.242 0 1 0  255 255 255 255
-123.846 99 124.976 0 1 0  255 255 255 255
-75.9837 99 90.3488 0 1 0  255 255 255 255
-121.518 99 179.178 0 1 0  255 255 255 255
153.781 99 149.045 0 1 0  255 255 255 255
153.842 99 45.8055 0 1 0  255 255 255 255
-53.0604 99 24.6957 0 1 0  255 255 255 255
-53.0604 99 170.304 0 1 0  255 255 255 255
42.7201 99 45.9329 0 1 0  255 255 255 255
-32.2344 99 154.857 0 1 0  255 255 255 255
-32.2344 99 40.1431 0 1 0  255 255 255 255
-135.813 99 123.571 0 1 0  255 255 255 255
-153.739 99 148.968 0 1 0  255 255 255 255
-153.676 99 45.9508 0 1 0  255 255 255 255
66.6086 99 178.955 0 1 0  255 255 255 255
66.6086 99 16.045 0 1 0  255 255 255 255
37.452 99 144.453 0 1 0  255 255 255 255
53.4585 99 38.135 0 1 0  255 255 255 255
33.0184 99 6.28006 0 1 0  255 255 255 255
33.0184 99 188.72 0 1 0  255 255 255 255
-172.155 99 17.5595 0 1 0  255 255 255 255
-172.155 99 177.441 0 1 0  255 255 255 255
-109.153 99 42.5028 0 1 0  255 255 255 255
105.29 99 92.4201 0 1 0  255 255 255 255
-86.9545 99 88.1305 0 1 0  255 255 255 255
-119.045 99 99.3473 0 1 0  255 255 255 255
10.773 99 165.228 0 1 0  255 255 255 255
-100.878 99 53.2738 0 1 0  255 255 255 255
111.15 99 42.2097 0 1 0  255 255 255 255
-183.188 99 50.9955 0 1 0  255 255 255 255
183.188 99 50.9955 0 1 0  255 255 255 255
99.956 99 119.038 0 1 0  255 255 255 255
133.263 99 159.769 0 1 0  255 255 255 255
-16.3704 99 188.563 0 1 0  255 255 255 255
-16.3704 99 6.4366 0 1 0  255 255 255 255
-30.0369 99 78.9517 0 1 0  255 255 255 255
-113.532 99 119.932 0 1 0  255 255 255 255
37.9564 99 123.716 0 1 0  255 255 255 255
-58.4143 99 116.779 0 1 0  255 255 255 255
-171.959 99 88.8433 0 1 0  255 255 255 255
-17.9895 99 129.74 0 1 0  255 255 255 255
-122.958 99 105.6 0 1 0  255 255 255 255
171.96 99 88.8432 0 1 0  255 255 255 255
-65.1224 99 154.528 0 1 0  255 255 255 255
30.4665 99 135.07 0 1 0  255 255 255 255
-170.045 99 63.9561 0 1 0  255 255 255 255
170.044 99 63.9559 0 1 0  255 255 255 255
53.1554 99 157.054 0 1 0  255 255 255 255
29.9573 99 154.094 0 1 0  255 255 255 255
92.302 99 52.1356 0 1 0  255 255 255 255
92.9483 99 59.6342 0 1 0  255 255 255 255
82.1292 99 155.172 0 1 0  255 255 255 255
52.7219 99 80.7232 0 1 0  255 255 255 255
-121.429 99 45.3025 0 1 0  255 255 255 255
-103.367 99 127.211 0 1 0  255 255 255 255
-118.278 99 189.25 0 1 0  255 255 255 255
-118.317 99 6.08033 0 1 0  255 255 255 255
-1.74576 99 101.732 0 1 0  255 255 255 255
-44.1234 99 109.549 0 1 0  255 255 255 255
26.6428 99 74.4854 0 1 0  255 255 255 255
180.933 99 90.9471 0 1 0  255 255 255 255
-180.935 99 90.9469 0 1 0  255 255 255 255
-92.323 99 28.6465 0 1 0  255 255 255 255
-115.762 99 161.026 0 1 0  255 255 255 255
35.2825 99 114.2 0 1 0  255 255 255 255
-168.797 99 76.6753 0 1 0  255 255 255 255
-7.13679 99 133.296 0 1 0  255 255 255 255
168.801 99 76.6774 0 1 0  255 255 255 255
134.882 99 151.716 0 1 0  255 255 255 255
-43.1897 99 59.1445 0 1 0  255 255 255 255
78.7359 99 127.045 0 1 0  255 255 255 255
2.11222 99 67.3352 0 1 0  255 255 255 255
26.6601 99 107.616 0 1 0  255 255 255 255
-111.646 99 109.021 0 1 0  255 255 255 255
115.335 99 55.5917 0 1 0  255 255 255 255
35.4934 99 101.485 0 1 0  255 255 255 255
-24.6763 99 6.06717 0 1 0  255 255 255 255
-24.6763 99 188.933 0 1 0  255 255 255 255
-21.2006 99 79.6303 0 1 0  255 255 255 255
16.3489 99 15.1609 0 1 0  255 255 255 255
-65.5787 99 98.2152 0 1 0  255 255 255 255
115.418 99 147.197 0 1 0  255 255 255 255
102.605 99 52.1862 0 1 0  255 255 255 255
135.517 99 55.3582 0 1 0  255 255 255 255
-1.91718 99 121.464 0 1 0  255 255 255 255
44.5814 99 121.159 0 1 0  255 255 255 255
-16.3789 99 180.247 0 1 0  255 255 255 255
-16.0871 99 14.7229 0 1 0  255 255 255 255
-53.7278 99 43.2009 0 1 0  255 255 255 255
-135.676 99 55.977 0 1 0  255 255 255 255
9.03294 99 149.271 0 1 0  255 255 255 255
144.229 99 112.147 0 1 0  255 255 255 255
-93.3565 99 20.4617 0 1 0  255 255 255 255
41.6371 99 83.8142 0 1 0  255 255 255 255
35.6174 99 65.1491 0 1 0  255 255 255 255
-46.6475 99 67.6094 0 1 0  255 255 255 255
110.831 99 153.984 0 1 0  255 255 255 255
44.3954 99 135.739 0 1 0  255 255 255 255
-34.0682 99 116.924 0 1 0  255 255 255 255
6.62078 99 100.299 0 1 0  255 255 255 255
-2.61602 99 93.6465 0 1 0  255 255 255 255
-11.5346 99 91.7078 0 1 0  255 255 255 255
-72.1719 99 72.3134 0 1 0  255 255 255 255
-141.986 99 120.008 0 1 0  255 255 255 255
-30.13 99 93.4982 0 1 0  255 255 255 255
-59.051 99 164.991 0 1 0  255 255 255 255
-59.263 99 29.9827 0 1 0  255 255 255 255
-2.04614 99 81.915 0 1 0  255 255 255 255
122.759 99 157.529 0 1 0  255 255 255 255
135.406 99 141.181 0 1 0  255 255 255 255
76.3079 99 95.7657 0 1 0  255 255 255 255
94.128 99 28.4636 0 1 0  255 255 255 255
19.6411 99 117.179 0 1 0  255 255 255 255
-18.524 99 151.68 0 1 0  255 255 255 255
-18.6867 99 42.066 0 1 0  255 255 255 255
46.5802 99 35.8427 0 1 0  255 255 255 255
27.2778 99 124.404 0 1 0  255 255 255 255
-150.39 99 32.733 0 1 0  255 255 255 255
-151.123 99 162.715 0 1 0  255 255 255 255
-46.5415 99 118.13 0 1 0  255 255 255 255
35.4936 99 158.617 0 1 0  255 255 255 255
-38.1265 99 6.73211 0 1 0  255 255 255 255
-38.1265 99 188.268 0 1 0  255 255 255 255
-142.603 99 144.12 0 1 0  255 255 255 255
7.65404 99 113.238 0 1 0  255 255 255 255
142.555 99 84.8281 0 1 0  255 255 255 255
25.1293 99 22.8247 0 1 0  255 255 255 255
-142.55 99 84.8341 0 1 0  255 255 255 255
-38.363 99 83.5793 0 1 0  255 255 255 255
18.9408 99 142.609 0 1 0  255 255 255 255
151.583 99 189.065 0 1 0  255 255 255 255
151.583 99 5.93459 0 1 0  255 255 255 255
-46.5692 99 180.628 0 1 0  255 255 255 255
-46.5692 99 14.3719 0 1 0  255 255 255 255
-55.4832 99 134.916 0 1 0  255 255 255 255
-165.743 99 16.7072 0 1 0  255 255 255 255
-165.743 99 178.293 0 1 0  255 255 255 255
-137.547 99 34.1288 0 1 0  255 255 255 255
-139.522 99 166.814 0 1 0  255 255 255 255
184.085 99 82.0669 0 1 0  255 255 255 255
-184.085 99 82.0671 0 1 0  255 255 255 255
-90.6527 99 70.888 0 1 0  255 255 255 255
93.9101 99 114.762 0 1 0  255 255 255 255
-43.6545 99 135.342 0 1 0  255 255 255 255
47.4386 99 160.193 0 1 0  255 255 255 255
-91.1998 99 106.426 0 1 0  255 255 255 255
-21.9888 99 123.595 0 1 0  255 255 255 255
44.3414 99 15.4915 0 1 0  255 255 255 255
44.3414 99 179.509 0 1 0  255 255 255 255
49.5631 99 127.287 0 1 0  255 255 255 255
74.5473 99 113.184 0 1 0  255 255 255 255
10.1314 99 174.849 0 1 0  255 255 255 255
118.563 99 189.043 0 1 0  255 255 255 255
118.563 99 5.95667 0 1 0  255 255 255 255
-151.085 99 188.656 0 1 0  255 255 255 255
-151.085 99 6.34416 0 1 0  255 255 255 255
50.5221 99 54.8099 0 1 0  255 255 255 255
-5.76852 99 62.955 0 1 0  255 255 255 255
31.1 99 90.9665 0 1 0  255 255 255 255
-132.369 99 43.1674 0 1 0  255 255 255 255
191.744 99 144.76 0 1 0  255 255 255 255
-191.744 99 144.76 0 1 0  255 255 255 255
151.191 99 32.4783 0 1 0  255 255 255 255
151.191 99 162.522 0 1 0  255 255 255 255
91.9896 99 154.983 0 1 0  255 255 255 255
-45.4138 99 188.832 0 1 0  255 255 255 255
-45.4138 99 6.16828 0 1 0  255 255 255 255
122.482 99 37.3421 0 1 0  255 255 255 255
-82.7243 99 166.638 0 1 0  255 255 255 255
140.537 99 27.8325 0 1 0  255 255 255 255
139.493 99 166.391 0 1 0  255 255 255 255
44.9287 99 72.2927 0 1 0  255 255 255 255
-121.038 99 36.4359 0 1 0  255 255 255 255
-2.16183 99 74.0518 0 1 0  255 255 255 255
37.9114 99 72.4193 0 1 0  255 255 255 255
100.673 99 60.4758 0 1 0  255 255 255 255
65.25 99 140.101 0 1 0  255 255 255 255
84.0809 99 26.3807 0 1 0  255 255 255 255
15.3267 99 103.594 0 1 0  255 255 255 255
-35.879 99 29.1669 0 1 0  255 255 255 255
-35.8834 99 165.824 0 1 0  255 255 255 255
-48.3859 99 145.569 0 1 0  255 255 255 255
-132.646 99 152.069 0 1 0  255 255 255 255
-52.0644 99 56.2391 0 1 0  255 255 255 255
9.21186 99 39.5954 0 1 0  255 255 255 255
-69.8581 99 162.361 0 1 0  255 255 255 255
184.071 99 17.0848 0 1 0  255 255 255 255
184.071 99 177.915 0 1 0  255 255 255 255
-184.071 99 17.0848 0 1 0  255 255 255 255
-184.071 99 177.915 0 1 0  255 255 255 255
72.0449 99 134.538 0 1 0  255 255 255 255
-54.864 99 94.3996 0 1 0  255 255 255 255
84.6442 99 97.7329 0 1 0  255 255 255 255
68.2461 99 146.63 0 1 0  255 255 255 255
133.618 99 125.275 0 1 0  255 255 255 255
80.0708 99 87.493 0 1 0  255 255 255 255
182.287 99 58.685 0 1 0  255 255 255 255
-182.287 99 58.685 0 1 0  255 255 255 255
-172.527 99 188.516 0 1 0  255 255 255 255
-172.527 99 6.48441 0 1 0  255 255 255 255
94.3089 99 97.1708 0 1 0  255 255 255 255
-114.283 99 64.5335 0 1 0  255 255 255 255
182.706 99 152.306 0 1 0  255 255 255 255
182.69 99 42.6591 0 1 0  255 255 255 255
-182.693 99 152.306 0 1 0  255 255 255 255
-182.677 99 42.6597 0 1 0  255 255 255 255
95.3436 99 172.506 0 1 0  255 255 255 255
65.9001 99 128.408 0 1 0  255 255 255 255
1.26426 99 131.048 0 1 0  255 255 255 255
55.1338 99 151.043 0 1 0  255 255 255 255
0.870064 99 166.761 0 1 0  255 255 255 255
81.6427 99 6.70342 0 1 0  255 255 255 255
81.5244 99 188.044 0 1 0  255 255 255 255
-160.752 99 84.4574 0 1 0  255 255 255 255
160.759 99 84.4642 0 1 0  255 255 255 255
-141.504 99 103.363 0 1 0  255 255 255 255
61.4154 99 62.3599 0 1 0  255 255 255 255
-174.436 99 24.1441 0 1 0  255 255 255 255
-174.436 99 170.856 0 1 0  255 255 255 255
133.074 99 43.947 0 1 0  255 255 255 255
-37.6686 99 129.044 0 1 0  255 255 255 255
163.779 99 141.488 0 1 0  255 255 255 255
-163.779 99 141.488 0 1 0  255 255 255 255
164.18 99 52.7936 0 1 0  255 255 255 255
-165.3 99 52.7773 0 1 0  255 255 255 255
88.4902 99 78.9003 0 1 0  255 255 255 255
-3.73701 99 43.3591 0 1 0  255 255 255 255
-192.034 99 74.4075 0 1 0  255 255 255 255
192.034 99 74.4075 0 1 0  255 255 255 255
-54.0638 99 109.312 0 1 0  255 255 255 255
-124.815 99 88.8187 0 1 0  255 255 255 255
152.442 99 122.118 0 1 0  255 255 255 255
94.6905 99 19.5346 0 1 0  255 255 255 255
57.7412 99 123.804 0 1 0  255 255 255 255
-81.339 99 188.715 0 1 0  255 255 255 255
-81.3681 99 6.09765 0 1 0  255 255 255 255
-139.873 99 27.0326 0 1 0  255 255 255 255
72.9196 99 162.364 0 1 0  255 255 255 255
112.64 99 24.0014 0 1 0  255 255 255 255
6.77515 99 120.778 0 1 0  255 255 255 255
114.011 99 104.266 0 1 0  255 255 255 255
-78.0999 99 179.048 0 1 0  255 255 255 255
-183.673 99 189.147 0 1 0  255 255 255 255
-183.673 99 5.85253 0 1 0  255 255 255 255
169.339 99 130.612 0 1 0  255 255 255 255
-169.339 99 130.612 0 1 0  255 255 255 255
11.7971 99 50.7634 0 1 0  255 255 255 255
-99.3851 99 91.5581 0 1 0  255 255 255 255
35.2833 99 36.3105 0 1 0  255 255 255 255
79.146 99 179.549 0 1 0  255 255 255 255
-108.488 99 182.275 0 1 0  255 255 255 255
-81.7794 99 122.362 0 1 0  255 255 255 255
149.082 99 84.0106 0 1 0  255 255 255 255
-149.075 99 84.0132 0 1 0  255 255 255 255
-94.606 99 124.527 0 1 0  255 255 255 255
90.4422 99 85.9629 0 1 0  255 255 255 255
-94.0608 99 175.576 0 1 0  255 255 255 255
-1.98205 99 113.22 0 1 0  255 255 255 255
117.256 99 97.4534 0 1 0  255 255 255 255
166.864 99 179.481 0 1 0  255 255 255 255
166.864 99 15.5192 0 1 0  255 255 255 255
-88.1032 99 94.7242 0 1 0  255 255 255 255
-77.0943 99 13.669 0 1 0  255 255 255 255
-27.1578 99 12.6953 0 1 0  255 255 255 255
-27.1578 99 182.305 0 1 0  255 255 255 255
-1.75298 99 174.378 0 1 0  255 255 255 255
-2.00569 99 20.4672 0 1 0  255 255 255 255
-49.4042 99 138.132 0 1 0  255 255 255 255
-75.0613 99 79.7123 0 1 0  255 255 255 255
-105.936 99 120.182 0 1 0  255 255 255 255
-29.2398 99 124.007 0 1 0  255 255 255 255
172.874 99 188.445 0 1 0  255 255 255 255
172.874 99 6.5555 0 1 0  255 255 255 255
148.608 99 26.4403 0 1 0  255 255 255 255
148.608 99 168.56 0 1 0  255 255 255 255
-126.847 99 49.1234 0 1 0  255 255 255 255
183.889 99 189.101 0 1 0  255 255 255 255
183.889 99 5.89864 0 1 0  255 255 255 255
108.688 99 74.8586 0 1 0  255 255 255 255
81.8261 99 67.912 0 1 0  255 255 255 255
-6.0966 99 164.132 0 1 0  255 255 255 255
-6.11901 99 30.7727 0 1 0  255 255 255 255
79.285 99 14.2325 0 1 0  255 255 255 255
90.2701 99 128.145 0 1 0  255 255 255 255
-61.8471 99 106.473 0 1 0  255 255 255 255
56.5847 99 44.6224 0 1 0  255 255 255 255
141.864 99 103.474 0 1 0  255 255 255 255
173.584 99 24.1791 0 1 0  255 255 255 255
173.584 99 170.821 0 1 0  255 255 255 255
-77.4013 99 159.763 0 1 0  255 255 255 255
172.048 99 99.6684 0 1 0  255 255 255 255
-172.049 99 99.6661 0 1 0  255 255 255 255
126.787 99 51.8159 0 1 0  255 255 255 255
-23.91 99 144.15 0 1 0  255 255 255 255
-23.3853 99 50.4224 0 1 0  255 255 255 255
102.038 99 162.076 0 1 0  255 255 255 255
-153.435 99 14.2564 0 1 0  255 255 255 255
-153.435 99 180.744 0 1 0  255 255 255 255
59.7196 99 95.8658 0 1 0  255 255 255 255
-128.871 99 163.372 0 1 0  255 255 255 255
151.896 99 92.4793 0 1 0  255 255 255 255
-151.911 99 92.4459 0 1 0  255 255 255 255
-79.3059 99 33.9195 0 1 0  255 255 255 255
-82.6054 99 26.6616 0 1 0  255 255 255 255
-110.328 99 24.1713 0 1 0  255 255 255 255
-35.4644 99 12.8131 0 1 0  255 255 255 255
-35.4644 99 182.187 0 1 0  255 255 255 255
-46.8923 99 28.3772 0 1 0  255 255 255 255
-46.8923 99 166.623 0 1 0  255 255 255 255
-101.609 99 138.192 0 1 0  255 255 255 255
132.91 99 96.1919 0 1 0  255 255 255 255
-117.237 99 167.209 0 1 0  255 255 255 255
129.984 99 163.116 0 1 0  255 255 255 255
172.019 99 138.962 0 1 0  255 255 255 255
-172.019 99 138.962 0 1 0  255 255 255 255
50.6513 99 140.347 0 1 0  255 255 255 255
42.8213 99 26.3493 0 1 0  255 255 255 255
42.9587 99 168.578 0 1 0  255 255 255 255
2.99121 99 148.139 0 1 0  255 255 255 255
101.494 99 68.4291 0 1 0  255 255 255 255
129.881 99 31.9644 0 1 0  255 255 255 255
31.0542 99 147.595 0 1 0  255 255 255 255
16.3732 99 92.669 0 1 0  255 255 255 255
154.397 99 14.1409 0 1 0  255 255 255 255
154.397 99 180.859 0 1 0  255 255 255 255
18.8073 99 57.0667 0 1 0  255 255 255 255
-128.209 99 31.461 0 1 0  255 255 255 255
-163.986 99 38.9931 0 1 0  255 255 255 255
-163.986 99 156.007 0 1 0  255 255 255 255
163.812 99 155.309 0 1 0  255 255 255 255
163.812 99 39.6905 0 1 0  255 255 255 255
-137.88 99 161.193 0 1 0  255 255 255 255
139.085 99 33.6629 0 1 0  255 255 255 255
-192.407 99 12.4121 0 1 0  255 255 255 255
192.407 99 12.4121 0 1 0  255 255 255 255
-192.407 99 182.588 0 1 0  255 255 255 255
192.407 99 182.588 0 1 0  255 255 255 255
80.4438 99 32.4635 0 1 0  255 255 255 255
-147.912 99 168.594 0 1 0  255 255 255 255
-147.561 99 26.3454 0 1 0  255 255 255 255
-73.0436 99 103.187 0 1 0  255 255 255 255
113.719 99 138.218 0 1 0  255 255 255 255
191.775 99 110.083 0 1 0  255 255 255 255
-191.775 99 110.083 0 1 0  255 255 255 255
-8.64996 99 123.67 0 1 0  255 255 255 255
-88.6706 99 164.937 0 1 0  255 255 255 255
152.834 99 142.635 0 1 0  255 255 255 255
-153.003 99 142.374 0 1 0  255 255 255 255
66.4305 99 37.8075 0 1 0  255 255 255 255
63.4262 99 44.4246 0 1 0  255 255 255 255
106.945 99 112.029 0 1 0  255 255 255 255
146.45 99 54.2458 0 1 0  255 255 255 255
-146.449 99 54.2672 0 1 0  255 255 255 255
-191.651 99 43.1681 0 1 0  255 255 255 255
191.651 99 43.1681 0 1 0  255 255 255 255
192.27 99 152.335 0 1 0  255 255 255 255
-192.27 99 152.335 0 1 0  255 255 255 255
81.0313 99 58.2939 0 1 0  255 255 255 255
-110.762 99 171.675 0 1 0  255 255 255 255
139.246 99 161.333 0 1 0  255 255 255 255
-90.5885 99 143.355 0 1 0  255 255 255 255
-139.773 99 150.018 0 1 0  255 255 255 255
-68.8108 99 110.968 0 1 0  255 255 255 255
-113.492 99 36.9051 0 1 0  255 255 255 255
28.5342 99 30.0685 0 1 0  255 255 255 255
-17.1424 99 139.058 0 1 0  255 255 255 255
-26.0158 99 64.0508 0 1 0  255 255 255 255
99.6004 99 125.628 0 1 0  255 255 255 255
92.0613 99 143.83 0 1 0  255 255 255 255
1.92684 99 140.576 0 1 0  255 255 255 255
167.63 99 93.5607 0 1 0  255 255 255 255
-167.622 99 93.5525 0 1 0  255 255 255 255
-94.6926 99 96.6976 0 1 0  255 255 255 255
176.681 99 14.914 0 1 0  255 255 255 255
176.681 99 180.086 0 1 0  255 255 255 255
-73.5616 99 22.7905 0 1 0  255 255 255 255
-57.9093 99 49.9397 0 1 0  255 255 255 255
-81.595 99 62.9906 0 1 0  255 255 255 255
-107.009 99 145.732 0 1 0  255 255 255 255
-83.3414 99 80.7729 0 1 0  255 255 255 255
-68.3347 99 92.1498 0 1 0  255 255 255 255
142.602 99 93.6968 0 1 0  255 255 255 255
-176.648 99 159.858 0 1 0  255 255 255 255
-176.648 99 35.1423 0 1 0  255 255 255 255
-142.719 99 93.7891 0 1 0  255 255 255 255
-126.317 99 94.5505 0 1 0  255 255 255 255
-134.558 99 70.1855 0 1 0  255 255 255 255
-115.557 99 114.144 0 1 0  255 255 255 255
-110.101 99 102.422 0 1 0  255 255 255 255
134.593 99 69.9611 0 1 0  255 255 255 255
-14.5617 99 54.0919 0 1 0  255 255 255 255
115.543 99 159.671 0 1 0  255 255 255 255
59.4302 99 107.606 0 1 0  255 255 255 255
-49.7759 99 126.922 0 1 0  255 255 255 255
-135.479 99 140.002 0 1 0  255 255 255 255
-106.89 99 84.2263 0 1 0  255 255 255 255
-157.623 99 23.0078 0 1 0  255 255 255 255
-157.623 99 171.992 0 1 0  255 255 255 255
74.4172 99 22.572 0 1 0  255 255 255 255
-84.7866 99 102.653 0 1 0  255 255 255 255
-81.1065 99 138.917 0 1 0  255 255 255 255
-154.328 99 116.308 0 1 0  255 255 255 255
112.055 99 171.479 0 1 0  255 255 255 255
61.6375 99 161.464 0 1 0  255 255 255 255
114.561 99 35.8561 0 1 0  255 255 255 255
162.503 99 124.913 0 1 0  255 255 255 255
-162.955 99 125.131 0 1 0  255 255 255 255
158.075 99 22.4759 0 1 0  255 255 255 255
158.075 99 172.524 0 1 0  255 255 255 255
-133.349 99 111.534 0 1 0  255 255 255 255
-133.574 99 15.0416 0 1 0  255 255 255 255
-133.585 99 179.988 0 1 0  255 255 255 255
73.8034 99 66.81 0 1 0  255 255 255 255
123.116 99 57.0449 0 1 0  255 255 255 255
-76.7053 99 120.139 0 1 0  255 255 255 255
180.186 99 97.7355 0 1 0  255 255 255 255
103.603 99 179.725 0 1 0  255 255 255 255
-64.1568 99 76.2176 0 1 0  255 255 255 255
-180.188 99 97.7365 0 1 0  255 255 255 255
-133.291 99 95.7631 0 1 0  255 255 255 255
25.3027 99 172.795 0 1 0  255 255 255 255
-53.8278 99 116.225 0 1 0  255 255 255 255
-69.4451 99 59.1114 0 1 0  255 255 255 255
-168.245 99 29.0724 0 1 0  255 255 255 255
-168.245 99 165.928 0 1 0  255 255 255 255
-162.996 99 72.777 0 1 0  255 255 255 255
36.3314 99 95.2149 0 1 0  255 255 255 255
163.005 99 72.7875 0 1 0  255 255 255 255
-71.7129 99 30.4559 0 1 0  255 255 255 255
21.7865 99 161.505 0 1 0  255 255 255 255
29.9375 99 47.59 0 1 0  255 255 255 255
134.544 99 180.04 0 1 0  255 255 255 255
134.544 99 14.9599 0 1 0  255 255 255 255
132.857 99 113.359 0 1 0  255 255 255 255
35.871 99 81.8163 0 1 0  255 255 255 255
31.1501 99 85.056 0 1 0  255 255 255 255
157.705 99 115.953 0 1 0  255 255 255 255
-176.621 99 14.9132 0 1 0  255 255 255 255
-176.621 99 180.087 0 1 0  255 255 255 255
-162.571 99 148.321 0 1 0  255 255 255 255
-162.571 99 46.6787 0 1 0  255 255 255 255
60.8525 99 34.2196 0 1 0  255 255 255 255
-16.7969 99 33.2035 0 1 0  255 255 255 255
-17.4759 99 26.0037 0 1 0  255 255 255 255
-17.165 99 168.741 0 1 0  255 255 255 255
-16.5102 99 161.129 0 1 0  255 255 255 255
176.29 99 36.404 0 1 0  255 255 255 255
176.29 99 158.596 0 1 0  255 255 255 255
-20.3339 99 115.022 0 1 0  255 255 255 255
172.627 99 148.101 0 1 0  255 255 255 255
172.686 99 46.7995 0 1 0  255 255 255 255
-172.575 99 148.075 0 1 0  255 255 255 255
-172.649 99 46.8179 0 1 0  255 255 255 255
76.3309 99 106.891 0 1 0  255 255 255 255
126.264 99 62.8904 0 1 0  255 255 255 255
171.039 99 118.915 0 1 0  255 255 255 255
-171.039 99 118.914 0 1 0  255 255 255 255
-112.98 99 138.204 0 1 0  255 255 255 255
45.9644 99 190.689 0 1 0  255 255 255 255
45.9644 99 4.31091 0 1 0  255 255 255 255
-67.17 99 135.059 0 1 0  255 255 255 255
125.537 99 105.388 0 1 0  255 255 255 255
81.3854 99 161.865 0 1 0  255 255 255 255
-105.803 99 99.899 0 1 0  255 255 255 255
-20.9474 99 71.647 0 1 0  255 255 255 255
-27.8321 99 165.513 0 1 0  255 255 255 255
-27.6329 99 29.3447 0 1 0  255 255 255 255
-154.298 99 124.803 0 1 0  255 255 255 255
23.9448 99 66.593 0 1 0  255 255 255 255
-186.172 99 163.709 0 1 0  255 255 255 255
-186.172 99 31.291 0 1 0  255 255 255 255
186.17 99 31.2933 0 1 0  255 255 255 255
186.17 99 163.707 0 1 0  255 255 255 255
163.114 99 47.8878 0 1 0  255 255 255 255
163.114 99 147.112 0 1 0  255 255 255 255
-12.5179 99 98.5648 0 1 0  255 255 255 255
9.91967 99 18.5857 0 1 0  255 255 255 255
-10.9421 99 112.527 0 1 0  255 255 255 255
168.356 99 29.3966 0 1 0  255 255 255 255
168.356 99 165.603 0 1 0  255 255 255 255
-184.819 99 113.204 0 1 0  255 255 255 255
184.819 99 113.204 0 1 0  255 255 255 255
23.3968 99 189.195 0 1 0  255 255 255 255
23.5543 99 5.84853 0 1 0  255 255 255 255
-52.3482 99 156.262 0 1 0  255 255 255 255
14.822 99 142.728 0 1 0  255 255 255 255
-12.5103 99 78.9224 0 1 0  255 255 255 255
-37.3836 99 91.4537 0 1 0  255 255 255 255
-123.043 99 57.2822 0 1 0  255 255 255 255
191.559 99 171.254 0 1 0  255 255 255 255
-191.56 99 23.746 0 1 0  255 255 255 255
-191.56 99 171.254 0 1 0  255 255 255 255
191.559 99 23.7458 0 1 0  255 255 255 255
10.7088 99 157.89 0 1 0  255 255 255 255
40.3174 99 91.784 0 1 0  255 255 255 255
-66.574 99 67.3318 0 1 0  255 255 255 255
63.1022 99 70.3215 0 1 0  255 255 255 255
192.684 99 120.577 0 1 0  255 255 255 255
-192.684 99 120.577 0 1 0  255 255 255 255
83.2134 99 147.116 0 1 0  255 255 255 255
-5.38686 99 151.904 0 1 0  255 255 255 255
-44.0372 99 170.646 0 1 0  255 255 255 255
-44.0372 99 24.3544 0 1 0  255 255 255 255
-37.5313 99 160.909 0 1 0  255 255 255 255
-37.5313 99 34.0914 0 1 0  255 255 255 255
65.0647 99 157.099 0 1 0  255 255 255 255
-9.20694 99 83.4188 0 1 0  255 255 255 255
90.3359 99 138.423 0 1 0  255 255 255 255
145.416 99 141.206 0 1 0  255 255 255 255
26.7918 99 101.985 0 1 0  255 255 255 255
-74.7369 99 170.617 0 1 0  255 255 255 255
-59.9682 99 143.429 0 1 0  255 255 255 255
-125.825 99 63.1358 0 1 0  255 255 255 255
-19.2686 99 87.0343 0 1 0  255 255 255 255
39.932 99 102.367 0 1 0  255 255 255 255
-78.5489 99 112.008 0 1 0  255 255 255 255
85.472 99 88.5101 0 1 0  255 255 255 255
-55.5226 99 190.314 0 1 0  255 255 255 255
-55.5226 99 4.68641 0 1 0  255 255 255 255
71.872 99 189.05 0 1 0  255 255 255 255
71.8973 99 6.0142 0 1 0  255 255 255 255
28.6322 99 59.2048 0 1 0  255 255 255 255
-10.2504 99 170.42 0 1 0  255 255 255 255
-10.2504 99 24.5798 0 1 0  255 255 255 255
137.018 99 189.624 0 1 0  255 255 255 255
137.018 99 5.37623 0 1 0  255 255 255 255
-101.879 99 109.138 0 1 0  255 255 255 255
-114.566 99 17.2387 0 1 0  255 255 255 255
3.60279 99 48.6598 0 1 0  255 255 255 255
121.955 99 168.88 0 1 0  255 255 255 255
122.466 99 26.4458 0 1 0  255 255 255 255
63.7465 99 151.481 0 1 0  255 255 255 255
-57.9507 99 90.0055 0 1 0  255 255 255 255
-42.6933 99 130.061 0 1 0  255 255 255 255
-137.611 99 191.339 0 1 0  255 255 255 255
-137.611 99 3.66141 0 1 0  255 255 255 255
-42.7887 99 64.8888 0 1 0  255 255 255 255
22.8227 99 49.7519 0 1 0  255 255 255 255
118.502 99 67.7119 0 1 0  255 255 255 255
21.1436 99 149.992 0 1 0  255 255 255 255
95.8043 99 87.4169 0 1 0  255 255 255 255
115.164 99 178.274 0 1 0  255 255 255 255
115.266 99 16.7698 0 1 0  255 255 255 255
118.077 99 45.9235 0 1 0  255 255 255 255
-63.8153 99 167.66 0 1 0  255 255 255 255
-120.771 99 26.6718 0 1 0  255 255 255 255
14.7591 99 82.9582 0 1 0  255 255 255 255
-72.7044 99 49.7284 0 1 0  255 255 255 255
177.092 99 117.913 0 1 0  255 255 255 255
-177.092 99 117.913 0 1 0  255 255 255 255
-93.6912 99 42.0941 0 1 0  255 255 255 255
97.4387 99 92.5862 0 1 0  255 255 255 255
-159.181 99 115.043 0 1 0  255 255 255 255
46.0022 99 62.4672 0 1 0  255 255 255 255
12.4158 99 132.37 0 1 0  255 255 255 255
-184.034 99 137.75 0 1 0  255 255 255 255
184.034 99 137.75 0 1 0  255 255 255 255
73.5124 99 77.3483 0 1 0  255 255 255 255
-36.8893 99 104.642 0 1 0  255 255 255 255
-98.3972 99 71.0752 0 1 0  255 255 255 255
105.608 99 99.6935 0 1 0  255 255 255 255
-19.9933 99 98.1793 0 1 0  255 255 255 255
37.7276 99 130.143 0 1 0  255 255 255 255
114.964 99 115.459 0 1 0  255 255 255 255
47.7383 99 148.102 0 1 0  255 255 255 255
89.2895 99 95.9628 0 1 0  255 255 255 255
24.8189 99 119.708 0 1 0  255 255 255 255
-172.955 99 109.159 0 1 0  255 255 255 255
172.955 99 109.161 0 1 0  255 255 255 255
-182.702 99 23.2054 0 1 0  255 255 255 255
182.711 99 23.2193 0 1 0  255 255 255 255
-182.702 99 171.795 0 1 0  255 255 255 255
182.711 99 171.781 0 1 0  255 255 255 255
-64.6689 99 56.6973 0 1 0  255 255 255 255
30.1384 99 165.935 0 1 0  255 255 255 255
-180.453 99 148.797 0 1 0  255 255 255 255
180.455 99 148.798 0 1 0  255 255 255 255
-167.729 99 111.528 0 1 0  255 255 255 255
167.666 99 111.439 0 1 0  255 255 255 255
-163.612 99 21.0224 0 1 0  255 255 255 255
-163.612 99 173.978 0 1 0  255 255 255 255
-83.9505 99 155.838 0 1 0  255 255 255 255
65.0476 99 107.429 0 1 0  255 255 255 255
-66.0271 99 46.6701 0 1 0  255 255 255 255
-27.6877 99 157.972 0 1 0  255 255 255 255
-27.6877 99 37.0282 0 1 0  255 255 255 255
109.275 99 134.347 0 1 0  255 255 255 255
-54.5485 99 38.2618 0 1 0  255 255 255 255
-7.44119 99 71.7011 0 1 0  255 255 255 255
-148.384 99 112.166 0 1 0  255 255 255 255
-106.353 99 162.765 0 1 0  255 255 255 255
-107.468 99 50.7612 0 1 0  255 255 255 255
-180.25 99 47.1469 0 1 0  255 255 255 255
180.251 99 47.1468 0 1 0  255 255 255 255
22.6004 99 12.4014 0 1 0  255 255 255 255
22.53 99 182.453 0 1 0  255 255 255 255
163.959 99 173.545 0 1 0  255 255 255 255
163.959 99 21.4545 0 1 0  255 255 255 255
-129.414 99 105.959 0 1 0  255 255 255 255
84.1236 99 77.4851 0 1 0  255 255 255 255
-63.7893 99 127.9 0 1 0  255 255 255 255
-133.885 99 86.4845 0 1 0  255 255 255 255
118.683 99 75.8866 0 1 0  255 255 255 255
-32.6081 99 127.76 0 1 0  255 255 255 255
-61.6546 99 100.798 0 1 0  255 255 255 255
133.903 99 86.4702 0 1 0  255 255 255 255
20.0316 99 23.1857 0 1 0  255 255 255 255
39.9637 99 112.052 0 1 0  255 255 255 255
84.4072 99 178.192 0 1 0  255 255 255 255
-100.383 99 76.1322 0 1 0  255 255 255 255
91.1159 99 107.756 0 1 0  255 255 255 255
65.3904 99 80.1592 0 1 0  255 255 255 255
-42.1708 99 16.7084 0 1 0  255 255 255 255
-42.1708 99 178.292 0 1 0  255 255 255 255
181.422 99 78.2567 0 1 0  255 255 255 255
-181.422 99 78.2566 0 1 0  255 255 255 255
60.3461 99 118.363 0 1 0  255 255 255 255
75.7571 99 58.174 0 1 0  255 255 255 255
128.545 99 45.3734 0 1 0  255 255 255 255
91.6728 99 67.978 0 1 0  255 255 255 255
60.6184 99 175.453 0 1 0  255 255 255 255
60.6184 99 19.5469 0 1 0  255 255 255 255
-122.961 99 158.028 0 1 0  255 255 255 255
132.012 99 130.67 0 1 0  255 255 255 255
153.533 99 51.8398 0 1 0  255 255 255 255
-160.949 99 183.1 0 1 0  255 255 255 255
-160.949 99 11.9005 0 1 0  255 255 255 255
-193.24 99 135.779 0 1 0  255 255 255 255
193.24 99 135.779 0 1 0  255 255 255 255
-130.312 99 141.53 0 1 0  255 255 255 255
25.266 99 136.683 0 1 0  255 255 255 255
-153.429 99 51.8748 0 1 0  255 255 255 255
90.6076 99 118.183 0 1 0  255 255 255 255
-29.0769 99 74.4724 0 1 0  255 255 255 255
66.7658 99 99.1651 0 1 0  255 255 255 255
161.845 99 11.831 0 1 0  255 255 255 255
161.845 99 183.169 0 1 0  255 255 255 255
-53.7733 99 130.682 0 1 0  255 255 255 255
-83.0663 99 177.543 0 1 0  255 255 255 255
18.2031 99 75.5992 0 1 0  255 255 255 255
16.4438 99 121.559 0 1 0  255 255 255 255
2.54799 99 103.737 0 1 0  255 255 255 255
-70.9471 99 5.04282 0 1 0  255 255 255 255
-71.0088 99 189.803 0 1 0  255 255 255 255
5.87266 99 137.893 0 1 0  255 255 255 255
20.6817 99 171.405 0 1 0  255 255 255 255
-74.8991 99 40.0756 0 1 0  255 255 255 255
-118.907 99 67.4513 0 1 0  255 255 255 255
67.5162 99 168.016 0 1 0  255 255 255 255
94.8639 99 41.2042 0 1 0  255 255 255 255
192.893 99 55.6615 0 1 0  255 255 255 255
-192.893 99 55.6615 0 1 0  255 255 255 255
34.6868 99 75.9096 0 1 0  255 255 255 255
18.7603 99 33.2082 0 1 0  255 255 255 255
-102.836 99 15.7586 0 1 0  255 255 255 255
-80.1463 99 147.869 0 1 0  255 255 255 255
48.1204 99 105.646 0 1 0  255 255 255 255
18.6875 99 166.515 0 1 0  255 255 255 255
7.68229 99 76.0227 0 1 0  255 255 255 255
76.2372 99 144.926 0 1 0  255 255 255 255
173.755 99 54.6764 0 1 0  255 255 255 255
-173.755 99 54.6764 0 1 0  255 255 255 255
-28.5261 99 88.4406 0 1 0  255 255 255 255
-39.7199 99 121.311 0 1 0  255 255 255 255
-104.529 99 40.5616 0 1 0  255 255 255 255
-112.6 99 154.927 0 1 0  255 255 255 255
-53.8147 99 181.574 0 1 0  255 255 255 255
-53.8147 99 13.426 0 1 0  255 255 255 255
18.5359 99 99.2732 0 1 0  255 255 255 255
-92.0381 99 168.882 0 1 0  255 255 255 255
152.619 99 116.991 0 1 0  255 255 255 255
24.4069 99 32.2932 0 1 0  255 255 255 255
-102.449 99 23.2409 0 1 0  255 255 255 255
-166.344 99 83.1008 0 1 0  255 255 255 255
52.3403 99 26.6759 0 1 0  255 255 255 255
52.3403 99 168.324 0 1 0  255 255 255 255
-111.975 99 143.786 0 1 0  255 255 255 255
131.122 99 106.371 0 1 0  255 255 255 255
166.347 99 83.1046 0 1 0  255 255 255 255
10.1418 99 66.2797 0 1 0  255 255 255 255
156.447 99 124.568 0 1 0  255 255 255 255
30.0504 99 112.144 0 1 0  255 255 255 255
131.191 99 62.837 0 1 0  255 255 255 255
103.359 99 171.172 0 1 0  255 255 255 255
128.044 99 150.074 0 1 0  255 255 255 255
111.339 99 64.6694 0 1 0  255 255 255 255
-73.3003 99 133.307 0 1 0  255 255 255 255
-100.863 99 86.763 0 1 0  255 255 255 255
127.392 99 133.033 0 1 0  255 255 255 255
118.623 99 34.1378 0 1 0  255 255 255 255
-138.979 99 52.3294 0 1 0  255 255 255 255
-98.1183 99 127.754 0 1 0  255 255 255 255
-131.303 99 23.9484 0 1 0  255 255 255 255
-72.2001 99 11.8847 0 1 0  255 255 255 255
-71.89 99 183.112 0 1 0  255 255 255 255
-124.88 99 149.853 0 1 0  255 255 255 255
-89.3412 99 45.9126 0 1 0  255 255 255 255
0.452436 99 53.5272 0 1 0  255 255 255 255
3.34682 99 58.1444 0 1 0  255 255 255 255
55.9558 99 52.2925 0 1 0  255 255 255 255
107.595 99 49.9157 0 1 0  255 255 255 255
-146.11 99 140.942 0 1 0  255 255 255 255
-131.056 99 62.8481 0 1 0  255 255 255 255
26.1959 99 82.2588 0 1 0  255 255 255 255
3.2694 99 83.4542 0 1 0  255 255 255 255
-116.032 99 95.9843 0 1 0  255 255 255 255
117.155 99 106.71 0 1 0  255 255 255 255
-125.213 99 114.697 0 1 0  255 255 255 255
-63.7325 99 27.5248 0 1 0  255 255 255 255
72.6768 99 149.853 0 1 0  255 255 255 255
66.3417 99 112.377 0 1 0  255 255 255 255
104.266 99 116.743 0 1 0  255 255 255 255
95.3734 99 129.547 0 1 0  255 255 255 255
104.062 99 4.76797 0 1 0  255 255 255 255
104.062 99 190.232 0 1 0  255 255 255 255
-98.6284 99 46.205 0 1 0  255 255 255 255
-117.068 99 34.241 0 1 0  255 255 255 255
103.672 99 23.2112 0 1 0  255 255 255 255
-11.5109 99 144.729 0 1 0  255 255 255 255
176.625 99 81.3457 0 1 0  255 255 255 255
-176.625 99 81.3453 0 1 0  255 255 255 255
-131.312 99 171.092 0 1 0  255 255 255 255
138.967 99 51.7385 0 1 0  255 255 255 255
34.2559 99 176.029 0 1 0  255 255 255 255
34.2932 99 18.9417 0 1 0  255 255 255 255
-47.5114 99 48.2188 0 1 0  255 255 255 255
99.8617 99 136.246 0 1 0  255 255 255 255
-1.43944 99 65.0036 0 1 0  255 255 255 255
-129.05 99 131.421 0 1 0  255 255 255 255
-104.115 99 190.156 0 1 0  255 255 255 255
-103.844 99 3.90231 0 1 0  255 255 255 255
-22.3415 99 102.604 0 1 0  255 255 255 255
94.7576 99 177.333 0 1 0  255 255 255 255
105.21 99 39.2556 0 1 0  255 255 255 255
127.168 99 122.244 0 1 0  255 255 255 255
-158.209 99 108.198 0 1 0  255 255 255 255
-94.8381 99 133.91 0 1 0  255 255 255 255
70.0297 99 158.887 0 1 0  255 255 255 255
157.314 99 108.327 0 1 0  255 255 255 255
-69.6131 99 142.966 0 1 0  255 255 255 255
-20.7828 99 177.882 0 1 0  255 255 255 255
-20.7411 99 17.114 0 1 0  255 255 255 255
106.618 99 87.8891 0 1 0  255 255 255 255
32.713 99 54.4547 0 1 0  255 255 255 255
71.5277 99 183.507 0 1 0  255 255 255 255
71.1119 99 10.8885 0 1 0  255 255 255 255
-108.914 99 69.703 0 1 0  255 255 255 255
-125.865 99 36.8141 0 1 0  255 255 255 255
85.2128 99 72.5657 0 1 0  255 255 255 255
69.1628 99 89.2588 0 1 0  255 255 255 255
-77.7026 99 95.4007 0 1 0  255 255 255 255
26.8266 99 92.6365 0 1 0  255 255 255 255
-104.441 99 179.464 0 1 0  255 255 255 255
-51.9299 99 78.3967 0 1 0  255 255 255 255
82.1447 99 43.4221 0 1 0  255 255 255 255
141.457 99 108.211 0 1 0  255 255 255 255
-146.264 99 175.951 0 1 0  255 255 255 255
-146.219 99 19.0918 0 1 0  255 255 255 255
106.754 99 79.1748 0 1 0  255 255 255 255
105.035 99 14.9559 0 1 0  255 255 255 255
72.5145 99 47.6715 0 1 0  255 255 255 255
7.68704 99 190.742 0 1 0  255 255 255 255
7.71397 99 4.30216 0 1 0  255 255 255 255
109.742 99 103.426 0 1 0  255 255 255 255
-111.489 99 129.575 0 1 0  255 255 255 255
2.48468 99 157.381 0 1 0  255 255 255 255
-34.1435 99 66.3427 0 1 0  255 255 255 255
-31.1919 99 98.6784 0 1 0  255 255 255 255
187.266 99 120.011 0 1 0  255 255 255 255
-187.266 99 120.011 0 1 0  255 255 255 255
-181.623 99 182.198 0 1 0  255 255 255 255
-181.623 99 12.8018 0 1 0  255 255 255 255
148.603 99 158.519 0 1 0  255 255 255 255
148.566 99 36.4316 0 1 0  255 255 255 255
-12.2201 99 190.769 0 1 0  255 255 255 255
-12.2201 99 4.23106 0 1 0  255 255 255 255
-172.108 99 72.9423 0 1 0  255 255 255 255
172.11 99 72.9432 0 1 0  255 255 255 255
-193.553 99 88.5691 0 1 0  255 255 255 255
193.553 99 88.5691 0 1 0  255 255 255 255
73.096 99 30.6558 0 1 0  255 255 255 255
-33.7183 99 20.9361 0 1 0  255 255 255 255
-33.7183 99 174.064 0 1 0  255 255 255 255
81.6863 99 131.139 0 1 0  255 255 255 255
3.38127 99 71.9784 0 1 0  255 255 255 255
105.985 99 70.1435 0 1 0  255 255 255 255
68.879 99 19.4866 0 1 0  255 255 255 255
181.654 99 12.7923 0 1 0  255 255 255 255
181.654 99 182.208 0 1 0  255 255 255 255
102.931 99 157.123 0 1 0  255 255 255 255
-3.7654 99 141.5 0 1 0  255 255 255 255
-64.7276 99 190.186 0 1 0  255 255 255 255
-64.7188 99 4.79237 0 1 0  255 255 255 255
-101.176 99 103.017 0 1 0  255 255 255 255
-40.0378 99 144.401 0 1 0  255 255 255 255
157.843 99 77.403 0 1 0  255 255 255 255
22.5656 99 53.6605 0 1 0  255 255 255 255
-157.83 99 77.3968 0 1 0  255 255 255 255
37.0581 99 25.8327 0 1 0  255 255 255 255
37.5772 99 169.427 0 1 0  255 255 255 255
-67.5399 99 72.3277 0 1 0  255 255 255 255
90.6462 99 44.0804 0 1 0  255 255 255 255
-82.9488 99 52.3887 0 1 0  255 255 255 255
70.8917 99 130.114 0 1 0  255 255 255 255
-149.488 99 43.2428 0 1 0  255 255 255 255
96.336 99 70.1254 0 1 0  255 255 255 255
-102.123 99 172.561 0 1 0  255 255 255 255
-39.7338 99 50.2013 0 1 0  255 255 255 255
-128.92 99 11.4139 0 1 0  255 255 255 255
-128.997 99 183.599 0 1 0  255 255 255 255
-145.94 99 158.734 0 1 0  255 255 255 255
-63.7683 99 182.005 0 1 0  255 255 255 255
-63.7653 99 12.9932 0 1 0  255 255 255 255
-128.644 99 53.1614 0 1 0  255 255 255 255
-105.568 99 95.1187 0 1 0  255 255 255 255
40.7538 99 12.0489 0 1 0  255 255 255 255
40.7538 99 182.951 0 1 0  255 255 255 255
65.0866 99 190.544 0 1 0  255 255 255 255
65.0866 99 4.45591 0 1 0  255 255 255 255
13.3508 99 43.3734 0 1 0  255 255 255 255
-12.2373 99 117.452 0 1 0  255 255 255 255
-73.8019 99 152.018 0 1 0  255 255 255 255
147.136 99 176.138 0 1 0  255 255 255 255
147.136 99 18.8616 0 1 0  255 255 255 255
-158.063 99 67.6854 0 1 0  255 255 255 255
158.068 99 67.6894 0 1 0  255 255 255 255
-31.8884 99 137.185 0 1 0  255 255 255 255
-14.4446 99 107.45 0 1 0  255 255 255 255
129.841 99 11.2145 0 1 0  255 255 255 255
129.841 99 183.786 0 1 0  255 255 255 255
57.7862 99 143.944 0 1 0  255 255 255 255
-149.461 99 151.361 0 1 0  255 255 255 255
-24.3277 99 112.734 0 1 0  255 255 255 255
-149.015 99 67.2082 0 1 0  255 255 255 255
-99.7908 99 182.494 0 1 0  255 255 255 255
12.1173 99 112.06 0 1 0  255 255 255 255
99.7224 99 45.2749 0 1 0  255 255 255 255
-66.0634 99 150.001 0 1 0  255 255 255 255
149.017 99 67.1975 0 1 0  255 255 255 255
150.233 99 132.678 0 1 0  255 255 255 255
56.1059 99 62.0881 0 1 0  255 255 255 255
-99.6357 99 165.979 0 1 0  255 255 255 255
132.822 99 24.1895 0 1 0  255 255 255 255
132.926 99 170.842 0 1 0  255 255 255 255
99.7135 99 102.482 0 1 0  255 255 255 255
92.7301 99 160.279 0 1 0  255 255 255 255
-146.796 99 36.1301 0 1 0  255 255 255 255
69.4326 99 174.77 0 1 0  255 255 255 255
-83.4896 99 42.7588 0 1 0  255 255 255 255
2.04302 99 36.8725 0 1 0  255 255 255 255
96.6419 99 163.359 0 1 0  255 255 255 255
-9.49322 99 102.072 0 1 0  255 255 255 255
-193.889 99 97.5642 0 1 0  255 255 255 255
193.889 99 97.5641 0 1 0  255 255 255 255
-81.9549 99 71.5554 0 1 0  255 255 255 255
-178.315 99 163.748 0 1 0  255 255 255 255
-178.315 99 31.2518 0 1 0  255 255 255 255
178.879 99 55.3887 0 1 0  255 255 255 255
-178.879 99 55.3887 0 1 0  255 255 255 255
45.8211 99 57.1602 0 1 0  255 255 255 255
136.831 99 116.738 0 1 0  255 255 255 255
83.7882 99 169.973 0 1 0  255 255 255 255
149.37 99 76.8419 0 1 0  255 255 255 255
-107.439 99 152.968 0 1 0  255 255 255 255
185.85 99 91.3164 0 1 0  255 255 255 255
0.839592 99 24.7457 0 1 0  255 255 255 255
-103.667 99 156.826 0 1 0  255 255 255 255
-149.356 99 76.8449 0 1 0  255 255 255 255
-185.853 99 91.3174 0 1 0  255 255 255 255
-130.678 99 146.861 0 1 0  255 255 255 255
-99.6825 99 11.8518 0 1 0  255 255 255 255
3.66868 99 111.359 0 1 0  255 255 255 255
81.4294 99 122.619 0 1 0  255 255 255 255
-90.3515 99 77.2437 0 1 0  255 255 255 255
-97.0426 99 51.3213 0 1 0  255 255 255 255
-0.177674 99 5.01174 0 1 0  255 255 255 255
-0.177674 99 189.988 0 1 0  255 255 255 255
59.6152 99 134.431 0 1 0  255 255 255 255
-118.1 99 48.5017 0 1 0  255 255 255 255
106.372 99 143.595 0 1 0  255 255 255 255
-102.166 99 57.6464 0 1 0  255 255 255 255
-124.246 99 13.8516 0 1 0  255 255 255 255
71.0721 99 56.7745 0 1 0  255 255 255 255
77.6979 99 40.1655 0 1 0  255 255 255 255
-24.9916 99 25.5081 0 1 0  255 255 255 255
-25.5669 99 169.669 0 1 0  255 255 255 255
-29.9785 99 119.444 0 1 0  255 255 255 255
-25.4659 99 133.312 0 1 0  255 255 255 255
-121.4 99 167.992 0 1 0  255 255 255 255
-106.928 99 110.768 0 1 0  255 255 255 255
94.6316 99 190.397 0 1 0  255 255 255 255
94.6316 99 4.60324 0 1 0  255 255 255 255
178.269 99 163.438 0 1 0  255 255 255 255
178.269 99 31.5616 0 1 0  255 255 255 255
-179.797 99 130.105 0 1 0  255 255 255 255
179.797 99 130.105 0 1 0  255 255 255 255
-11.7746 99 34.9765 0 1 0  255 255 255 255
-11.8505 99 160.178 0 1 0  255 255 255 255
-93.9716 99 4.2229 0 1 0  255 255 255 255
-93.9716 99 190.777 0 1 0  255 255 255 255
-4.21366 99 108.561 0 1 0  255 255 255 255
-127.004 99 71.9538 0 1 0  255 255 255 255
126.371 99 72.1493 0 1 0  255 255 255 255
-141.581 99 65.3836 0 1 0  255 255 255 255
141.588 99 65.4041 0 1 0  255 255 255 255
-141.734 99 36.7986 0 1 0  255 255 255 255
-95.245 99 61.5392 0 1 0  255 255 255 255
-34.0909 99 58.442 0 1 0  255 255 255 255
-14.9544 99 89.2451 0 1 0  255 255 255 255
-47.2209 99 57.1294 0 1 0  255 255 255 255
128.474 99 115.494 0 1 0  255 255 255 255
172.446 99 126.718 0 1 0  255 255 255 255
-172.446 99 126.718 0 1 0  255 255 255 255
-28.4682 99 20.7848 0 1 0  255 255 255 255
-28.4783 99 173.995 0 1 0  255 255 255 255
-82.2901 99 88.547 0 1 0  255 255 255 255
101.047 99 12.0102 0 1 0  255 255 255 255
-84.2541 99 97.7216 0 1 0  255 255 255 255
128.206 99 4.45035 0 1 0  255 255 255 255
128.206 99 190.55 0 1 0  255 255 255 255
72.8438 99 120.69 0 1 0  255 255 255 255
-118.089 99 137.865 0 1 0  255 255 255 255
-140.907 99 158.189 0 1 0  255 255 255 255
-161.821 99 98.8934 0 1 0  255 255 255 255
-115.86 99 146.773 0 1 0  255 255 255 255
161.82 99 98.8986 0 1 0  255 255 255 255
-150.43 99 61.333 0 1 0  255 255 255 255
150.435 99 61.3336 0 1 0  255 255 255 255
-19.2221 99 107 0 1 0  255 255 255 255
-14.6308 99 64.6841 0 1 0  255 255 255 255
47.4468 99 46.0424 0 1 0  255 255 255 255
-176.063 99 90.5237 0 1 0  255 255 255 255
193.852 99 125.987 0 1 0  255 255 255 255
-193.852 99 125.987 0 1 0  255 255 255 255
-14.6314 99 43.1139 0 1 0  255 255 255 255
-14.6314 99 151.886 0 1 0  255 255 255 255
176.06 99 90.5235 0 1 0  255 255 255 255
-185.975 99 61.3145 0 1 0  255 255 255 255
185.975 99 61.3145 0 1 0  255 255 255 255
86.6671 99 190.004 0 1 0  255 255 255 255
86.6493 99 4.94608 0 1 0  255 255 255 255
50.7443 99 4.33189 0 1 0  255 255 255 255
50.7443 99 190.668 0 1 0  255 255 255 255
-110.959 99 59.8355 0 1 0  255 255 255 255
145.199 99 121.538 0 1 0  255 255 255 255
-13.1452 99 48.5114 0 1 0  255 255 255 255
1.9895 99 13.2744 0 1 0  255 255 255 255
1.94395 99 181.794 0 1 0  255 255 255 255
125.307 99 181.48 0 1 0  255 255 255 255
125.307 99 13.5202 0 1 0  255 255 255 255
38.0817 99 107.498 0 1 0  255 255 255 255
-132.85 99 119.027 0 1 0  255 255 255 255
-85.743 99 141.045 0 1 0  255 255 255 255
-90.1263 99 66.641 0 1 0  255 255 255 255
178.087 99 64.2133 0 1 0  255 255 255 255
-178.087 99 64.2133 0 1 0  255 255 255 255
108.46 99 60.2569 0 1 0  255 255 255 255
88.7122 99 123.104 0 1 0  255 255 255 255
-67.7121 99 81.8423 0 1 0  255 255 255 255
61.9158 99 53.5447 0 1 0  255 255 255 255
-96.4508 99 159.584 0 1 0  255 255 255 255
-6.98625 99 11.8889 0 1 0  255 255 255 255
-6.98723 99 183.112 0 1 0  255 255 255 255
-53.341 99 73.5559 0 1 0  255 255 255 255
75.7868 99 84.2399 0 1 0  255 255 255 255
125.308 99 100.127 0 1 0  255 255 255 255
87.0379 99 131.461 0 1 0  255 255 255 255
122.578 99 190.569 0 1 0  255 255 255 255
122.578 99 4.43098 0 1 0  255 255 255 255
31.3599 99 12.6056 0 1 0  255 255 255 255
31.3656 99 182.394 0 1 0  255 255 255 255
-58.9127 99 138.861 0 1 0  255 255 255 255
-96.4686 99 143.54 0 1 0  255 255 255 255
109.654 99 31.1696 0 1 0  255 255 255 255
-61.5937 99 64.9693 0 1 0  255 255 255 255
-6.47363 99 20.3562 0 1 0  255 255 255 255
-6.61107 99 174.615 0 1 0  255 255 255 255
-133.494 99 128.249 0 1 0  255 255 255 255
-59.6797 99 18.8572 0 1 0  255 255 255 255
-59.6797 99 176.143 0 1 0  255 255 255 255
-119.24 99 129.626 0 1 0  255 255 255 255
-40.5431 99 138.303 0 1 0  255 255 255 255
-127.492 99 190.455 0 1 0  255 255 255 255
-127.494 99 4.53947 0 1 0  255 255 255 255
-97.3082 99 80.1661 0 1 0  255 255 255 255
100.758 99 183.696 0 1 0  255 255 255 255
-188.188 99 135.3 0 1 0  255 255 255 255
188.188 99 135.3 0 1 0  255 255 255 255
-159.673 99 4.8657 0 1 0  255 255 255 255
-159.673 99 190.134 0 1 0  255 255 255 255
-153.863 99 134.857 0 1 0  255 255 255 255
-53.738 99 98.5129 0 1 0  255 255 255 255
86.0945 99 19.9091 0 1 0  255 255 255 255
-151.282 99 87.1607 0 1 0  255 255 255 255
151.287 99 87.1642 0 1 0  255 255 255 255
-17.8589 99 124.348 0 1 0  255 255 255 255
105.735 99 153.315 0 1 0  255 255 255 255
123.863 99 152.491 0 1 0  255 255 255 255
-85.0424 99 20.4313 0 1 0  255 255 255 255
68.489 99 121.391 0 1 0  255 255 255 255
-8.1475 99 57.9468 0 1 0  255 255 255 255
-33.5078 99 83.2497 0 1 0  255 255 255 255
-19.6836 99 54.1287 0 1 0  255 255 255 255
9.15248 99 128.045 0 1 0  255 255 255 255
84.4926 99 114.597 0 1 0  255 255 255 255
-108.403 99 31.219 0 1 0  255 255 255 255
-109.641 99 46.7844 0 1 0  255 255 255 255
28.7324 99 189.777 0 1 0  255 255 255 255
28.755 99 5.22912 0 1 0  255 255 255 255
-141.027 99 133.176 0 1 0  255 255 255 255
39.4212 99 140.285 0 1 0  255 255 255 255
-64.2357 99 111.155 0 1 0  255 255 255 255
65.5141 99 27.5147 0 1 0  255 255 255 255
75.2973 99 137.575 0 1 0  255 255 255 255
136.58 99 121.482 0 1 0  255 255 255 255
-167.402 99 4.10232 0 1 0  255 255 255 255
-167.402 99 190.898 0 1 0  255 255 255 255
27.0066 99 39.3293 0 1 0  255 255 255 255
-86.4361 99 116.498 0 1 0  255 255 255 255
143.615 99 149.271 0 1 0  255 255 255 255
16.2639 99 190.749 0 1 0  255 255 255 255
16.5991 99 4.28051 0 1 0  255 255 255 255
16.4384 99 26.396 0 1 0  255 255 255 255
-57.3858 99 71.9318 0 1 0  255 255 255 255
-90.0064 99 182.946 0 1 0  255 255 255 255
-90.0981 99 12.2002 0 1 0  255 255 255 255
-183.901 99 86.1371 0 1 0  255 255 255 255
183.9 99 86.1369 0 1 0  255 255 255 255
77.3554 99 170.256 0 1 0  255 255 255 255
119.143 99 161.168 0 1 0  255 255 255 255
67.7272 99 71.2041 0 1 0  255 255 255 255
55.9348 99 72.1452 0 1 0  255 255 255 255
160.656 99 190.281 0 1 0  255 255 255 255
160.656 99 4.71884 0 1 0  255 255 255 255
-67.7141 99 125.162 0 1 0  255 255 255 255
-180.241 99 106.496 0 1 0  255 255 255 255
180.241 99 106.496 0 1 0  255 255 255 255
-104.376 99 66.2588 0 1 0  255 255 255 255
47.6307 99 131.974 0 1 0  255 255 255 255
44.336 99 87.6177 0 1 0  255 255 255 255
124.006 99 67.3511 0 1 0  255 255 255 255
-101.751 99 36.5239 0 1 0  255 255 255 255
87.1747 99 51.4034 0 1 0  255 255 255 255
162.335 99 135.797 0 1 0  255 255 255 255
-162.166 99 135.782 0 1 0  255 255 255 255
144.932 99 73.79 0 1 0  255 255 255 255
15.3285 99 182.07 0 1 0  255 255 255 255
-144.919 99 73.8001 0 1 0  255 255 255 255
-99.5041 99 148.031 0 1 0  255 255 255 255
-116.705 99 53.5129 0 1 0  255 255 255 255
-36.8781 99 17.1298 0 1 0  255 255 255 255
