ply
format ascii 1.0
comment VCGLIB generated
element vertex 843
property float x
property float y
property float z
property float nx
property float ny
property float nz
property uchar red
property uchar green
property uchar blue
property uchar alpha
element face 0
property list uchar int vertex_indices
end_header
0 -64.4631 2.23874 -0.571429 -0.0545344 0.425088  255 0 0 255
0 -63.6142 2.34766 -0.571429 -0.0545344 0.425088  255 0 0 255
0 -62.7652 2.45657 -0.571429 -0.0545344 0.425088  255 0 0 255
0 -61.9162 2.56548 -0.571429 -0.0545344 0.425088  255 0 0 255
0 -61.0673 2.6744 -0.571429 -0.0545344 0.425088  255 0 0 255
0 -60.2183 2.78331 -0.571429 -0.0545344 0.425088  255 0 0 255
0 -59.3694 2.89222 -0.571429 -0.0545344 0.425088  255 0 0 255
0 -58.5204 3.00113 -0.571429 -0.0545344 0.425088  255 0 0 255
0 -57.6714 3.11005 -0.571429 -0.0545344 0.425088  255 0 0 255
0 -56.8225 3.21896 -0.571429 -0.0545344 0.425088  255 0 0 255
0 -55.9735 3.32787 -0.571429 -0.0545344 0.425088  255 0 0 255
0 -55.1246 3.43678 -0.571429 -0.0545344 0.425088  255 0 0 255
0 -54.2756 3.5457 -0.571429 -0.0545344 0.425088  255 0 0 255
0 -53.4267 3.65461 -0.571429 -0.0545344 0.425088  255 0 0 255
0 -52.5777 3.76352 -0.571429 -0.0545344 0.425088  255 0 0 255
0 -51.7287 3.87244 -0.571429 -0.0545344 0.425088  255 0 0 255
0 -50.8798 3.98135 -0.571429 -0.0545344 0.425088  255 0 0 255
0 -50.0308 4.09026 -0.5 -0.0636235 0.495935  255 0 0 255
0 -49.1819 4.19917 -0.666667 -0.0424157 0.330624  255 0 0 255
0 -48.3329 4.30809 -0.5 -0.0636235 0.495935  255 0 0 255
0 -47.4839 4.417 -0.571429 -0.0545344 0.425088  255 0 0 255
0 -46.635 4.52591 -0.571429 -0.0545344 0.425088  255 0 0 255
0 -45.786 4.63483 -0.571429 -0.0545344 0.425088  255 0 0 255
0 -44.9371 4.74374 -0.5 -0.0636235 0.495936  255 0 0 255
0 -44.0881 4.85265 -0.571429 -0.0545344 0.425088  255 0 0 255
0 -43.2392 4.96157 -0.5 -0.0636235 0.495936  255 0 0 255
0 -42.3902 5.07048 -0.571429 -0.0545344 0.425088  255 0 0 255
0 -41.5412 5.17939 -0.5 -0.0636235 0.495936  255 255 255 255
0 -40.6923 5.2883 -0.5 -0.0636235 0.495936  255 255 255 255
0 -39.8433 5.39722 -0.5 -0.0636235 0.495936  255 0 0 255
0 -38.9944 5.50613 -0.428571 -0.0727126 0.566783  255 0 0 255
0 -38.1454 5.61504 -0.5 -0.0636235 0.495936  255 0 0 255
0 -37.2964 5.72395 -0.6 -0.0508988 0.396748  255 0 0 255
0 -36.4475 5.83287 -0.428571 -0.0727126 0.566783  255 0 0 255
0 -35.5985 5.94178 -0.5 -0.0636235 0.495936  255 0 0 255
0 -34.7496 6.05069 -0.5 -0.0636235 0.495936  255 0 0 255
0 -33.9006 6.15961 -0.5 -0.0636235 0.495936  255 255 255 255
0 -33.0517 6.26852 -0.5 -0.0636235 0.495936  255 0 0 255
0 -32.2027 6.37743 -0.428571 -0.0727126 0.566783  255 0 0 255
0 -31.3537 6.48634 -0.6 -0.0508988 0.396748  255 0 0 255
0 -30.5048 6.59526 -0.428571 -0.0727126 0.566783  255 0 0 255
0 -29.6558 6.70417 -0.5 -0.0636235 0.495936  255 0 0 255
0 -28.8069 6.81308 -0.5 -0.0636235 0.495936  255 255 255 255
0 -27.9579 6.922 -0.5 -0.0636235 0.495936  255 0 0 255
0 -27.1089 7.03091 -0.5 -0.0636235 0.495936  255 0 0 255
0 -26.26 7.13982 -0.5 -0.0636235 0.495936  255 0 0 255
0 -25.411 7.24873 -0.5 -0.0636235 0.495936  255 0 0 255
0 -24.5621 7.35765 -0.5 -0.0636235 0.495936  255 0 0 255
0 -23.7131 7.46656 -0.5 -0.0636235 0.495936  255 0 0 255
0 -22.8641 7.57547 -0.5 -0.0636235 0.495936  255 255 255 255
0 -22.0152 7.68438 -0.5 -0.0636235 0.495936  255 255 255 255
0 -21.1662 7.7933 -0.5 -0.0636235 0.495936  255 255 255 255
0 -20.3173 7.90221 -0.5 -0.0636235 0.495936  255 0 0 255
0 -19.4683 8.01112 -0.5 -0.0636235 0.495936  255 0 0 255
0 -18.6194 8.12004 -0.571429 -0.0545344 0.425088  255 0 0 255
0 -17.7704 8.22895 -0.5 -0.0636235 0.495936  255 0 0 255
0 -16.9214 8.33786 -0.571429 -0.0545344 0.425088  255 0 0 255
0 -16.0725 8.44678 -0.5 -0.0636235 0.495936  255 0 0 255
0 -15.2235 8.55569 -0.5 -0.0636235 0.495936  255 0 0 255
0 -14.3746 8.6646 -0.5 -0.0636235 0.495936  255 0 0 255
0 -13.5256 8.77351 -0.5 -0.0636235 0.495936  255 0 0 255
0 -12.6766 8.88243 -0.5 -0.0636235 0.495936  255 0 0 255
0 -11.8277 8.99134 -0.5 -0.0636235 0.495936  255 0 0 255
0 -10.9787 9.10025 -0.5 -0.0636235 0.495936  255 0 0 255
0 -10.1298 9.20916 -0.5 -0.0636235 0.495936  255 0 0 255
0 -9.28081 9.31808 -0.5 -0.0636235 0.495936  255 0 0 255
0 -8.43185 9.42699 -0.571429 -0.0545344 0.425088  255 0 0 255
0 -7.58289 9.5359 -0.5 -0.0636235 0.495936  255 0 0 255
0 -6.73393 9.64482 -0.5 -0.0636235 0.495936  255 0 0 255
0 -5.88498 9.75373 -0.428571 -0.0727126 0.566783  255 0 0 255
0 -5.03602 9.86264 -0.6 -0.0508988 0.396748  255 0 0 255
0 -4.18706 9.97155 -0.5 -0.0636235 0.495935  255 0 0 255
0 -3.3381 10.0805 -0.5 -0.0636235 0.495936  255 0 0 255
0 -1.75986 10.4318 -0.5 -0.245943 0.43533  255 0 0 255
0 -43.5619 -3.68228 -0.555556 0 0.444444  255 255 255 255
0 -44.0619 -3.18228 -0.625 0.375 0  255 0 0 255
0 -43.5619 -2.68228 -0.555556 0 -0.444444  255 0 0 255
0 -31.1132 -5.19745 -0.555556 0 0.444444  255 255 255 255
0 -31.6132 -4.69745 -0.625 0.375 0  255 0 0 255
0 -31.1132 -4.19745 -0.555556 0 -0.444444  255 0 0 255
0 -18.6645 -6.71261 -0.555556 0 0.444444  255 255 255 255
0 -19.1645 -6.21261 -0.625 0.375 0  255 0 0 255
0 -18.6645 -5.71261 -0.555556 0 -0.444444  255 0 0 255
0 -6.21581 -8.22778 -0.555556 0 0.444444  255 255 255 255
0 -6.71581 -7.72778 -0.571429 0.428571 0  255 0 0 255
0 -6.21581 -7.22778 -0.555556 0 -0.444444  255 0 0 255
0 0.727289 -10.6863 -0.555556 -0.32324 0.305036  255 0 0 255
0 0.028961 -10.9996 -0.5 -0.0144805 0.49979  255 0 0 255
0 -0.686332 -10.7273 -0.5 0.343166 0.363645  255 0 0 255
0 -0.999581 -10.029 -0.555556 0.444258 0.0128716  255 255 255 255
0 -0.727289 -9.31367 -0.5 0.363645 -0.343166  255 0 0 255
0 -0.028961 -9.00042 -0.555556 0.0128716 -0.444258  255 0 0 255
0 0.686332 -9.27271 -0.555556 -0.305036 -0.32324  255 0 0 255
1.33333 -0.910412 -8.80788 0 -0.606941 0.794747  255 255 255 255
0.666667 -0.910412 -8.80788 0 -0.606941 0.794747  255 255 255 255
2 -1.59942 -9.14829 0.428571 -0.149963 0.5514  255 0 0 255
1.33333 -2.36594 -9.20374 0 0.120821 0.992674  255 255 255 255
0.666667 -2.36594 -9.20374 0 0.120821 0.992674  255 255 255 255
2 -1.75986 10.4318 0.5 -0.245943 0.43533  255 0 0 255
2 -77.1975 0.605052 0.571429 -0.0545344 0.425088  255 0 0 255
2 -76.3485 0.713965 0.571429 -0.0545344 0.425088  255 0 0 255
2 -75.4996 0.822877 0.571429 -0.0545344 0.425088  255 0 0 255
2 -74.6506 0.93179 0.571429 -0.0545344 0.425088  255 0 0 255
2 -73.8017 1.0407 0.571429 -0.0545344 0.425088  255 0 0 255
2 -72.9527 1.14962 0.571429 -0.0545344 0.425088  255 0 0 255
2 -72.1037 1.25853 0.571429 -0.0545344 0.425088  255 0 0 255
2 -71.2548 1.36744 0.5 -0.0636235 0.495935  255 0 0 255
2 -70.4058 1.47635 0.666667 -0.0424157 0.330624  255 0 0 255
2 -69.5569 1.58527 0.5 -0.0636235 0.495935  255 0 0 255
2 -68.7079 1.69418 0.571429 -0.0545344 0.425088  255 0 0 255
2 -67.8589 1.80309 0.571429 -0.0545344 0.425088  255 0 0 255
2 -67.01 1.91201 0.571429 -0.0545344 0.425088  255 0 0 255
2 -66.161 2.02092 0.571429 -0.0545344 0.425088  255 0 0 255
2 -65.3121 2.12983 0.571429 -0.0545344 0.425088  255 0 0 255
2 -64.4631 2.23874 0.571429 -0.0545344 0.425088  255 0 0 255
2 -63.6142 2.34766 0.571429 -0.0545344 0.425088  255 0 0 255
2 -62.7652 2.45657 0.571429 -0.0545344 0.425088  255 0 0 255
2 -61.9162 2.56548 0.571429 -0.0545344 0.425088  255 0 0 255
2 -61.0673 2.6744 0.571429 -0.0545344 0.425088  255 0 0 255
2 -60.2183 2.78331 0.571429 -0.0545344 0.425088  255 0 0 255
2 -59.3694 2.89222 0.571429 -0.0545344 0.425088  255 0 0 255
2 -58.5204 3.00113 0.571429 -0.0545344 0.425088  255 0 0 255
2 -57.6714 3.11005 0.571429 -0.0545344 0.425088  255 0 0 255
2 -56.8225 3.21896 0.571429 -0.0545344 0.425088  255 0 0 255
2 -55.9735 3.32787 0.571429 -0.0545344 0.425088  255 0 0 255
2 -55.1246 3.43678 0.571429 -0.0545344 0.425088  255 0 0 255
2 -54.2756 3.5457 0.571429 -0.0545344 0.425088  255 0 0 255
2 -53.4267 3.65461 0.571429 -0.0545344 0.425088  255 0 0 255
2 -52.5777 3.76352 0.571429 -0.0545344 0.425088  255 0 0 255
2 -51.7287 3.87244 0.571429 -0.0545344 0.425088  255 0 0 255
2 -50.8798 3.98135 0.571429 -0.0545344 0.425088  255 0 0 255
2 -50.0308 4.09026 0.5 -0.0636235 0.495935  255 0 0 255
2 -49.1819 4.19917 0.666667 -0.0424157 0.330624  255 0 0 255
2 -48.3329 4.30809 0.5 -0.0636235 0.495935  255 0 0 255
2 -47.4839 4.417 0.571429 -0.0545344 0.425088  255 0 0 255
2 -46.635 4.52591 0.571429 -0.0545344 0.425088  255 0 0 255
2 -45.786 4.63483 0.571429 -0.0545344 0.425088  255 0 0 255
2 -44.9371 4.74374 0.5 -0.0636235 0.495936  255 0 0 255
2 -44.0881 4.85265 0.571429 -0.0545344 0.425088  255 0 0 255
2 -43.2392 4.96157 0.5 -0.0636235 0.495936  255 0 0 255
2 -42.3902 5.07048 0.571429 -0.0545344 0.425088  255 0 0 255
2 -41.5412 5.17939 0.5 -0.0636235 0.495936  255 0 0 255
2 -40.6923 5.2883 0.5 -0.0636235 0.495936  255 255 255 255
2 -39.8433 5.39722 0.5 -0.0636235 0.495936  255 0 0 255
2 -38.9944 5.50613 0.428571 -0.0727126 0.566783  255 0 0 255
2 -38.1454 5.61504 0.6 -0.0508988 0.396748  255 0 0 255
2 -37.2964 5.72395 0.5 -0.0636235 0.495936  255 0 0 255
2 -36.4475 5.83287 0.428571 -0.0727126 0.566783  255 0 0 255
2 -35.5985 5.94178 0.5 -0.0636235 0.495936  255 0 0 255
2 -34.7496 6.05069 0.5 -0.0636235 0.495936  255 0 0 255
2 -33.9006 6.15961 0.5 -0.0636235 0.495936  255 255 255 255
2 -33.0517 6.26852 0.5 -0.0636235 0.495936  255 0 0 255
2 -32.2027 6.37743 0.428571 -0.0727126 0.566783  255 0 0 255
2 -31.3537 6.48634 0.6 -0.0508988 0.396748  255 0 0 255
2 -30.5048 6.59526 0.428571 -0.0727126 0.566783  255 0 0 255
2 -29.6558 6.70417 0.5 -0.0636235 0.495936  255 0 0 255
2 -28.8069 6.81308 0.5 -0.0636235 0.495936  255 255 255 255
2 -27.9579 6.922 0.5 -0.0636235 0.495936  255 255 255 255
2 -27.1089 7.03091 0.5 -0.0636235 0.495936  255 0 0 255
2 -26.26 7.13982 0.5 -0.0636235 0.495936  255 0 0 255
2 -25.411 7.24873 0.5 -0.0636235 0.495936  255 0 0 255
2 -24.5621 7.35765 0.5 -0.0636235 0.495936  255 0 0 255
2 -23.7131 7.46656 0.5 -0.0636235 0.495936  255 0 0 255
2 -22.8641 7.57547 0.5 -0.0636235 0.495936  255 255 255 255
2 -22.0152 7.68438 0.5 -0.0636235 0.495936  255 255 255 255
2 -21.1662 7.7933 0.5 -0.0636235 0.495936  255 255 255 255
2 -20.3173 7.90221 0.5 -0.0636235 0.495936  255 0 0 255
2 -19.4683 8.01112 0.5 -0.0636235 0.495936  255 0 0 255
2 -18.6194 8.12004 0.571429 -0.0545344 0.425088  255 0 0 255
2 -17.7704 8.22895 0.5 -0.0636235 0.495936  255 0 0 255
2 -16.9214 8.33786 0.571429 -0.0545344 0.425088  255 0 0 255
2 -16.0725 8.44678 0.5 -0.0636235 0.495936  255 0 0 255
2 -15.2235 8.55569 0.5 -0.0636235 0.495936  255 0 0 255
2 -14.3746 8.6646 0.5 -0.0636235 0.495936  255 0 0 255
2 -13.5256 8.77351 0.5 -0.0636235 0.495936  255 0 0 255
2 -12.6766 8.88243 0.5 -0.0636235 0.495936  255 0 0 255
2 -11.8277 8.99134 0.5 -0.0636235 0.495936  255 0 0 255
2 -10.9787 9.10025 0.5 -0.0636235 0.495936  255 0 0 255
2 -10.1298 9.20916 0.5 -0.0636235 0.495936  255 0 0 255
2 -9.28081 9.31808 0.5 -0.0636235 0.495936  255 0 0 255
2 -8.43185 9.42699 0.571429 -0.0545344 0.425088  255 0 0 255
2 -7.58289 9.5359 0.5 -0.0636235 0.495936  255 0 0 255
2 -6.73393 9.64482 0.5 -0.0636235 0.495936  255 0 0 255
2 -5.88498 9.75373 0.428571 -0.0727126 0.566783  255 0 0 255
2 -5.03602 9.86264 0.6 -0.0508988 0.396748  255 0 0 255
2 -4.18706 9.97155 0.571429 -0.0545344 0.425088  255 0 0 255
2 -3.3381 10.0805 0.5 -0.0636235 0.495936  255 0 0 255
2 -78.6976 0.330759 0.555556 -0.109402 0.430769  255 0 0 255
2 -79.3488 0.16538 0.5 -0.123077 0.484615  255 255 255 255
2 -78.6976 -0.330759 0.5 -0.123077 -0.484616  255 0 0 255
2 -79.3488 -0.16538 0.5 -0.123077 -0.484615  255 255 255 255
2 -77.1975 -0.605052 0.571429 -0.0545344 -0.425088  255 0 0 255
2 -76.3485 -0.713965 0.571429 -0.0545344 -0.425088  255 0 0 255
2 -75.4996 -0.822877 0.571429 -0.0545344 -0.425088  255 0 0 255
2 -74.6506 -0.93179 0.571429 -0.0545344 -0.425088  255 0 0 255
2 -73.8017 -1.0407 0.571429 -0.0545344 -0.425088  255 0 0 255
2 -72.9527 -1.14962 0.571429 -0.0545344 -0.425088  255 0 0 255
2 -72.1037 -1.25853 0.571429 -0.0545344 -0.425088  255 0 0 255
2 -71.2548 -1.36744 0.5 -0.0636235 -0.495935  255 0 0 255
2 -70.4058 -1.47635 0.666667 -0.0424157 -0.330624  255 0 0 255
2 -69.5569 -1.58527 0.5 -0.0636235 -0.495935  255 0 0 255
2 -68.7079 -1.69418 0.571429 -0.0545344 -0.425088  255 0 0 255
2 -67.8589 -1.80309 0.571429 -0.0545344 -0.425088  255 0 0 255
2 -67.01 -1.91201 0.571429 -0.0545344 -0.425088  255 0 0 255
2 -66.161 -2.02092 0.571429 -0.0545344 -0.425088  255 0 0 255
2 -65.3121 -2.12983 0.571429 -0.0545344 -0.425088  255 0 0 255
2 -64.4631 -2.23874 0.571429 -0.0545344 -0.425088  255 0 0 255
2 -63.6142 -2.34766 0.571429 -0.0545344 -0.425088  255 0 0 255
2 -62.7652 -2.45657 0.571429 -0.0545344 -0.425088  255 0 0 255
2 -61.9162 -2.56548 0.571429 -0.0545344 -0.425088  255 0 0 255
2 -61.0673 -2.6744 0.571429 -0.0545344 -0.425088  255 0 0 255
2 -60.2183 -2.78331 0.571429 -0.0545344 -0.425088  255 0 0 255
2 -59.3694 -2.89222 0.571429 -0.0545344 -0.425088  255 0 0 255
2 -58.5204 -3.00113 0.5 -0.0636235 -0.495935  255 0 0 255
2 -57.6714 -3.11005 0.666667 -0.0424157 -0.330624  255 0 0 255
2 -56.8225 -3.21896 0.5 -0.0636235 -0.495935  255 0 0 255
2 -55.9735 -3.32787 0.5 -0.0636235 -0.495935  255 0 0 255
2 -55.1246 -3.43678 0.666667 -0.0424157 -0.330624  255 0 0 255
2 -54.2756 -3.5457 0.5 -0.0636235 -0.495935  255 0 0 255
2 -53.4267 -3.65461 0.571429 -0.0545344 -0.425088  255 0 0 255
2 -52.5777 -3.76352 0.571429 -0.0545344 -0.425088  255 0 0 255
2 -51.7287 -3.87244 0.571429 -0.0545344 -0.425088  255 0 0 255
2 -50.8798 -3.98135 0.571429 -0.0545344 -0.425088  255 0 0 255
2 -50.0308 -4.09026 0.5 -0.0636235 -0.495935  255 0 0 255
2 -49.1819 -4.19917 0.666667 -0.0424157 -0.330624  255 0 0 255
2 -48.3329 -4.30809 0.5 -0.0636235 -0.495935  255 0 0 255
2 -47.4839 -4.417 0.571429 -0.0545344 -0.425088  255 0 0 255
2 -46.635 -4.52591 0.571429 -0.0545344 -0.425088  255 0 0 255
2 -45.786 -4.63483 0.571429 -0.0545344 -0.425088  255 0 0 255
2 -44.9371 -4.74374 0.5 -0.0636235 -0.495936  255 0 0 255
2 -44.0881 -4.85265 0.571429 -0.0545344 -0.425088  255 0 0 255
2 -43.2392 -4.96157 0.5 -0.0636235 -0.495936  255 0 0 255
2 -42.3902 -5.07048 0.571429 -0.0545344 -0.425088  255 0 0 255
2 -41.5412 -5.17939 0.5 -0.0636235 -0.495936  255 255 255 255
2 -40.6923 -5.2883 0.5 -0.0636235 -0.495936  255 255 255 255
2 -39.8433 -5.39722 0.5 -0.0636235 -0.495936  255 0 0 255
2 -38.9944 -5.50613 0.428571 -0.0727126 -0.566783  255 0 0 255
2 -38.1454 -5.61504 0.5 -0.0636235 -0.495936  255 0 0 255
2 -37.2964 -5.72395 0.6 -0.0508988 -0.396748  255 0 0 255
2 -36.4475 -5.83287 0.428571 -0.0727126 -0.566783  255 0 0 255
2 -35.5985 -5.94178 0.428571 -0.0727126 -0.566783  255 0 0 255
2 -34.7496 -6.05069 0.6 -0.0508988 -0.396748  255 0 0 255
2 -33.9006 -6.15961 0.428571 -0.0727126 -0.566783  255 0 0 255
2 -33.0517 -6.26852 0.5 -0.0636235 -0.495936  255 0 0 255
2 -32.2027 -6.37743 0.5 -0.0636235 -0.495936  255 0 0 255
2 -31.3537 -6.48634 0.5 -0.0636235 -0.495936  255 0 0 255
2 -30.5048 -6.59526 0.5 -0.0636235 -0.495936  255 0 0 255
2 -29.6558 -6.70417 0.5 -0.0636235 -0.495936  255 0 0 255
2 -28.8069 -6.81308 0.5 -0.0636235 -0.495936  255 255 255 255
2 -27.9579 -6.922 0.5 -0.0636235 -0.495936  255 0 0 255
2 -27.1089 -7.03091 0.5 -0.0636235 -0.495936  255 0 0 255
2 -26.26 -7.13982 0.5 -0.0636235 -0.495936  255 0 0 255
2 -25.411 -7.24873 0.5 -0.0636235 -0.495936  255 0 0 255
2 -24.5621 -7.35765 0.5 -0.0636235 -0.495936  255 0 0 255
2 -23.7131 -7.46656 0.5 -0.0636235 -0.495936  255 0 0 255
2 -22.8641 -7.57547 0.5 -0.0636235 -0.495936  255 255 255 255
2 -22.0152 -7.68438 0.5 -0.0636235 -0.495936  255 255 255 255
2 -21.1662 -7.7933 0.5 -0.0636235 -0.495936  255 255 255 255
2 -20.3173 -7.90221 0.5 -0.0636235 -0.495936  255 0 0 255
2 -19.4683 -8.01112 0.5 -0.0636235 -0.495936  255 0 0 255
2 -18.6194 -8.12004 0.571429 -0.0545344 -0.425088  255 0 0 255
2 -17.7704 -8.22895 0.5 -0.0636235 -0.495936  255 0 0 255
2 -16.9214 -8.33786 0.571429 -0.0545344 -0.425088  255 0 0 255
2 -16.0725 -8.44678 0.5 -0.0636235 -0.495936  255 0 0 255
2 -15.2235 -8.55569 0.5 -0.0636235 -0.495936  255 0 0 255
2 -14.3746 -8.6646 0.5 -0.0636235 -0.495936  255 0 0 255
2 -13.5256 -8.77351 0.5 -0.0636235 -0.495936  255 0 0 255
2 -12.6766 -8.88243 0.5 -0.0636235 -0.495936  255 0 0 255
2 -11.8277 -8.99134 0.5 -0.0636235 -0.495936  255 0 0 255
2 -10.9787 -9.10025 0.5 -0.0636235 -0.495936  255 0 0 255
2 -10.1298 -9.20916 0.5 -0.0636235 -0.495936  255 0 0 255
2 -9.28081 -9.31808 0.5 -0.0636235 -0.495936  255 0 0 255
2 -8.43185 -9.42699 0.571429 -0.0545344 -0.425088  255 0 0 255
2 -7.58289 -9.5359 0.5 -0.0636235 -0.495936  255 0 0 255
2 -6.73393 -9.64482 0.5 -0.0636235 -0.495936  255 0 0 255
2 -5.88498 -9.75373 0.428571 -0.0727126 -0.566783  255 0 0 255
2 -5.03602 -9.86264 0.6 -0.0508988 -0.396748  255 0 0 255
2 -4.18706 -9.97155 0.571429 -0.0545344 -0.425088  255 0 0 255
2 -3.3381 -10.0805 0.5 -0.0636235 -0.495936  255 0 0 255
2 -1.75986 -10.4318 0.5 -0.245943 -0.43533  255 0 0 255
2 -0.195301 -8.51277 0.5 -0.0651 0.495744  255 0 0 255
2 0.571758 -8.61324 0.444444 0.211762 0.513613  255 0 0 255
2 1.18674 -9.08258 0.428571 0.45209 0.349493  255 0 0 255
2 1.48606 -9.79594 0.5 0.495351 0.0680195  255 0 0 255
2 1.3901 -10.5636 0.5 0.463367 -0.18786  255 0 0 255
2 0.924395 -11.1813 0.428571 0.35215 -0.450023  255 0 0 255
2 0.21281 -11.4848 0.375 0.0886713 -0.618678  255 0 0 255
2 -0.555379 -11.3934 0.428571 -0.211573 -0.530818  255 0 0 255
2 -3.6895 -9.04264 0.5 0.0604105 0.496337  255 0 0 255
2 -3.02772 -9.12319 0.5 0.0604105 0.496337  255 0 0 255
2 -5.01782 -8.58591 0.5 0.39368 0.308246  255 0 0 255
2 -6.83231 -6.94042 0.5 -0.308246 0.39368  255 0 0 255
2 -6.09499 -6.7351 0.428571 0.0690406 0.567242  255 0 0 255
2 -5.42845 -7.11128 0.428571 0.44992 0.352282  255 0 0 255
2 -7.58467 -8.27349 0.5 -0.308246 0.39368  255 0 0 255
2 -15.9522 -7.55012 0.5 0.0604105 0.496337  255 0 0 255
2 -15.1044 -7.65331 0.5 0.0604105 0.496337  255 0 0 255
2 -14.2566 -7.75649 0.5 0.0604105 0.496337  255 0 0 255
2 -13.4088 -7.85968 0.5 0.0604105 0.496337  255 0 0 255
2 -12.561 -7.96287 0.5 0.0604105 0.496337  255 0 0 255
2 -11.7132 -8.06606 0.428571 0.0690406 0.567242  255 0 0 255
2 -10.8654 -8.16924 0.6 0.0483284 0.39707  255 0 0 255
2 -10.0176 -8.27243 0.5 0.0604105 0.496337  255 0 0 255
2 -9.16978 -8.37562 0.5 0.0604105 0.496337  255 0 0 255
2 -17.4665 -7.07075 0.5 0.39368 0.308246  255 0 0 255
2 -19.281 -5.42525 0.5 -0.308246 0.39368  255 0 0 255
2 -18.5437 -5.21994 0.428571 0.0690406 0.567242  255 0 0 255
2 -17.8771 -5.59612 0.428571 0.44992 0.352282  255 0 0 255
2 -20.0334 -6.75833 0.5 -0.308246 0.39368  255 0 0 255
2 -28.4009 -6.03495 0.5 0.0604105 0.496337  255 0 0 255
2 -27.5531 -6.13814 0.5 0.0604105 0.496337  255 0 0 255
2 -26.7053 -6.24133 0.5 0.0604105 0.496337  255 0 0 255
2 -25.8575 -6.34452 0.5 0.0604105 0.496337  255 0 0 255
2 -25.0097 -6.4477 0.5 0.0604105 0.496337  255 0 0 255
2 -24.1619 -6.55089 0.428571 0.0690406 0.567242  255 0 0 255
2 -23.3141 -6.65408 0.6 0.0483284 0.39707  255 0 0 255
2 -22.4663 -6.75727 0.428571 0.0690406 0.567242  255 0 0 255
2 -21.6185 -6.86046 0.5 0.0604105 0.496337  255 0 0 255
2 -29.9152 -5.55558 0.428571 0.44992 0.352282  255 0 0 255
2 -31.7297 -3.91009 0.5 -0.308246 0.39368  255 0 0 255
2 -30.9924 -3.70477 0.428571 0.0690406 0.567242  255 0 0 255
2 -30.3258 -4.08095 0.428571 0.44992 0.352282  255 0 0 255
2 -32.4821 -5.24317 0.5 -0.308246 0.39368  255 0 0 255
2 -40.8496 -4.51979 0.5 0.0604105 0.496337  255 0 0 255
2 -40.0018 -4.62298 0.428571 0.0690406 0.567242  255 0 0 255
2 -39.154 -4.72616 0.6 0.0483284 0.39707  255 0 0 255
2 -38.3062 -4.82935 0.428571 0.0690406 0.567242  255 0 0 255
2 -37.4584 -4.93254 0.5 0.0604105 0.496337  255 0 0 255
2 -36.6106 -5.03573 0.5 0.0604105 0.496337  255 0 0 255
2 -35.7628 -5.13892 0.5 0.0604105 0.496337  255 0 0 255
2 -34.915 -5.2421 0.5 0.0604105 0.496337  255 0 0 255
2 -34.0672 -5.34529 0.5 0.0604105 0.496337  255 0 0 255
2 -42.3639 -4.04042 0.5 0.39368 0.308246  255 0 0 255
2 -44.1784 -2.39492 0.5 -0.308246 0.39368  255 0 0 255
2 -43.4411 -2.18961 0.428571 0.0690406 0.567242  255 0 0 255
2 -42.7745 -2.56579 0.428571 0.44992 0.352282  255 0 0 255
2 -44.9307 -3.728 0.555556 -0.273997 0.349938  255 0 0 255
2 -77.134 -0.103508 0.571429 0.0517804 0.425432  255 255 255 255
2 -76.2836 -0.207017 0.571429 0.0517804 0.425432  255 0 0 255
2 -75.4331 -0.310525 0.666667 0.0402737 0.330891  255 0 0 255
2 -74.5827 -0.414033 0.5 0.0604105 0.496337  255 0 0 255
2 -73.7323 -0.517541 0.571429 0.0517804 0.425432  255 0 0 255
2 -72.8819 -0.62105 0.571429 0.0517804 0.425432  255 0 0 255
2 -72.0314 -0.724558 0.571429 0.0517804 0.425432  255 0 0 255
2 -71.181 -0.828066 0.571429 0.0517804 0.425432  255 0 0 255
2 -70.3306 -0.931575 0.571429 0.0517804 0.425432  255 0 0 255
2 -69.4801 -1.03508 0.571429 0.0517804 0.425432  255 0 0 255
2 -68.6297 -1.13859 0.571429 0.0517804 0.425432  255 0 0 255
2 -67.7793 -1.2421 0.571429 0.0517804 0.425432  255 0 0 255
2 -66.9288 -1.34561 0.571429 0.0517804 0.425432  255 0 0 255
2 -66.0784 -1.44912 0.571429 0.0517804 0.425432  255 0 0 255
2 -65.228 -1.55262 0.5 0.0604105 0.496337  255 0 0 255
2 -64.3775 -1.65613 0.666667 0.0402737 0.330891  255 0 0 255
2 -63.5271 -1.75964 0.5 0.0604105 0.496337  255 0 0 255
2 -62.6767 -1.86315 0.571429 0.0517804 0.425432  255 0 0 255
2 -61.8262 -1.96666 0.571429 0.0517804 0.425432  255 0 0 255
2 -60.9758 -2.07017 0.571429 0.0517804 0.425432  255 0 0 255
2 -60.1254 -2.17367 0.571429 0.0517804 0.425432  255 0 0 255
2 -59.275 -2.27718 0.571429 0.0517804 0.425432  255 0 0 255
2 -58.4245 -2.38069 0.571429 0.0517804 0.425432  255 0 0 255
2 -57.5741 -2.4842 0.571429 0.0517804 0.425432  255 0 0 255
2 -56.7237 -2.58771 0.571429 0.0517804 0.425432  255 0 0 255
2 -55.8732 -2.69122 0.571429 0.0517804 0.425432  255 0 0 255
2 -55.0228 -2.79472 0.571429 0.0517804 0.425432  255 0 0 255
2 -54.1724 -2.89823 0.571429 0.0517804 0.425432  255 0 0 255
2 -53.3219 -3.00174 0.571429 0.0517804 0.425432  255 0 0 255
2 -52.4715 -3.10525 0.571429 0.0517804 0.425432  255 0 0 255
2 -51.6211 -3.20876 0.571429 0.0517804 0.425432  255 0 0 255
2 -50.7706 -3.31227 0.571429 0.0517804 0.425432  255 0 0 255
2 -49.9202 -3.41577 0.571429 0.0517804 0.425432  255 0 0 255
2 -49.0698 -3.51928 0.5 0.0604105 0.496337  255 0 0 255
2 -48.2193 -3.62279 0.666667 0.0402737 0.330891  255 0 0 255
2 -47.3689 -3.7263 0.5 0.0604105 0.496337  255 0 0 255
2 -46.5185 -3.82981 0.571429 0.0517804 0.425432  255 0 0 255
2 -77.134 0.103508 0.571429 0.0517804 -0.425432  255 255 255 255
2 -76.2836 0.207017 0.571429 0.0517804 -0.425432  255 255 255 255
2 -75.4331 0.310525 0.666667 0.0402737 -0.330891  255 0 0 255
2 -74.5827 0.414033 0.5 0.0604105 -0.496337  255 0 0 255
2 -73.7323 0.517541 0.5 0.0604105 -0.496337  255 0 0 255
2 -72.8819 0.62105 0.666667 0.0402737 -0.330891  255 0 0 255
2 -72.0314 0.724558 0.5 0.0604105 -0.496337  255 0 0 255
2 -71.181 0.828066 0.571429 0.0517804 -0.425432  255 0 0 255
2 -70.3306 0.931575 0.571429 0.0517804 -0.425432  255 0 0 255
2 -69.4801 1.03508 0.571429 0.0517804 -0.425432  255 0 0 255
2 -68.6297 1.13859 0.571429 0.0517804 -0.425432  255 0 0 255
2 -67.7793 1.2421 0.5 0.0604105 -0.496337  255 0 0 255
2 -66.9288 1.34561 0.666667 0.0402737 -0.330891  255 0 0 255
2 -66.0784 1.44912 0.5 0.0604105 -0.496337  255 0 0 255
2 -65.228 1.55262 0.5 0.0604105 -0.496337  255 0 0 255
2 -64.3775 1.65613 0.666667 0.0402737 -0.330891  255 0 0 255
2 -63.5271 1.75964 0.5 0.0604105 -0.496337  255 0 0 255
2 -62.6767 1.86315 0.571429 0.0517804 -0.425432  255 0 0 255
2 -61.8262 1.96666 0.571429 0.0517804 -0.425432  255 0 0 255
2 -60.9758 2.07017 0.571429 0.0517804 -0.425432  255 0 0 255
2 -60.1254 2.17367 0.571429 0.0517804 -0.425432  255 0 0 255
2 -59.275 2.27718 0.571429 0.0517804 -0.425432  255 0 0 255
2 -58.4245 2.38069 0.571429 0.0517804 -0.425432  255 0 0 255
2 -57.5741 2.4842 0.571429 0.0517804 -0.425432  255 0 0 255
2 -56.7237 2.58771 0.571429 0.0517804 -0.425432  255 0 0 255
2 -55.8732 2.69122 0.5 0.0604105 -0.496337  255 0 0 255
2 -55.0228 2.79472 0.666667 0.0402737 -0.330891  255 0 0 255
2 -54.1724 2.89823 0.5 0.0604105 -0.496337  255 0 0 255
2 -53.3219 3.00174 0.571429 0.0517804 -0.425432  255 0 0 255
2 -52.4715 3.10525 0.571429 0.0517804 -0.425432  255 0 0 255
2 -51.6211 3.20876 0.5 0.0604105 -0.496337  255 0 0 255
2 -50.7706 3.31227 0.666667 0.0402737 -0.330891  255 0 0 255
2 -49.9202 3.41577 0.5 0.0604105 -0.496337  255 0 0 255
2 -49.0698 3.51928 0.5 0.0604105 -0.496337  255 0 0 255
2 -48.2193 3.62279 0.666667 0.0402737 -0.330891  255 0 0 255
2 -47.3689 3.7263 0.5 0.0604105 -0.496337  255 0 0 255
2 -46.5185 3.82981 0.571429 0.0517804 -0.425432  255 0 0 255
2 -44.9307 3.728 0.555556 -0.273997 -0.349938  255 0 0 255
2 -44.1784 2.39492 0.428571 -0.352282 -0.44992  255 0 0 255
2 -43.4411 2.18961 0.428571 0.0690406 -0.567242  255 0 0 255
2 -42.7745 2.56579 0.5 0.39368 -0.308246  255 0 0 255
2 -42.3639 4.04042 0.5 0.39368 -0.308246  255 0 0 255
2 -40.8496 4.51979 0.5 0.0604105 -0.496337  255 0 0 255
2 -40.0018 4.62298 0.428571 0.0690406 -0.567242  255 0 0 255
2 -39.154 4.72616 0.6 0.0483284 -0.39707  255 0 0 255
2 -38.3062 4.82935 0.428571 0.0690406 -0.567242  255 0 0 255
2 -37.4584 4.93254 0.5 0.0604105 -0.496337  255 0 0 255
2 -36.6106 5.03573 0.5 0.0604105 -0.496337  255 0 0 255
2 -35.7628 5.13892 0.5 0.0604105 -0.496337  255 0 0 255
2 -34.915 5.2421 0.5 0.0604105 -0.496337  255 0 0 255
2 -34.0672 5.34529 0.5 0.0604105 -0.496337  255 0 0 255
2 -32.4821 5.24317 0.5 -0.308246 -0.39368  255 0 0 255
2 -31.7297 3.91009 0.428571 -0.352282 -0.44992  255 0 0 255
2 -30.9924 3.70477 0.428571 0.0690406 -0.567242  255 0 0 255
2 -30.3258 4.08095 0.5 0.39368 -0.308246  255 0 0 255
2 -29.9152 5.55558 0.428571 0.44992 -0.352282  255 0 0 255
2 -28.4009 6.03495 0.5 0.0604105 -0.496337  255 0 0 255
2 -27.5531 6.13814 0.5 0.0604105 -0.496337  255 0 0 255
2 -26.7053 6.24133 0.5 0.0604105 -0.496337  255 0 0 255
2 -25.8575 6.34452 0.5 0.0604105 -0.496337  255 0 0 255
2 -25.0097 6.4477 0.5 0.0604105 -0.496337  255 0 0 255
2 -24.1619 6.55089 0.428571 0.0690406 -0.567242  255 0 0 255
2 -23.3141 6.65408 0.6 0.0483284 -0.39707  255 0 0 255
2 -22.4663 6.75727 0.428571 0.0690406 -0.567242  255 0 0 255
2 -21.6185 6.86046 0.5 0.0604105 -0.496337  255 0 0 255
2 -20.0334 6.75833 0.5 -0.308246 -0.39368  255 0 0 255
2 -19.281 5.42525 0.428571 -0.352282 -0.44992  255 0 0 255
2 -18.5437 5.21994 0.428571 0.0690406 -0.567242  255 0 0 255
2 -17.8771 5.59612 0.5 0.39368 -0.308246  255 0 0 255
2 -17.4665 7.07075 0.5 0.39368 -0.308246  255 0 0 255
2 -15.9522 7.55012 0.5 0.0604105 -0.496337  255 0 0 255
2 -15.1044 7.65331 0.5 0.0604105 -0.496337  255 0 0 255
2 -14.2566 7.75649 0.5 0.0604105 -0.496337  255 0 0 255
2 -13.4088 7.85968 0.5 0.0604105 -0.496337  255 0 0 255
2 -12.561 7.96287 0.5 0.0604105 -0.496337  255 0 0 255
2 -11.7132 8.06606 0.428571 0.0690406 -0.567242  255 0 0 255
2 -10.8654 8.16924 0.6 0.0483284 -0.39707  255 0 0 255
2 -10.0176 8.27243 0.5 0.0604105 -0.496337  255 0 0 255
2 -9.16978 8.37562 0.5 0.0604105 -0.496337  255 0 0 255
2 -7.58467 8.27349 0.5 -0.308246 -0.39368  255 0 0 255
2 -6.83231 6.94042 0.428571 -0.352282 -0.44992  255 0 0 255
2 -6.09499 6.7351 0.428571 0.0690406 -0.567242  255 0 0 255
2 -5.42845 7.11128 0.5 0.39368 -0.308246  255 0 0 255
2 -5.01782 8.58591 0.5 0.39368 -0.308246  255 0 0 255
2 -3.6895 9.04264 0.5 0.0604105 -0.496337  255 0 0 255
2 -3.02772 9.12319 0.5 0.0604105 -0.496337  255 0 0 255
2 -43.5619 -3.68228 0.555556 0 0.444444  255 255 255 255
2 -44.0619 -3.18228 0.625 0.375 0  255 0 0 255
2 -43.5619 -2.68228 0.5 0 -0.5  255 0 0 255
2 -31.1132 -5.19745 0.555556 0 0.444444  255 0 0 255
2 -31.6132 -4.69745 0.625 0.375 0  255 0 0 255
2 -31.1132 -4.19745 0.5 0 -0.5  255 0 0 255
2 -18.6645 -6.71261 0.555556 0 0.444444  255 0 0 255
2 -19.1645 -6.21261 0.625 0.375 0  255 0 0 255
2 -18.6645 -5.71261 0.5 0 -0.5  255 0 0 255
2 -6.21581 -8.22778 0.555556 0 0.444444  255 255 255 255
2 -6.71581 -7.72778 0.571429 0.428571 0  255 0 0 255
2 -6.21581 -7.22778 0.555556 0 -0.444444  255 0 0 255
2 0.727289 -10.6863 0.625 -0.272733 0.257374  255 0 0 255
2 0.028961 -10.9996 0.5 -0.0144805 0.49979  255 255 255 255
2 -0.686332 -10.7273 0.5 0.343166 0.363645  255 0 0 255
2 -0.999581 -10.029 0.555556 0.444258 0.0128716  255 255 255 255
2 -0.727289 -9.31367 0.5 0.363645 -0.343166  255 0 0 255
2 -0.028961 -9.00042 0.555556 0.0128716 -0.444258  255 255 255 255
2 0.686332 -9.27271 0.625 -0.257374 -0.272733  255 0 0 255
1.33333 -4.35128 8.96209 0 0.120821 -0.992674  255 255 255 255
0.666667 -4.35128 8.96209 0 0.120821 -0.992674  255 255 255 255
1.33333 -5.22314 7.8486 0 0.992674 0.120821  255 255 255 255
0.666667 -5.22314 7.8486 0 0.992674 0.120821  255 255 255 255
1.33333 -7.20849 7.60696 0 -0.992674 -0.120821  255 255 255 255
0.666667 -7.20849 7.60696 0 -0.992674 -0.120821  255 255 255 255
1.33333 -8.32198 8.47881 0 0.120821 -0.992674  255 255 255 255
0.666667 -8.32198 8.47881 0 0.120821 -0.992674  255 255 255 255
1.33333 -16.8 7.44693 0 0.120821 -0.992674  255 255 255 255
0.666667 -16.8 7.44693 0 0.120821 -0.992674  255 255 255 255
1.33333 -17.6718 6.33343 0 0.992674 0.120821  255 255 255 255
0.666667 -17.6718 6.33343 0 0.992674 0.120821  255 255 255 255
1.33333 -19.6572 6.09179 0 -0.992674 -0.120821  255 255 255 255
0.666667 -19.6572 6.09179 0 -0.992674 -0.120821  255 255 255 255
1.33333 -20.7707 6.96364 0 0.120821 -0.992674  255 255 255 255
0.666667 -20.7707 6.96364 0 0.120821 -0.992674  255 255 255 255
1.33333 -29.2487 5.93176 0 0.120821 -0.992674  255 255 255 255
0.666667 -29.2487 5.93176 0 0.120821 -0.992674  255 255 255 255
1.33333 -30.1205 4.81827 0 0.992674 0.120821  255 255 255 255
0.666667 -30.1205 4.81827 0 0.992674 0.120821  255 255 255 255
1.33333 -32.1059 4.57663 0 -0.992674 -0.120821  255 255 255 255
0.666667 -32.1059 4.57663 0 -0.992674 -0.120821  255 255 255 255
1.33333 -33.2194 5.44848 0 0.120821 -0.992674  255 255 255 255
0.666667 -33.2194 5.44848 0 0.120821 -0.992674  255 255 255 255
1.33333 -41.6974 4.4166 0 0.120821 -0.992674  255 255 255 255
0.666667 -41.6974 4.4166 0 0.120821 -0.992674  255 255 255 255
1.33333 -42.5692 3.3031 0 0.992674 0.120821  255 255 255 255
0.666667 -42.5692 3.3031 0 0.992674 0.120821  255 255 255 255
1.33333 -44.5546 3.06146 0 -0.992674 -0.120821  255 255 255 255
0.666667 -44.5546 3.06146 0 -0.992674 -0.120821  255 255 255 255
1.33333 -45.6681 3.93332 0 0.120821 -0.992674  255 255 255 255
0.666667 -45.6681 3.93332 0 0.120821 -0.992674  255 255 255 255
1.33333 -77.9844 0 0 0.120821 -1.98682e-08  255 255 255 255
0.666667 -77.9844 0 0 0.120821 -1.98682e-08  255 255 255 255
0.292893 -79.3147 0.174057 -0.303046 0.153062 0.628438  255 255 255 255
1 -79.0308 0.246154 0 0.274725 0.659341  255 255 255 255
1.70711 -79.3147 0.174057 0.303046 0.153062 0.628438  255 255 255 255
1.33333 -78.0465 0.496139 0 -0.1867 0.980551  255 255 255 255
0.666667 -78.0465 0.496139 0 -0.1867 0.980551  255 255 255 255
1.33333 -2.48914 10.1894 0 -0.127247 0.991871  255 255 255 255
0.666667 -2.48914 10.1894 0 -0.127247 0.991871  255 255 255 255
1.70711 -79.3147 -0.174057 0.303046 0.153062 -0.628438  255 255 255 255
0.292893 -79.3147 -0.174057 -0.303046 0.153062 -0.628438  255 255 255 255
1.33333 -78.0465 -0.496139 0 -0.1867 -0.980551  255 255 255 255
0.666667 -78.0465 -0.496139 0 -0.1867 -0.980551  255 255 255 255
1.33333 -45.6681 -3.93332 0 0.120821 0.992674  255 255 255 255
0.666667 -45.6681 -3.93332 0 0.120821 0.992674  255 255 255 255
1.33333 -2.48914 -10.1894 0 -0.127247 -0.991871  255 255 255 255
0.666667 -2.48914 -10.1894 0 -0.127247 -0.991871  255 255 255 255
1.33333 -1.17584 -10.9313 0 -0.783896 -0.620892  255 255 255 255
0.666667 -1.17584 -10.9313 0 -0.783896 -0.620892  255 255 255 255
0.666667 0.999581 -9.97104 0 -0.999581 -0.028961  255 255 255 255
1.33333 0.999581 -9.97104 0 -0.999581 -0.028961  255 255 255 255
0.666667 -5.71581 -7.72778 0 -1 0  255 255 255 255
1.33333 -5.71581 -7.72778 0 -1 0  255 255 255 255
0.666667 -18.1645 -6.21261 0 -1 0  255 0 0 255
1.33333 -18.1645 -6.21261 0 -1 0  255 255 255 255
0.666667 -30.6132 -4.69745 0 -1 0  255 0 0 255
1.33333 -30.6132 -4.69745 0 -1 0  255 255 255 255
0.666667 -43.0619 -3.18228 0 -1 0  255 255 255 255
1.33333 -43.0619 -3.18228 0 -1 0  255 255 255 255
1.33333 -4.35128 -8.96209 0 0.120821 0.992674  255 255 255 255
0.666667 -4.35128 -8.96209 0 0.120821 0.992674  255 255 255 255
1 -79.4356 -0.826478 0 0.564495 -0.825436  255 255 255 255
1 -80.1239 -0.991223 0 -0.124035 -0.992278  255 255 255 255
1 -80.7505 -0.662124 0 -0.750311 -0.661086  255 255 255 255
1.33333 -5.22314 -7.8486 0 0.992674 -0.120821  255 255 255 255
0.666667 -5.22314 -7.8486 0 0.992674 -0.120821  255 255 255 255
1.33333 -7.20849 -7.60696 0 -0.992674 0.120821  255 255 255 255
0.666667 -7.20849 -7.60696 0 -0.992674 0.120821  255 255 255 255
1.33333 -8.32198 -8.47881 0 0.120821 0.992674  255 255 255 255
0.666667 -8.32198 -8.47881 0 0.120821 0.992674  255 255 255 255
1.33333 -16.8 -7.44693 0 0.120821 0.992674  255 255 255 255
0.666667 -16.8 -7.44693 0 0.120821 0.992674  255 255 255 255
1.33333 -17.6718 -6.33343 0 0.992674 -0.120821  255 255 255 255
0.666667 -17.6718 -6.33343 0 0.992674 -0.120821  255 255 255 255
1.33333 -19.6572 -6.09179 0 -0.992674 0.120821  255 255 255 255
0.666667 -19.6572 -6.09179 0 -0.992674 0.120821  255 255 255 255
1.33333 -20.7707 -6.96364 0 0.120821 0.992674  255 255 255 255
0.666667 -20.7707 -6.96364 0 0.120821 0.992674  255 255 255 255
1.33333 -29.2487 -5.93176 0 0.120821 0.992674  255 255 255 255
0.666667 -29.2487 -5.93176 0 0.120821 0.992674  255 255 255 255
1.33333 -30.1205 -4.81827 0 0.992674 -0.120821  255 255 255 255
0.666667 -30.1205 -4.81827 0 0.992674 -0.120821  255 255 255 255
1.33333 -32.1059 -4.57663 0 -0.992674 0.120821  255 255 255 255
0.666667 -32.1059 -4.57663 0 -0.992674 0.120821  255 255 255 255
1.33333 -33.2194 -5.44848 0 0.120821 0.992674  255 255 255 255
0.666667 -33.2194 -5.44848 0 0.120821 0.992674  255 255 255 255
1.33333 -41.6974 -4.4166 0 0.120821 0.992674  255 255 255 255
0.666667 -41.6974 -4.4166 0 0.120821 0.992674  255 255 255 255
1.33333 -42.5692 -3.3031 0 0.992674 -0.120821  255 255 255 255
0.666667 -42.5692 -3.3031 0 0.992674 -0.120821  255 255 255 255
1.33333 -44.5546 -3.06146 0 -0.992674 0.120821  255 255 255 255
0.666667 -44.5546 -3.06146 0 -0.992674 0.120821  255 255 255 255
1 -1.59942 9.14829 0 -0.262435 -0.96495  255 255 255 255
1.51515 -1.59942 9.14829 0 -0.262435 -0.96495  255 255 255 255
0.484848 -1.59942 9.14829 0 -0.262435 -0.96495  255 255 255 255
1.71212 -1.97999 9.21317 0 -0.072151 -0.997394  255 255 255 255
0.287879 -1.97999 9.21317 0 -0.072151 -0.997394  255 255 255 255
1.71212 -1.23841 9.01149 0 -0.44294 -0.896551  255 255 255 255
0.287879 -1.23841 9.01149 0 -0.44294 -0.896551  255 255 255 255
1.02655 -0.137444 8.50631 0 -0.091629 -0.995793  255 255 255 255
1.00148 0.74866 8.70019 0 0.499106 -0.866541  255 255 255 255
1.00007 1.37183 9.39331 0 0.914556 -0.40446  255 255 255 255
1 1.48842 10.1861 0 0.992278 0.124035  255 255 255 255
0.999928 1.18028 10.9257 0 0.786856 0.617137  255 255 255 255
0.998521 0.405671 11.4441 0 0.270447 0.962735  255 255 255 255
0.973447 -0.500892 11.4139 0 -0.333928 0.942599  255 255 255 255
1.4202 -0.571689 8.61322 0 -0.381126 -0.924523  255 255 255 255
1.00751 0.350539 8.54153 0 0.233692 -0.972311  255 255 255 255
1.00042 1.07898 8.95798 0 0.719321 -0.694677  255 255 255 255
1.00002 1.48506 9.78884 0 0.990042 -0.140771  255 255 255 255
0.999982 1.38739 10.5702 0 0.924928 0.380142  255 255 255 255
0.999583 0.789286 11.2755 0 0.526191 0.850366  255 255 255 255
0.992489 -0.019254 11.4999 0 -0.012836 0.999918  255 255 255 255
0.579798 -0.895461 11.2034 0 -0.596974 0.802261  255 255 255 255
0.741126 -0.623024 8.63551 0 -0.415349 -0.909662  255 255 255 255
1.25887 -0.939729 11.1691 0 -0.626486 0.779432  255 255 255 255
0.491484 -0.220535 11.4837 0 -0.147023 0.989133  255 255 255 255
1.50852 0.151469 8.50767 0 0.10098 -0.994888  255 255 255 255
0.508516 0.151469 8.50767 0 0.10098 -0.994888  255 255 255 255
1.49148 -0.220535 11.4837 0 -0.147023 0.989133  255 255 255 255
0.500474 0.916459 8.81252 0 0.610973 -0.791652  255 255 255 255
1.49953 0.595958 11.3765 0 0.397305 0.917686  255 255 255 255
0.499526 0.595958 11.3765 0 0.397305 0.917686  255 255 255 255
1.50047 0.916459 8.81252 0 0.610973 -0.791652  255 255 255 255
1.28787 0.748039 10.6637 0 -0.748039 -0.663654  255 255 255 255
1.03087 0.062874 10.998 0 -0.062874 -0.998021  255 255 255 255
1.00315 -0.683859 10.7296 0 0.683859 -0.729614  255 255 255 255
1.00063 -0.999581 10.029 0 0.999581 -0.028961  255 255 255 255
1.00315 -0.724954 9.3112 0 0.724954 0.688797  255 0 0 255
1.03087 0.004986 9.00001 0 -0.004986 0.999988  255 255 255 255
1.28787 0.708361 9.29415 0 -0.708361 0.705851  255 255 255 255
0.789094 0.899182 9.56243 0 -0.899182 0.437574  255 255 255 255
0.789094 0.923008 10.3848 0 -0.923008 -0.38478  255 255 255 255
1.48206 0.93454 10.3559 0 -0.93454 -0.355859  255 255 255 255
1.48206 0.912369 9.59063 0 -0.912369 0.40937  255 255 255 255
1.41449 0.446889 10.8946 0 -0.446889 -0.89459  255 255 255 255
1.34184 -0.347026 10.9379 0 0.347026 -0.937856  255 255 255 255
1.33428 -0.912062 10.4101 0 0.912062 -0.410053  255 255 255 255
1.33428 -0.934273 9.64344 0 0.934273 0.35656  255 255 255 255
1.34184 -0.400743 9.08381 0 0.400743 0.916191  255 255 255 255
1.41449 0.394345 9.08104 0 -0.394345 0.918962  255 255 255 255
0.753722 0.485685 9.12587 0 -0.485685 0.874134  255 255 255 255
0.675172 -0.400743 9.08381 0 0.400743 0.916191  255 255 255 255
0.667612 -0.934273 9.64344 0 0.934273 0.35656  255 255 255 255
0.667612 -0.912062 10.4101 0 0.912062 -0.410053  255 255 255 255
0.675172 -0.347026 10.9379 0 0.347026 -0.937856  255 255 255 255
0.753722 0.53548 10.8445 0 -0.53548 -0.844548  255 255 255 255
0.947712 -6.69576 7.86796 0 0.959892 -0.28037  255 255 255 255
0.807136 -6.38272 8.19909 0 0.333824 -0.942636  255 255 255 255
0.687772 -6.05167 7.25549 0 -0.32829 0.944577  255 255 255 255
1.31615 -6.04577 8.19798 0 -0.340074 -0.940399  255 255 255 255
1.25524 -5.89181 7.34695 0 -0.647997 0.761642  255 255 255 255
1.66237 -5.83296 8.04937 0 -0.765712 -0.643184  255 0 0 255
1.64714 -5.80575 7.44169 0 -0.820129 0.572179  255 255 255 255
0.33861 -5.83396 7.40499 0 -0.763697 0.645574  255 255 255 255
0.687214 -5.86187 8.08094 0 -0.707889 -0.706324  255 255 255 255
1.40685 -6.57696 8.07357 0 0.722295 -0.691585  255 0 0 255
1.37011 -6.67213 7.52339 0 0.912632 0.408782  255 255 255 255
1.19654 -6.31907 7.23855 0 0.206511 0.978444  255 255 255 255
0.669575 -6.61657 7.42878 0 0.801504 0.597989  255 255 255 255
0.484884 -6.65724 7.9626 0 0.882857 -0.469642  255 255 255 255
0.950998 -19.1452 6.35007 0 0.961467 -0.274921  255 255 255 255
0.80848 -18.8325 6.68354 0 0.33601 -0.941859  255 255 255 255
1.21476 -18.7523 5.72038 0 0.175636 0.984455  255 255 255 255
1.31673 -18.4949 6.68298 0 -0.339128 -0.94074  255 255 255 255
0.70324 -18.4878 5.74487 0 -0.353393 0.935475  255 255 255 255
1.66252 -18.2817 6.5343 0 -0.76555 -0.643377  255 255 255 255
1.31967 -18.3002 5.8701 0 -0.728529 0.685015  255 255 255 255
0.342477 -18.2805 5.89238 0 -0.76799 0.640462  255 255 255 255
0.687536 -18.3108 6.56597 0 -0.707497 -0.706716  255 255 255 255
1.40854 -19.0267 6.55735 0 0.724307 -0.689477  255 0 0 255
1.37503 -19.1191 6.00436 0 0.909131 0.416511  255 255 255 255
0.675871 -19.062 5.90928 0 0.794957 0.606666  255 255 255 255
0.48707 -19.1068 6.44577 0 0.884622 -0.466308  255 255 255 255
0.950998 -31.5939 4.83491 0 0.961467 -0.274921  255 255 255 255
0.80848 -31.2812 5.16838 0 0.33601 -0.941859  255 255 255 255
1.21476 -31.201 4.20522 0 0.175636 0.984455  255 255 255 255
1.31673 -30.9436 5.16782 0 -0.339128 -0.94074  255 255 255 255
0.70324 -30.9365 4.22971 0 -0.353393 0.935475  255 255 255 255
1.66252 -30.7304 5.01914 0 -0.76555 -0.643377  255 255 255 255
1.31967 -30.7489 4.35494 0 -0.728529 0.685015  255 255 255 255
0.342477 -30.7292 4.37722 0 -0.76799 0.640462  255 255 255 255
0.687536 -30.7594 5.05081 0 -0.707497 -0.706716  255 255 255 255
1.40854 -31.4753 5.04219 0 0.724307 -0.689477  255 0 0 255
1.37503 -31.5678 4.48919 0 0.909131 0.416511  255 255 255 255
0.675871 -31.5107 4.39411 0 0.794957 0.606666  255 255 255 255
0.48707 -31.5555 4.9306 0 0.884622 -0.466308  255 255 255 255
0.950998 -44.0426 3.31974 0 0.961467 -0.274921  255 255 255 255
0.80848 -43.7299 3.65321 0 0.33601 -0.941859  255 255 255 255
1.21476 -43.6497 2.69006 0 0.175636 0.984455  255 255 255 255
1.31673 -43.3923 3.65265 0 -0.339128 -0.94074  255 255 255 255
0.70324 -43.3852 2.71455 0 -0.353393 0.935475  255 255 255 255
1.66252 -43.1791 3.50397 0 -0.76555 -0.643377  255 255 255 255
1.31967 -43.1976 2.83978 0 -0.728529 0.685015  255 255 255 255
0.342477 -43.1779 2.86205 0 -0.76799 0.640462  255 255 255 255
0.687536 -43.2081 3.53564 0 -0.707497 -0.706716  255 255 255 255
1.40854 -43.924 3.52702 0 0.724307 -0.689477  255 255 255 255
1.37503 -44.0165 2.97403 0 0.909131 0.416511  255 255 255 255
0.675871 -43.9594 2.87895 0 0.794957 0.606666  255 255 255 255
0.48707 -44.0042 3.41544 0 0.884622 -0.466308  255 255 255 255
0 -7.00508 8.81394 -1 0 0  255 255 255 255
0 -7.00508 -8.81394 -1 0 0  255 255 255 255
0 -30.5019 -5.3087 -1 0 0  255 255 255 255
0 -30.5019 5.3087 -1 0 0  255 255 255 255
0 -5.59957 8.38696 -1 0 0  255 255 255 255
0 -5.59957 -8.38696 -1 0 0  255 255 255 255
0 -42.9506 -3.79353 -1 0 0  255 255 255 255
0 -18.0533 6.82386 -1 0 0  255 255 255 255
0 -18.0533 -6.82386 -1 0 0  255 255 255 255
0 -42.9506 3.79353 -1 0 0  255 255 255 255
0 -19.3437 6.89182 -1 0 0  255 255 255 255
0 -19.3437 -6.89182 -1 0 0  255 255 255 255
0 -44.2336 3.83692 -1 0 0  255 255 255 255
0 -44.2336 -3.83692 -1 0 0  255 255 255 255
0 -31.7924 -5.37665 -1 0 0  255 255 255 255
0 -31.7924 5.37665 -1 0 0  255 255 255 255
0 -6.08661 8.99818 -1 0 0  255 255 255 255
0 -6.08661 -8.99818 -1 0 0  255 255 255 255
0 -77.59 -0.301252 -1 0 0  255 0 0 255
0 -77.59 0.301252 -1 0 0  255 255 255 255
0 -76.7408 0.407898 -1 0 0  255 0 0 255
0 -76.7408 -0.407898 -1 0 0  255 0 0 255
0 -75.8914 0.51423 -1 0 0  255 0 0 255
0 -75.8914 -0.51423 -1 0 0  255 0 0 255
0 -75.0417 -0.620344 -1 0 0  255 255 255 255
0 -75.0417 0.620344 -1 0 0  255 255 255 255
0 -30.8693 5.96014 -1 0 0  255 255 255 255
0 -30.8693 -5.96014 -1 0 0  255 255 255 255
0 -74.1922 0.726718 -1 0 0  255 255 255 255
0 -74.1922 -0.726718 -1 0 0  255 255 255 255
0 -18.4695 7.31794 -1 0 0  255 255 255 255
0 -18.4695 -7.31794 -1 0 0  255 255 255 255
0 -1.88453 9.74182 -1 0 0  255 255 255 255
0 -1.88453 -9.74182 -1 0 0  255 255 255 255
0 -78.9602 0 -1 0 0  255 255 255 255
0 -73.3426 0.833087 -1 0 0  255 255 255 255
0 -73.3426 -0.833087 -1 0 0  255 255 255 255
0 -72.493 0.939453 -1 0 0  255 255 255 255
0 -72.493 -0.939453 -1 0 0  255 255 255 255
0 -71.6435 1.04581 -1 0 0  255 255 255 255
0 -71.6435 -1.04581 -1 0 0  255 255 255 255
0 -70.7939 -1.15217 -1 0 0  255 255 255 255
0 -70.7939 1.15217 -1 0 0  255 255 255 255
0 -69.9444 1.25853 -1 0 0  255 255 255 255
0 -69.9444 -1.25853 -1 0 0  255 255 255 255
0 -69.0948 1.36488 -1 0 0  255 255 255 255
0 -69.0948 -1.36488 -1 0 0  255 255 255 255
0 -68.2452 1.47123 -1 0 0  255 255 255 255
0 -68.2452 -1.47123 -1 0 0  255 255 255 255
0 -7.07375 -8.12242 -1 0 0  255 255 255 255
0 -7.07375 8.12242 -1 0 0  255 255 255 255
0 -5.36293 9.20748 -1 0 0  255 255 255 255
0 -5.36293 -9.20748 -1 0 0  255 255 255 255
0 -67.3957 -1.57757 -1 0 0  255 255 255 255
0 -67.3957 1.57757 -1 0 0  255 255 255 255
0 -66.5461 1.68391 -1 0 0  255 255 255 255
0 -66.5461 -1.68391 -1 0 0  255 255 255 255
0 -65.6965 1.79025 -1 0 0  255 255 255 255
0 -65.6965 -1.79025 -1 0 0  255 255 255 255
0 -64.847 -1.89659 -1 0 0  255 255 255 255
0 -64.847 1.89659 -1 0 0  255 255 255 255
0 0.473364 -11.088 -1 0 0  255 0 0 255
0 0.473364 11.088 -1 0 0  255 255 255 255
0 -19.8013 7.40747 -1 0 0  255 255 255 255
0 -19.8013 -7.40747 -1 0 0  255 255 255 255
0 -43.4199 4.3561 -1 0 0  255 255 255 255
0 -43.4199 -4.3561 -1 0 0  255 255 255 255
0 -63.9974 2.00292 -1 0 0  255 255 255 255
0 -63.9974 -2.00292 -1 0 0  255 255 255 255
0 1.08968 9.53057 -1 0 0  255 0 0 255
0 1.08968 -9.53057 -1 0 0  255 0 0 255
0 -63.1478 2.10925 -1 0 0  255 255 255 255
0 -63.1478 -2.10925 -1 0 0  255 255 255 255
0 -0.46549 -8.90868 -1 0 0  255 0 0 255
0 -0.46549 8.90868 -1 0 0  255 0 0 255
0 -62.2983 -2.21558 -1 0 0  255 255 255 255
0 -62.2983 2.21558 -1 0 0  255 255 255 255
0 -61.4487 -2.3219 -1 0 0  255 255 255 255
0 -61.4487 2.3219 -1 0 0  255 255 255 255
0 -2.75575 9.65252 -1 0 0  255 255 255 255
0 -2.75575 -9.65252 -1 0 0  255 255 255 255
0 -60.5991 2.42822 -1 0 0  255 255 255 255
0 -60.5991 -2.42822 -1 0 0  255 255 255 255
0 -59.7495 2.53454 -1 0 0  255 255 255 255
0 -59.7495 -2.53454 -1 0 0  255 255 255 255
0 -7.7853 -8.90583 -1 0 0  255 255 255 255
0 -7.7853 8.90583 -1 0 0  255 255 255 255
0 -58.9 2.64086 -1 0 0  255 255 255 255
0 -58.9 -2.64086 -1 0 0  255 255 255 255
0 -58.0504 2.74717 -1 0 0  255 255 255 255
0 -58.0504 -2.74717 -1 0 0  255 255 255 255
0 -57.2008 2.85349 -1 0 0  255 255 255 255
0 -57.2008 -2.85349 -1 0 0  255 255 255 255
0 -56.3513 -2.95979 -1 0 0  255 255 255 255
0 -56.3513 2.95979 -1 0 0  255 255 255 255
0 -55.5017 3.0661 -1 0 0  255 255 255 255
0 -55.5017 -3.0661 -1 0 0  255 255 255 255
0 -54.6521 -3.17241 -1 0 0  255 255 255 255
0 -54.6521 3.17241 -1 0 0  255 255 255 255
0 -17.388 7.7103 -1 0 0  255 255 255 255
0 -17.388 -7.7103 -1 0 0  255 255 255 255
0 -53.8025 3.27871 -1 0 0  255 255 255 255
0 -53.8025 -3.27871 -1 0 0  255 255 255 255
0 -52.953 3.38501 -1 0 0  255 255 255 255
0 -52.953 -3.38501 -1 0 0  255 255 255 255
0 -19.0916 7.45743 -1 0 0  255 255 255 255
0 -19.0916 -7.45743 -1 0 0  255 255 255 255
0 -52.1034 3.49131 -1 0 0  255 255 255 255
0 -52.1034 -3.49131 -1 0 0  255 255 255 255
0 -42.8727 4.44442 -1 0 0  255 255 255 255
0 -42.8727 -4.44442 -1 0 0  255 255 255 255
0 -51.2538 3.59761 -1 0 0  255 255 255 255
0 -51.2538 -3.59761 -1 0 0  255 255 255 255
0 -50.4043 3.7039 -1 0 0  255 255 255 255
0 -50.4043 -3.7039 -1 0 0  255 255 255 255
0 -49.5547 3.8102 -1 0 0  255 255 255 255
0 -49.5547 -3.8102 -1 0 0  255 255 255 255
0 -1.22221 9.48888 -1 0 0  255 255 255 255
0 -1.22221 -9.48888 -1 0 0  255 255 255 255
0 -48.7051 -3.91649 -1 0 0  255 255 255 255
0 -48.7051 3.91649 -1 0 0  255 255 255 255
0 -47.8555 -4.02278 -1 0 0  255 255 255 255
0 -47.8555 4.02278 -1 0 0  255 255 255 255
0 -47.006 4.12907 -1 0 0  255 255 255 255
0 -47.006 -4.12907 -1 0 0  255 255 255 255
0 -8.84674 8.89181 -1 0 0  255 255 255 255
0 -8.84674 -8.89181 -1 0 0  255 255 255 255
0 -30.0204 -6.18293 -1 0 0  255 255 255 255
0 -30.0204 6.18293 -1 0 0  255 255 255 255
0 -46.1564 4.23535 -1 0 0  255 255 255 255
0 -46.1564 -4.23535 -1 0 0  255 255 255 255
0 -32.5114 5.83615 -1 0 0  255 255 255 255
0 -32.5114 -5.83615 -1 0 0  255 255 255 255
0 -3.51186 -9.55088 -1 0 0  255 255 255 255
0 -3.51186 9.55088 -1 0 0  255 255 255 255
0 -1.11634 10.5067 -1 0 0  255 255 255 255
0 -1.11634 -10.5067 -1 0 0  255 255 255 255
0 -31.7215 5.99019 -1 0 0  255 255 255 255
0 -31.7215 -5.99019 -1 0 0  255 255 255 255
0 -4.07637 -9.39574 -1 0 0  255 255 255 255
0 -4.07637 9.39574 -1 0 0  255 255 255 255
0 -4.64214 9.45154 -1 0 0  255 255 255 255
0 -4.64214 -9.45154 -1 0 0  255 255 255 255
0 -31.5281 4.28256 -1 0 0  255 0 0 255
0 -31.5281 -4.28256 -1 0 0  255 0 0 255
0 -6.6307 7.31289 -1 0 0  255 0 0 255
0 -6.6307 -7.31289 -1 0 0  255 0 0 255
0 -19.0794 5.79772 -1 0 0  255 0 0 255
0 -19.0794 -5.79772 -1 0 0  255 0 0 255
0 -43.9768 -2.76739 -1 0 0  255 0 0 255
0 -43.9768 2.76739 -1 0 0  255 0 0 255
0 -30.6983 4.28256 -1 0 0  255 255 255 255
0 -30.6983 -4.28256 -1 0 0  255 0 0 255
0 -43.147 2.76739 -1 0 0  255 255 255 255
0 -43.147 -2.76739 -1 0 0  255 0 0 255
0 -5.80092 7.31289 -1 0 0  255 255 255 255
0 -5.80092 -7.31289 -1 0 0  255 0 0 255
0 -18.2496 5.79772 -1 0 0  255 255 255 255
0 -18.2496 -5.79772 -1 0 0  255 0 0 255
0 -16.4301 7.94239 -1 0 0  255 255 255 255
0 -16.4301 -7.94239 -1 0 0  255 255 255 255
0 -9.65057 -8.79147 -1 0 0  255 255 255 255
