ply
format ascii 1.0
comment VCGLIB generated
element vertex 1039
property float x
property float y
property float z
property float nx
property float ny
property float nz
property uchar red
property uchar green
property uchar blue
property uchar alpha
element face 0
property list uchar int vertex_indices
end_header
-12.1279 -9.2 -17.5307 0 -1 0  255 255 255 255
-3.76536 -9.2 6.98522 0 -1 0  255 255 255 255
-5.48477 -9.2 3.14721 0 -1 0  255 255 255 255
-20.7328 -9.2 -4.21643 0 -1 0  255 255 255 255
20.7328 -9.2 -4.21643 0 -1 0  255 255 255 255
3.90272 -9.2 10.3265 0 -1 0  255 255 255 255
-4.15567 -9.2 -10.918 0 -1 0  255 255 255 255
-3.69799 -9.2 -6.4312 0 -1 0  255 255 255 255
11.3613 -9.2 -10.0875 0 -1 0  255 255 255 255
-12.0488 -9.2 19.0256 0 -1 0  255 255 255 255
-10.0334 -9.2 -15.0681 0 -1 0  255 255 255 255
-12.1347 -9.2 17.5336 0 -1 0  255 255 255 255
17.5327 -9.2 -12.1287 0 -1 0  255 255 255 255
-19.9689 -9.2 10.5824 0 -1 0  255 255 255 255
10.5825 -9.2 -19.9691 0 -1 0  255 255 255 255
-16.7651 -9.2 -12.1791 0 -1 0  255 255 255 255
-1.59386 -9.2 18.2799 0 -1 0  255 255 255 255
-6.57602 -9.2 6.20729 0 -1 0  255 255 255 255
-9.6047 -9.2 -8.02907 0 -1 0  255 255 255 255
1.39855 -9.2 -4.52783 0 -1 0  255 255 255 255
-8.81032 -9.2 1.28378 0 -1 0  255 255 255 255
-3.52032 -9.2 -11.7644 0 -1 0  255 255 255 255
8.42496 -9.2 -8.03842 0 -1 0  255 255 255 255
-17.101 -9.2 -3.28317 0 -1 0  255 255 255 255
1.24143 -9.2 -8.86663 0 -1 0  255 255 255 255
-2.41386 -9.2 12.8292 0 -1 0  255 255 255 255
-10.7566 -9.2 5.37683 0 -1 0  255 255 255 255
15.0489 -9.2 -10.0358 0 -1 0  255 255 255 255
5.37625 -9.2 -10.7608 0 -1 0  255 255 255 255
5.15359 -9.2 8.26809 0 -1 0  255 255 255 255
-18.913 -9.2 5.54662 0 -1 0  255 255 255 255
18.913 -9.2 5.54662 0 -1 0  255 255 255 255
-1.18008 -9.2 -13.7782 0 -1 0  255 255 255 255
-14.5213 -9.2 -3.92 0 -1 0  255 255 255 255
-8.88186 -9.2 -14.1322 0 -1 0  255 255 255 255
-5.43275 -9.2 19.2867 0 -1 0  255 255 255 255
5.54602 -9.2 -18.9134 0 -1 0  255 255 255 255
-6.30078 -9.2 -4.28215 0 -1 0  255 255 255 255
10.3969 -9.2 -14.8961 0 -1 0  255 255 255 255
-14.8949 -9.2 10.3971 0 -1 0  255 255 255 255
-11.2122 -9.2 -17.0073 0 -1 0  255 255 255 255
6.76532 -9.2 -14.6602 0 -1 0  255 255 255 255
-18.9549 -9.2 -12.1054 0 -1 0  255 255 255 255
-10.0393 -9.2 15.0516 0 -1 0  255 255 255 255
16.228 -9.2 9.07714 0 -1 0  255 255 255 255
-0.256357 -9.2 9.48725 0 -1 0  255 255 255 255
17.0233 -9.2 -11.1932 0 -1 0  255 255 255 255
-11.197 -9.2 17.0189 0 -1 0  255 255 255 255
-19.9037 -9.2 6.05288 0 -1 0  255 255 255 255
19.9037 -9.2 6.05288 0 -1 0  255 255 255 255
-13.4925 -9.2 -9.20499 0 -1 0  255 255 255 255
6.05185 -9.2 -19.9041 0 -1 0  255 255 255 255
-1.60143 -9.2 -5.40939 0 -1 0  255 255 255 255
-12.3034 -9.2 9.79534 0 -1 0  255 255 255 255
-3.9364 -9.2 12.0542 0 -1 0  255 255 255 255
6.28311 -9.2 -13.3217 0 -1 0  255 255 255 255
-13.6863 -9.2 -3.86582 0 -1 0  255 255 255 255
-8.10498 -9.2 0.618378 0 -1 0  255 255 255 255
-3.59633 -9.2 -11.1432 0 -1 0  255 255 255 255
-8.08085 -9.2 3.4784 0 -1 0  255 255 255 255
-1.35054 -9.2 12.7591 0 -1 0  255 255 255 255
-5.05605 -9.2 -9.59593 0 -1 0  255 255 255 255
5.79664 -9.2 -4.59305 0 -1 0  255 255 255 255
-11.0156 -9.2 -6.84574 0 -1 0  255 255 255 255
2.41955 -9.2 2.88662 0 -1 0  255 255 255 255
0.625315 -9.2 -8.11684 0 -1 0  255 255 255 255
-6.90759 -9.2 -2.01275 0 -1 0  255 255 255 255
0.34468 -9.2 5.18552 0 -1 0  255 255 255 255
9.79747 -9.2 10.5159 0 -1 0  255 255 255 255
-4.08845 -9.2 5.46085 0 -1 0  255 255 255 255
6.26253 -9.2 -8.63675 0 -1 0  255 255 255 255
1.68137 -9.2 13.1297 0 -1 0  255 255 255 255
11.5733 -9.2 -2.53347 0 -1 0  255 255 255 255
-14.6601 -9.2 6.76511 0 -1 0  255 255 255 255
-13.3215 -9.2 6.28325 0 -1 0  255 255 255 255
2.94149 -9.2 8.76139 0 -1 0  255 255 255 255
-12.0725 -9.2 -14.9108 0 -1 0  255 255 255 255
-15.3127 -9.2 -4.92668 0 -1 0  255 255 255 255
-3.74432 -9.2 17.3795 0 -1 0  255 255 255 255
-1.93608 -9.2 11.0168 0 -1 0  255 255 255 255
5.62738 -9.2 -7.08972 0 -1 0  255 255 255 255
9.66158 -9.2 13.1431 0 -1 0  255 255 255 255
20.084 -9.2 10.5603 0 -1 0  255 255 255 255
-16.9093 -9.2 3.1312 0 -1 0  255 255 255 255
16.9093 -9.2 3.1312 0 -1 0  255 255 255 255
5.6207 -9.2 19.9829 0 -1 0  255 255 255 255
11.398 -9.2 5.99235 0 -1 0  255 255 255 255
12.5998 -9.2 -2.22218 0 -1 0  255 255 255 255
-1.2521 -9.2 -15.3724 0 -1 0  255 255 255 255
10.0192 -9.2 6.23746 0 -1 0  255 255 255 255
5.73105 -9.2 17.3956 0 -1 0  255 255 255 255
-3.27917 -9.2 -9.95382 0 -1 0  255 255 255 255
-5.37278 -9.2 4.0266 0 -1 0  255 255 255 255
-12.1747 -9.2 -16.5733 0 -1 0  255 255 255 255
0.672237 -9.2 -17.3182 0 -1 0  255 255 255 255
-17.3176 -9.2 0.671489 0 -1 0  255 255 255 255
17.3176 -9.2 0.671489 0 -1 0  255 255 255 255
-7.23562 -9.2 12.036 0 -1 0  255 255 255 255
-12.3279 -9.2 5.89396 0 -1 0  255 255 255 255
3.13037 -9.2 -16.9093 0 -1 0  255 255 255 255
-17.2382 -9.2 -13.0425 0 -1 0  255 255 255 255
-4.13704 -9.2 -7.399 0 -1 0  255 255 255 255
8.74507 -9.2 -10.4739 0 -1 0  255 255 255 255
-4.16406 -9.2 18.4749 0 -1 0  255 255 255 255
7.66487 -9.2 15.6912 0 -1 0  255 255 255 255
-7.2847 -9.2 -11.309 0 -1 0  255 255 255 255
-12.9933 -9.2 -12.1087 0 -1 0  255 255 255 255
-14.0078 -9.2 -4.70312 0 -1 0  255 255 255 255
16.5345 -9.2 -12.1165 0 -1 0  255 255 255 255
7.53554 -9.2 0.629899 0 -1 0  255 255 255 255
-12.9562 -9.2 -14.8404 0 -1 0  255 255 255 255
-9.69431 -9.2 -3.83444 0 -1 0  255 255 255 255
-0.834187 -9.2 -2.9056 0 -1 0  255 255 255 255
-3.74097 -9.2 0.087955 0 -1 0  255 255 255 255
-3.59554 -9.2 19.2136 0 -1 0  255 255 255 255
14.2012 -9.2 -8.81224 0 -1 0  255 255 255 255
-11.4452 -9.2 6.56081 0 -1 0  255 255 255 255
-1.38782 -9.2 20.0212 0 -1 0  255 255 255 255
11.7818 -9.2 8.96315 0 -1 0  255 255 255 255
-17.6592 -9.2 -12.1684 0 -1 0  255 255 255 255
-12.1165 -9.2 16.5348 0 -1 0  255 255 255 255
9.29735 -9.2 14.0518 0 -1 0  255 255 255 255
6.59148 -9.2 -11.5127 0 -1 0  255 255 255 255
9.92592 -9.2 -10.5408 0 -1 0  255 255 255 255
6.57416 -9.2 1.77676 0 -1 0  255 255 255 255
10.0901 -9.2 -7.65839 0 -1 0  255 255 255 255
11.2083 -9.2 14.2076 0 -1 0  255 255 255 255
1.07462 -9.2 8.29908 0 -1 0  255 255 255 255
12.2276 -9.2 -1.42571 0 -1 0  255 255 255 255
8.23491 -9.2 1.22735 0 -1 0  255 255 255 255
-6.06901 -9.2 -11.6729 0 -1 0  255 255 255 255
5.89621 -9.2 -12.331 0 -1 0  255 255 255 255
4.91284 -9.2 -0.313432 0 -1 0  255 255 255 255
-12.9342 -9.2 -8.96029 0 -1 0  255 255 255 255
-4.34845 -9.2 -17.0953 0 -1 0  255 255 255 255
8.26078 -9.2 -0.288457 0 -1 0  255 255 255 255
7.29096 -9.2 13.6252 0 -1 0  255 255 255 255
-8.03912 -9.2 -7.72526 0 -1 0  255 255 255 255
-5.16597 -9.2 1.34443 0 -1 0  255 255 255 255
17.0935 -9.2 -4.34972 0 -1 0  255 255 255 255
18.7361 -9.2 12.1827 0 -1 0  255 255 255 255
-17.8088 -9.2 -7.67093 0 -1 0  255 255 255 255
5.57446 -9.2 6.14088 0 -1 0  255 255 255 255
7.30382 -9.2 19.3342 0 -1 0  255 255 255 255
-1.445 -9.2 3.42444 0 -1 0  255 255 255 255
7.0155 -9.2 20.6472 0 -1 0  255 255 255 255
-0.327629 -9.2 10.5918 0 -1 0  255 255 255 255
17.6516 -9.2 12.1717 0 -1 0  255 255 255 255
8.909 -9.2 -16.95 0 -1 0  255 255 255 255
-2.56441 -9.2 1.34508 0 -1 0  255 255 255 255
-16.9486 -9.2 8.90847 0 -1 0  255 255 255 255
9.74427 -9.2 2.90998 0 -1 0  255 255 255 255
-4.75047 -9.2 17.1488 0 -1 0  255 255 255 255
5.27738 -9.2 0.117614 0 -1 0  255 255 255 255
7.76569 -9.2 9.68346 0 -1 0  255 255 255 255
1.14721 -9.2 -15.5378 0 -1 0  255 255 255 255
14.5248 -9.2 12.1355 0 -1 0  255 255 255 255
15.5366 -9.2 1.14874 0 -1 0  255 255 255 255
-15.5366 -9.2 1.14874 0 -1 0  255 255 255 255
-16.6503 -9.2 -10.2723 0 -1 0  255 255 255 255
12.0311 -9.2 -4.46814 0 -1 0  255 255 255 255
16.8323 -9.2 -1.95737 0 -1 0  255 255 255 255
9.26287 -9.2 3.75134 0 -1 0  255 255 255 255
4.14506 -9.2 5.17421 0 -1 0  255 255 255 255
-7.78629 -9.2 -4.22576 0 -1 0  255 255 255 255
-1.95583 -9.2 -16.8331 0 -1 0  255 255 255 255
-19.0778 -9.2 -10.0438 0 -1 0  255 255 255 255
5.42917 -9.2 18.3036 0 -1 0  255 255 255 255
-9.4151 -9.2 -16.3177 0 -1 0  255 255 255 255
-10.0628 -9.2 -19.0803 0 -1 0  255 255 255 255
8.43376 -9.2 -7.37254 0 -1 0  255 255 255 255
2.16566 -9.2 -17.2035 0 -1 0  255 255 255 255
19.0811 -9.2 -10.0636 0 -1 0  255 255 255 255
-8.23741 -9.2 1.15441 0 -1 0  255 255 255 255
1.62048 -9.2 -17.1383 0 -1 0  255 255 255 255
-17.2031 -9.2 2.16486 0 -1 0  255 255 255 255
17.2031 -9.2 2.16486 0 -1 0  255 255 255 255
-17.1381 -9.2 1.61962 0 -1 0  255 255 255 255
17.1381 -9.2 1.61962 0 -1 0  255 255 255 255
9.49922 -9.2 -12.8828 0 -1 0  255 255 255 255
4.20323 -9.2 2.60376 0 -1 0  255 255 255 255
7.60924 -9.2 -10.5676 0 -1 0  255 255 255 255
-12.868 -9.2 9.53432 0 -1 0  255 255 255 255
10.4384 -9.2 -9.70368 0 -1 0  255 255 255 255
-2.03039 -9.2 -13.203 0 -1 0  255 255 255 255
-0.873494 -9.2 -3.88954 0 -1 0  255 255 255 255
-7.64681 -9.2 16.0373 0 -1 0  255 255 255 255
-12.5363 -9.2 7.50962 0 -1 0  255 255 255 255
10.7331 -9.2 -1.87574 0 -1 0  255 255 255 255
-1.34777 -9.2 14.2383 0 -1 0  255 255 255 255
-11.699 -9.2 -2.24929 0 -1 0  255 255 255 255
7.51189 -9.2 -12.5399 0 -1 0  255 255 255 255
4.28601 -9.2 -11.1222 0 -1 0  255 255 255 255
1.15325 -9.2 -8.25605 0 -1 0  255 255 255 255
14.9316 -9.2 -10.9994 0 -1 0  255 255 255 255
-11.0122 -9.2 -9.85934 0 -1 0  255 255 255 255
-7.38011 -9.2 16.5568 0 -1 0  255 255 255 255
17.1429 -9.2 -13.0194 0 -1 0  255 255 255 255
-13.0198 -9.2 17.1429 0 -1 0  255 255 255 255
-13.0174 -9.2 -17.1392 0 -1 0  255 255 255 255
-16.1612 -9.2 -4.55848 0 -1 0  255 255 255 255
-16.7278 -9.2 -1.89429 0 -1 0  255 255 255 255
-0.050908 -9.2 6.04574 0 -1 0  255 255 255 255
17.8369 -9.2 3.04433 0 -1 0  255 255 255 255
-17.8369 -9.2 3.04433 0 -1 0  255 255 255 255
-2.73296 -9.2 17.2081 0 -1 0  255 255 255 255
10.2367 -9.2 -4.72154 0 -1 0  255 255 255 255
3.04493 -9.2 -17.8371 0 -1 0  255 255 255 255
-11.0003 -9.2 14.9325 0 -1 0  255 255 255 255
-9.65892 -9.2 6.34102 0 -1 0  255 255 255 255
-0.673211 -9.2 18.5887 0 -1 0  255 255 255 255
-9.11009 -9.2 -15.4724 0 -1 0  255 255 255 255
2.74314 -9.2 9.31275 0 -1 0  255 255 255 255
-6.28403 -9.2 18.6575 0 -1 0  255 255 255 255
11.2567 -9.2 18.9666 0 -1 0  255 255 255 255
-0.938577 -9.2 10.7455 0 -1 0  255 255 255 255
-17.667 -9.2 -11.3052 0 -1 0  255 255 255 255
-9.94831 -9.2 4.73802 0 -1 0  255 255 255 255
15.4755 -9.2 -9.1194 0 -1 0  255 255 255 255
-4.79598 -9.2 -8.64628 0 -1 0  255 255 255 255
6.33438 -9.2 -9.67206 0 -1 0  255 255 255 255
14.9309 -9.2 5.5289 0 -1 0  255 255 255 255
-2.42338 -9.2 -9.98417 0 -1 0  255 255 255 255
10.8989 -9.2 18.0891 0 -1 0  255 255 255 255
-18.5726 -9.2 12.1882 0 -1 0  255 255 255 255
4.72375 -9.2 -9.93068 0 -1 0  255 255 255 255
12.1888 -9.2 -18.5729 0 -1 0  255 255 255 255
2.81021 -9.2 13.7297 0 -1 0  255 255 255 255
8.94986 -9.2 -19.6394 0 -1 0  255 255 255 255
-10.4488 -9.2 -16.622 0 -1 0  255 255 255 255
-19.6396 -9.2 8.94995 0 -1 0  255 255 255 255
19.6396 -9.2 8.94995 0 -1 0  255 255 255 255
-12.2205 -9.2 10.8639 0 -1 0  255 255 255 255
-14.3241 -9.2 -7.96986 0 -1 0  255 255 255 255
16.6508 -9.2 -10.3933 0 -1 0  255 255 255 255
-7.75762 -9.2 2.9459 0 -1 0  255 255 255 255
-10.3955 -9.2 16.652 0 -1 0  255 255 255 255
2.50172 -9.2 8.39426 0 -1 0  255 255 255 255
1.53521 -9.2 9.25166 0 -1 0  255 255 255 255
-5.3515 -9.2 -8.30662 0 -1 0  255 255 255 255
18.0985 -9.2 2.16077 0 -1 0  255 255 255 255
-18.0985 -9.2 2.16077 0 -1 0  255 255 255 255
2.16159 -9.2 -18.0987 0 -1 0  255 255 255 255
11.235 -9.2 -20.6771 0 -1 0  255 255 255 255
20.6888 -9.2 11.2532 0 -1 0  255 255 255 255
-20.677 -9.2 11.2349 0 -1 0  255 255 255 255
7.29384 -9.2 -8.57973 0 -1 0  255 255 255 255
2.95416 -9.2 -7.76329 0 -1 0  255 255 255 255
10.5447 -9.2 6.30046 0 -1 0  255 255 255 255
-12.2104 -9.2 19.4975 0 -1 0  255 255 255 255
-14.8308 -9.2 -11.1229 0 -1 0  255 255 255 255
14.4227 -9.2 -3.18414 0 -1 0  255 255 255 255
8.8656 -9.2 7.83918 0 -1 0  255 255 255 255
5.6406 -9.2 -6.03541 0 -1 0  255 255 255 255
10.137 -9.2 0.658608 0 -1 0  255 255 255 255
8.61829 -9.2 19.9798 0 -1 0  255 255 255 255
-19.4119 -9.2 -0.023584 0 -1 0  255 255 255 255
19.4119 -9.2 -0.023584 0 -1 0  255 255 255 255
10.6514 -9.2 -5.43583 0 -1 0  255 255 255 255
-0.033045 -9.2 -19.4491 0 -1 0  255 255 255 255
-19.1745 -9.2 6.33401 0 -1 0  255 255 255 255
19.1745 -9.2 6.33401 0 -1 0  255 255 255 255
-14.0537 -9.2 -7.52473 0 -1 0  255 255 255 255
6.33258 -9.2 -19.1746 0 -1 0  255 255 255 255
-0.482445 -9.2 5.62769 0 -1 0  255 255 255 255
-18.8696 -9.2 -4.14865 0 -1 0  255 255 255 255
18.8696 -9.2 -4.14865 0 -1 0  255 255 255 255
-12.2636 -9.2 -18.7069 0 -1 0  255 255 255 255
10.8674 -9.2 5.90181 0 -1 0  255 255 255 255
-4.14638 -9.2 -18.8703 0 -1 0  255 255 255 255
4.46005 -9.2 6.17152 0 -1 0  255 255 255 255
18.7079 -9.2 -12.2641 0 -1 0  255 255 255 255
3.47007 -9.2 -8.08998 0 -1 0  255 255 255 255
-8.94416 -9.2 17.0482 0 -1 0  255 255 255 255
-3.60813 -9.2 11.16 0 -1 0  255 255 255 255
3.85069 -9.2 15.8796 0 -1 0  255 255 255 255
-15.3687 -9.2 -1.19433 0 -1 0  255 255 255 255
13.5921 -9.2 -3.89745 0 -1 0  255 255 255 255
-1.66317 -9.2 -9.38339 0 -1 0  255 255 255 255
-16.482 -9.2 -1.08563 0 -1 0  255 255 255 255
16.4602 -9.2 -1.04973 0 -1 0  255 255 255 255
-3.98641 -9.2 4.92546 0 -1 0  255 255 255 255
14.3102 -9.2 13.0291 0 -1 0  255 255 255 255
-0.994447 -9.2 -7.52446 0 -1 0  255 255 255 255
-0.284087 -9.2 18.9862 0 -1 0  255 255 255 255
-1.04885 -9.2 -16.4609 0 -1 0  255 255 255 255
9.19625 -9.2 -9.92531 0 -1 0  255 255 255 255
-7.74061 -9.2 -19.1934 0 -1 0  255 255 255 255
-15.66 -9.2 9.87833 0 -1 0  255 255 255 255
-11.459 -9.2 -11.6423 0 -1 0  255 255 255 255
-0.040414 -9.2 11.101 0 -1 0  255 255 255 255
8.88958 -9.2 13.5802 0 -1 0  255 255 255 255
19.1934 -9.2 -7.74204 0 -1 0  255 255 255 255
9.87912 -9.2 -15.6621 0 -1 0  255 255 255 255
7.7072 -9.2 6.87791 0 -1 0  255 255 255 255
16.5971 -9.2 8.22316 0 -1 0  255 255 255 255
-7.87443 -9.2 6.66232 0 -1 0  255 255 255 255
7.52632 -9.2 -7.69227 0 -1 0  255 255 255 255
-15.3919 -9.2 7.18201 0 -1 0  255 255 255 255
7.18389 -9.2 -15.3938 0 -1 0  255 255 255 255
5.97166 -9.2 19.1729 0 -1 0  255 255 255 255
-3.55329 -9.2 -0.985557 0 -1 0  255 255 255 255
19.0678 -9.2 13.0264 0 -1 0  255 255 255 255
-11.6308 -9.2 11.5398 0 -1 0  255 255 255 255
-12.9811 -9.2 -17.9895 0 -1 0  255 255 255 255
11.5392 -9.2 -11.6325 0 -1 0  255 255 255 255
17.5795 -9.2 -5.09104 0 -1 0  255 255 255 255
-17.1499 -9.2 -4.28831 0 -1 0  255 255 255 255
-2.66271 -9.2 -6.84753 0 -1 0  255 255 255 255
19.7102 -9.2 -4.29549 0 -1 0  255 255 255 255
-19.7102 -9.2 -4.29549 0 -1 0  255 255 255 255
-4.29397 -9.2 -19.7104 0 -1 0  255 255 255 255
-5.08946 -9.2 -17.5811 0 -1 0  255 255 255 255
17.9903 -9.2 -12.9816 0 -1 0  255 255 255 255
-12.9818 -9.2 17.9906 0 -1 0  255 255 255 255
3.55489 -9.2 13.8349 0 -1 0  255 255 255 255
-4.50612 -9.2 -12.0966 0 -1 0  255 255 255 255
-5.11443 -9.2 18.2005 0 -1 0  255 255 255 255
5.8982 -9.2 -2.31062 0 -1 0  255 255 255 255
12.1643 -9.2 -16.7244 0 -1 0  255 255 255 255
13.9101 -9.2 -4.32736 0 -1 0  255 255 255 255
16.0006 -9.2 -7.60432 0 -1 0  255 255 255 255
-16.724 -9.2 12.164 0 -1 0  255 255 255 255
-9.41521 -9.2 -1.6397 0 -1 0  255 255 255 255
11.77 -9.2 5.61015 0 -1 0  255 255 255 255
11.2232 -9.2 20.691 0 -1 0  255 255 255 255
13.6234 -9.2 -12.2615 0 -1 0  255 255 255 255
-7.60354 -9.2 -16.0001 0 -1 0  255 255 255 255
0.649401 -9.2 -10.1824 0 -1 0  255 255 255 255
4.57123 -9.2 -19.4079 0 -1 0  255 255 255 255
-12.2509 -9.2 13.598 0 -1 0  255 255 255 255
-6.58155 -9.2 -9.52791 0 -1 0  255 255 255 255
-10.1819 -9.2 0.632248 0 -1 0  255 255 255 255
1.17843 -9.2 14.8509 0 -1 0  255 255 255 255
2.96489 -9.2 20.0116 0 -1 0  255 255 255 255
7.92995 -9.2 -17.542 0 -1 0  255 255 255 255
10.9821 -9.2 -4.07488 0 -1 0  255 255 255 255
8.94034 -9.2 -12.2892 0 -1 0  255 255 255 255
1.31588 -9.2 20.1493 0 -1 0  255 255 255 255
19.4082 -9.2 4.57172 0 -1 0  255 255 255 255
-19.4082 -9.2 4.57172 0 -1 0  255 255 255 255
-20.6862 -9.2 2.53739 0 -1 0  255 255 255 255
20.6862 -9.2 2.53739 0 -1 0  255 255 255 255
-7.43265 -9.2 12.8627 0 -1 0  255 255 255 255
3.90895 -9.2 -2.76272 0 -1 0  255 255 255 255
6.70934 -9.2 -20.6384 0 -1 0  255 255 255 255
-3.805 -9.2 -5.1102 0 -1 0  255 255 255 255
-2.96537 -9.2 12.5565 0 -1 0  255 255 255 255
2.53779 -9.2 -20.6864 0 -1 0  255 255 255 255
-3.89394 -9.2 -13.6031 0 -1 0  255 255 255 255
1.6294 -9.2 3.26616 0 -1 0  255 255 255 255
20.6384 -9.2 6.70993 0 -1 0  255 255 255 255
-20.6384 -9.2 6.70993 0 -1 0  255 255 255 255
-17.5412 -9.2 7.92948 0 -1 0  255 255 255 255
17.5503 -9.2 7.92187 0 -1 0  255 255 255 255
-4.32299 -9.2 -13.9008 0 -1 0  255 255 255 255
11.6486 -9.2 6.53627 0 -1 0  255 255 255 255
9.89645 -9.2 1.68135 0 -1 0  255 255 255 255
-11.1151 -9.2 4.30355 0 -1 0  255 255 255 255
12.7148 -9.2 8.98223 0 -1 0  255 255 255 255
2.09894 -9.2 -5.26414 0 -1 0  255 255 255 255
4.73476 -9.2 15.9075 0 -1 0  255 255 255 255
-6.90574 -9.2 4.56121 0 -1 0  255 255 255 255
10.3945 -9.2 7.21753 0 -1 0  255 255 255 255
-8.06339 -9.2 16.9982 0 -1 0  255 255 255 255
12.186 -9.2 14.7781 0 -1 0  255 255 255 255
9.14599 -9.2 12.29 0 -1 0  255 255 255 255
0.986532 -9.2 13.963 0 -1 0  255 255 255 255
-12.8957 -9.2 6.6778 0 -1 0  255 255 255 255
-16.0142 -9.2 -6.44315 0 -1 0  255 255 255 255
-10.3598 -9.2 -10.4513 0 -1 0  255 255 255 255
0.76998 -9.2 16.5816 0 -1 0  255 255 255 255
-5.18882 -9.2 16.364 0 -1 0  255 255 255 255
-3.16365 -9.2 -14.4287 0 -1 0  255 255 255 255
10.4151 -9.2 13.7096 0 -1 0  255 255 255 255
3.74973 -9.2 -19.0851 0 -1 0  255 255 255 255
-0.075961 -9.2 -13.631 0 -1 0  255 255 255 255
6.36759 -9.2 13.8162 0 -1 0  255 255 255 255
19.5764 -9.2 11.2216 0 -1 0  255 255 255 255
6.67922 -9.2 -12.8983 0 -1 0  255 255 255 255
-4.77858 -9.2 20.7317 0 -1 0  255 255 255 255
-14.7725 -9.2 10.99 0 -1 0  255 255 255 255
10.9906 -9.2 -14.774 0 -1 0  255 255 255 255
10.1362 -9.2 9.99862 0 -1 0  255 255 255 255
5.58058 -9.2 2.80389 0 -1 0  255 255 255 255
8.80128 -9.2 11.2899 0 -1 0  255 255 255 255
8.33225 -9.2 -6.31844 0 -1 0  255 255 255 255
11.2061 -9.2 -3.58066 0 -1 0  255 255 255 255
13.56 -9.2 8.92882 0 -1 0  255 255 255 255
11.9826 -9.2 -10.7369 0 -1 0  255 255 255 255
5.06208 -9.2 -1.55144 0 -1 0  255 255 255 255
19.0862 -9.2 3.75078 0 -1 0  255 255 255 255
-19.0862 -9.2 3.75078 0 -1 0  255 255 255 255
-3.47393 -9.2 4.14437 0 -1 0  255 255 255 255
-10.7272 -9.2 11.9665 0 -1 0  255 255 255 255
6.69143 -9.2 -0.471993 0 -1 0  255 255 255 255
-6.04754 -9.2 0.979465 0 -1 0  255 255 255 255
-9.1494 -9.2 15.4823 0 -1 0  255 255 255 255
2.3547 -9.2 20.6486 0 -1 0  255 255 255 255
2.1335 -9.2 14.8045 0 -1 0  255 255 255 255
11.0339 -9.2 9.51121 0 -1 0  255 255 255 255
-8.08654 -9.2 -16.9398 0 -1 0  255 255 255 255
16.9699 -9.2 -8.09025 0 -1 0  255 255 255 255
20.7714 -9.2 -6.64137 0 -1 0  255 255 255 255
-20.68 -9.2 -6.62399 0 -1 0  255 255 255 255
-7.59609 -9.2 -16.8678 0 -1 0  255 255 255 255
16.8742 -9.2 -7.59872 0 -1 0  255 255 255 255
-16.2368 -9.2 13.0027 0 -1 0  255 255 255 255
-6.6409 -9.2 -20.7712 0 -1 0  255 255 255 255
-13.6599 -9.2 7.15086 0 -1 0  255 255 255 255
13.0028 -9.2 -16.2369 0 -1 0  255 255 255 255
7.1514 -9.2 -13.6614 0 -1 0  255 255 255 255
-6.12694 -9.2 11.2998 0 -1 0  255 255 255 255
9.50558 -9.2 9.52296 0 -1 0  255 255 255 255
-12.0907 -9.2 -12.3764 0 -1 0  255 255 255 255
-11.8307 -9.2 -5.98661 0 -1 0  255 255 255 255
-8.59064 -9.2 -7.93949 0 -1 0  255 255 255 255
-16.7022 -9.2 -2.87867 0 -1 0  255 255 255 255
-12.3504 -9.2 -14.043 0 -1 0  255 255 255 255
10.0027 -9.2 5.27064 0 -1 0  255 255 255 255
11.3615 -9.2 11.0435 0 -1 0  255 255 255 255
-10.7781 -9.2 -17.8876 0 -1 0  255 255 255 255
0.927532 -9.2 -6.02954 0 -1 0  255 255 255 255
15.439 -9.2 7.12045 0 -1 0  255 255 255 255
13.0465 -9.2 19.0772 0 -1 0  255 255 255 255
4.44264 -9.2 -4.3868 0 -1 0  255 255 255 255
14.6305 -9.2 -3.75596 0 -1 0  255 255 255 255
17.8888 -9.2 -10.7793 0 -1 0  255 255 255 255
-5.83903 -9.2 2.61421 0 -1 0  255 255 255 255
4.59685 -9.2 -3.56933 0 -1 0  255 255 255 255
-15.4736 -9.2 -3.12648 0 -1 0  255 255 255 255
-7.58225 -9.2 0.559184 0 -1 0  255 255 255 255
-13.4244 -9.2 -8.13435 0 -1 0  255 255 255 255
-16.5598 -9.2 8.18312 0 -1 0  255 255 255 255
8.18399 -9.2 -16.5623 0 -1 0  255 255 255 255
13.1524 -9.2 -2.05235 0 -1 0  255 255 255 255
-2.23942 -9.2 -4.73401 0 -1 0  255 255 255 255
2.67502 -9.2 -5.908 0 -1 0  255 255 255 255
12.9624 -9.2 7.21985 0 -1 0  255 255 255 255
10.6056 -9.2 -2.34876 0 -1 0  255 255 255 255
-10.4336 -9.2 -9.50391 0 -1 0  255 255 255 255
10.7702 -9.2 10.228 0 -1 0  255 255 255 255
-3.26762 -9.2 14.8889 0 -1 0  255 255 255 255
0.571622 -9.2 -7.58911 0 -1 0  255 255 255 255
-3.63924 -9.2 14.1167 0 -1 0  255 255 255 255
19.9489 -9.2 -6.94096 0 -1 0  255 255 255 255
-6.9406 -9.2 -19.9486 0 -1 0  255 255 255 255
17.7428 -9.2 -7.73566 0 -1 0  255 255 255 255
0.942361 -9.2 7.7289 0 -1 0  255 255 255 255
-7.73405 -9.2 -17.7417 0 -1 0  255 255 255 255
-14.3173 -9.2 -1.41555 0 -1 0  255 255 255 255
11.9426 -9.2 -14.4008 0 -1 0  255 255 255 255
-18.9522 -9.2 -1.53702 0 -1 0  255 255 255 255
18.9524 -9.2 -1.537 0 -1 0  255 255 255 255
-14.4 -9.2 11.9424 0 -1 0  255 255 255 255
-11.1084 -9.2 -16.1036 0 -1 0  255 255 255 255
12.876 -9.2 -5.96828 0 -1 0  255 255 255 255
-2.37682 -9.2 -6.01364 0 -1 0  255 255 255 255
-1.53502 -9.2 -18.9528 0 -1 0  255 255 255 255
-13.0328 -9.2 -19.1068 0 -1 0  255 255 255 255
17.1706 -9.2 6.85259 0 -1 0  255 255 255 255
-17.1706 -9.2 6.85259 0 -1 0  255 255 255 255
19.1073 -9.2 -13.033 0 -1 0  255 255 255 255
-13.0504 -9.2 19.0772 0 -1 0  255 255 255 255
13.0509 -9.2 14.3393 0 -1 0  255 255 255 255
7.11462 -9.2 11.1902 0 -1 0  255 255 255 255
11.6151 -9.2 -5.39697 0 -1 0  255 255 255 255
6.85228 -9.2 -17.1714 0 -1 0  255 255 255 255
-11.5033 -9.2 -14.2141 0 -1 0  255 255 255 255
4.56052 -9.2 -6.92011 0 -1 0  255 255 255 255
14.6544 -9.2 0.027482 0 -1 0  255 255 255 255
-14.6739 -9.2 0.063387 0 -1 0  255 255 255 255
-11.896 -9.2 -10.0382 0 -1 0  255 255 255 255
0.468951 -9.2 10.9936 0 -1 0  255 255 255 255
0.064369 -9.2 -14.6716 0 -1 0  255 255 255 255
-12.4001 -9.2 -11.9194 0 -1 0  255 255 255 255
-5.98249 -9.2 -1.33353 0 -1 0  255 255 255 255
-3.84687 -9.2 -3.70553 0 -1 0  255 255 255 255
-4.49499 -9.2 19.0173 0 -1 0  255 255 255 255
-10.5379 -9.2 -12.2412 0 -1 0  255 255 255 255
-10.0028 -9.2 -2.37033 0 -1 0  255 255 255 255
-2.85466 -9.2 20.6633 0 -1 0  255 255 255 255
-3.78431 -9.2 -14.637 0 -1 0  255 255 255 255
13.0532 -9.2 17.3005 0 -1 0  255 255 255 255
-11.9532 -9.2 -3.89949 0 -1 0  255 255 255 255
3.21738 -9.2 11.4671 0 -1 0  255 255 255 255
18.5942 -9.2 1.18302 0 -1 0  255 255 255 255
-18.5942 -9.2 1.18302 0 -1 0  255 255 255 255
2.94401 -9.2 -4.84952 0 -1 0  255 255 255 255
18.5037 -9.2 -7.04236 0 -1 0  255 255 255 255
1.1843 -9.2 -18.5947 0 -1 0  255 255 255 255
6.77941 -9.2 12.3141 0 -1 0  255 255 255 255
2.26292 -9.2 15.8472 0 -1 0  255 255 255 255
6.71721 -9.2 14.3327 0 -1 0  255 255 255 255
13.2865 -9.2 6.27476 0 -1 0  255 255 255 255
-18.5983 -9.2 -7.02136 0 -1 0  255 255 255 255
5.42917 -9.2 3.71821 0 -1 0  255 255 255 255
-7.04214 -9.2 -18.5025 0 -1 0  255 255 255 255
-16.9854 -9.2 -8.08341 0 -1 0  255 255 255 255
11.9888 -9.2 -18.9729 0 -1 0  255 255 255 255
14.2096 -9.2 5.72171 0 -1 0  255 255 255 255
-16.9626 -9.2 -7.55244 0 -1 0  255 255 255 255
-18.9724 -9.2 11.9881 0 -1 0  255 255 255 255
-9.16297 -9.2 -18.6522 0 -1 0  255 255 255 255
-18.5489 -9.2 -9.23987 0 -1 0  255 255 255 255
18.6528 -9.2 -9.16405 0 -1 0  255 255 255 255
-1.85651 -9.2 15.6694 0 -1 0  255 255 255 255
11.1925 -9.2 13.4051 0 -1 0  255 255 255 255
-14.7586 -9.2 -5.10876 0 -1 0  255 255 255 255
12.1928 -9.2 11.4496 0 -1 0  255 255 255 255
-9.72169 -9.2 12.9301 0 -1 0  255 255 255 255
-18.4229 -9.2 -0.454635 0 -1 0  255 255 255 255
18.4229 -9.2 -0.454635 0 -1 0  255 255 255 255
-4.92007 -9.2 13.0812 0 -1 0  255 255 255 255
-0.453723 -9.2 -18.4236 0 -1 0  255 255 255 255
12.9415 -9.2 -9.7079 0 -1 0  255 255 255 255
-13.5251 -9.2 -7.60688 0 -1 0  255 255 255 255
3.19232 -9.2 14.7697 0 -1 0  255 255 255 255
6.81842 -9.2 -7.1024 0 -1 0  255 255 255 255
0.825589 -9.2 11.3409 0 -1 0  255 255 255 255
-2.366 -9.2 7.03971 0 -1 0  255 255 255 255
-15.5848 -9.2 -12.213 0 -1 0  255 255 255 255
1.62128 -9.2 4.18506 0 -1 0  255 255 255 255
-7.12325 -9.2 20.0168 0 -1 0  255 255 255 255
-2.75441 -9.2 13.7371 0 -1 0  255 255 255 255
-3.54288 -9.2 -1.50866 0 -1 0  255 255 255 255
17.2137 -9.2 11.2983 0 -1 0  255 255 255 255
17.2613 -9.2 13.0263 0 -1 0  255 255 255 255
8.99814 -9.2 4.19927 0 -1 0  255 255 255 255
-4.05323 -9.2 -16.7143 0 -1 0  255 255 255 255
-1.5054 -9.2 2.5158 0 -1 0  255 255 255 255
16.7127 -9.2 -4.05451 0 -1 0  255 255 255 255
-11.3405 -9.2 -2.68423 0 -1 0  255 255 255 255
8.32499 -9.2 -9.07197 0 -1 0  255 255 255 255
7.22083 -9.2 2.97423 0 -1 0  255 255 255 255
-3.90416 -9.2 -19.9464 0 -1 0  255 255 255 255
19.9463 -9.2 -3.90563 0 -1 0  255 255 255 255
-19.9463 -9.2 -3.90563 0 -1 0  255 255 255 255
-10.7153 -9.2 -0.815704 0 -1 0  255 255 255 255
-7.04201 -9.2 5.89869 0 -1 0  255 255 255 255
7.77385 -9.2 -6.20938 0 -1 0  255 255 255 255
-4.7511 -9.2 -15.1794 0 -1 0  255 255 255 255
-0.807968 -9.2 -10.7221 0 -1 0  255 255 255 255
-4.59637 -9.2 14.6359 0 -1 0  255 255 255 255
7.21948 -9.2 -4.8635 0 -1 0  255 255 255 255
-5.98092 -9.2 -12.8822 0 -1 0  255 255 255 255
12.4353 -9.2 -2.75769 0 -1 0  255 255 255 255
4.84656 -9.2 1.75629 0 -1 0  255 255 255 255
-6.71344 -9.2 15.8252 0 -1 0  255 255 255 255
-13.6354 -9.2 -0.070328 0 -1 0  255 255 255 255
12.5304 -9.2 -9.23281 0 -1 0  255 255 255 255
-7.97726 -9.2 19.1973 0 -1 0  255 255 255 255
-3.67116 -9.2 20.6084 0 -1 0  255 255 255 255
11.1392 -9.2 19.5295 0 -1 0  255 255 255 255
10.6442 -9.2 -0.83693 0 -1 0  255 255 255 255
-6.90173 -9.2 -0.647794 0 -1 0  255 255 255 255
-6.94097 -9.2 8.98335 0 -1 0  255 255 255 255
6.40796 -9.2 20.6555 0 -1 0  255 255 255 255
-13.39 -9.2 -10.6991 0 -1 0  255 255 255 255
12.8935 -9.2 9.53933 0 -1 0  255 255 255 255
20.7094 -9.2 0.708905 0 -1 0  255 255 255 255
-20.7094 -9.2 0.708905 0 -1 0  255 255 255 255
18.2882 -9.2 5.64343 0 -1 0  255 255 255 255
-18.2882 -9.2 5.64343 0 -1 0  255 255 255 255
-0.807846 -9.2 14.2496 0 -1 0  255 255 255 255
-0.750287 -9.2 9.73661 0 -1 0  255 255 255 255
5.643 -9.2 -18.2884 0 -1 0  255 255 255 255
0.708334 -9.2 -20.7165 0 -1 0  255 255 255 255
-11.242 -9.2 -10.709 0 -1 0  255 255 255 255
13.5719 -9.2 -12.977 0 -1 0  255 255 255 255
-12.977 -9.2 13.572 0 -1 0  255 255 255 255
-20.1408 -9.2 -6.70531 0 -1 0  255 255 255 255
6.00368 -9.2 9.7482 0 -1 0  255 255 255 255
-13.0708 -9.2 16.7304 0 -1 0  255 255 255 255
-7.99398 -9.2 -5.60203 0 -1 0  255 255 255 255
4.60621 -9.2 -6.09679 0 -1 0  255 255 255 255
16.7302 -9.2 -13.0707 0 -1 0  255 255 255 255
-11.2478 -9.2 13.3772 0 -1 0  255 255 255 255
0.854245 -9.2 -4.19249 0 -1 0  255 255 255 255
-19.1975 -9.2 -7.77335 0 -1 0  255 255 255 255
15.8234 -9.2 8.88431 0 -1 0  255 255 255 255
5.83756 -9.2 2.15832 0 -1 0  255 255 255 255
-3.04507 -9.2 -4.45544 0 -1 0  255 255 255 255
-13.0684 -9.2 -16.7108 0 -1 0  255 255 255 255
7.08098 -9.2 -16.3789 0 -1 0  255 255 255 255
16.3773 -9.2 7.07998 0 -1 0  255 255 255 255
13.3752 -9.2 -11.2482 0 -1 0  255 255 255 255
-3.37264 -9.2 17.9064 0 -1 0  255 255 255 255
-16.3774 -9.2 7.07995 0 -1 0  255 255 255 255
2.96116 -9.2 10.4757 0 -1 0  255 255 255 255
1.62292 -9.2 2.40405 0 -1 0  255 255 255 255
0.711331 -9.2 -14.1102 0 -1 0  255 255 255 255
-19.0644 -9.2 -13.0267 0 -1 0  255 255 255 255
13.7609 -9.2 6.67158 0 -1 0  255 255 255 255
-14.1091 -9.2 0.712023 0 -1 0  255 255 255 255
14.1196 -9.2 0.640515 0 -1 0  255 255 255 255
8.43876 -9.2 6.22313 0 -1 0  255 255 255 255
12.1395 -9.2 17.4451 0 -1 0  255 255 255 255
-8.27672 -9.2 -17.5201 0 -1 0  255 255 255 255
-1.5345 -9.2 -17.1692 0 -1 0  255 255 255 255
-10.3168 -9.2 19.2707 0 -1 0  255 255 255 255
7.0222 -9.2 2.15136 0 -1 0  255 255 255 255
14.7035 -9.2 6.80844 0 -1 0  255 255 255 255
17.5242 -9.2 -8.27229 0 -1 0  255 255 255 255
1.90741 -9.2 13.5324 0 -1 0  255 255 255 255
7.90963 -9.2 -7.255 0 -1 0  255 255 255 255
-17.1701 -9.2 -1.51458 0 -1 0  255 255 255 255
17.1688 -9.2 -1.53662 0 -1 0  255 255 255 255
7.83387 -9.2 8.70108 0 -1 0  255 255 255 255
-6.81422 -9.2 -2.90313 0 -1 0  255 255 255 255
-2.37521 -9.2 10.8291 0 -1 0  255 255 255 255
-10.2385 -9.2 12.7812 0 -1 0  255 255 255 255
-2.21612 -9.2 1.87745 0 -1 0  255 255 255 255
12.7719 -9.2 -10.2346 0 -1 0  255 255 255 255
-9.7703 -9.2 16.9394 0 -1 0  255 255 255 255
-3.31187 -9.2 1.76358 0 -1 0  255 255 255 255
-5.40318 -9.2 0.413299 0 -1 0  255 255 255 255
7.26766 -9.2 16.8236 0 -1 0  255 255 255 255
-18.8458 -9.2 8.22199 0 -1 0  255 255 255 255
18.8458 -9.2 8.22199 0 -1 0  255 255 255 255
9.11634 -9.2 17.224 0 -1 0  255 255 255 255
16.2994 -9.2 11.8801 0 -1 0  255 255 255 255
3.82615 -9.2 -3.7196 0 -1 0  255 255 255 255
0.783298 -9.2 18.773 0 -1 0  255 255 255 255
8.2219 -9.2 -18.8454 0 -1 0  255 255 255 255
9.49424 -9.2 -8.31188 0 -1 0  255 255 255 255
-7.17431 -9.2 8.0626 0 -1 0  255 255 255 255
-10.7401 -9.2 -1.91539 0 -1 0  255 255 255 255
-6.85016 -9.2 -16.4404 0 -1 0  255 255 255 255
-12.2465 -9.2 -15.4989 0 -1 0  255 255 255 255
-11.2734 -9.2 10.7987 0 -1 0  255 255 255 255
-14.8382 -9.2 -7.14815 0 -1 0  255 255 255 255
-7.56436 -9.2 6.1837 0 -1 0  255 255 255 255
-11.2847 -9.2 17.5674 0 -1 0  255 255 255 255
17.0553 -9.2 -8.98446 0 -1 0  255 255 255 255
-7.56681 -9.2 5.21978 0 -1 0  255 255 255 255
-6.06899 -9.2 4.68995 0 -1 0  255 255 255 255
-16.6822 -9.2 -3.83415 0 -1 0  255 255 255 255
-9.55134 -9.2 -16.928 0 -1 0  255 255 255 255
13.5383 -9.2 0.388948 0 -1 0  255 255 255 255
4.0705 -9.2 13.5333 0 -1 0  255 255 255 255
-4.74039 -9.2 -18.068 0 -1 0  255 255 255 255
9.81312 -9.2 18.3725 0 -1 0  255 255 255 255
6.11737 -9.2 -7.69534 0 -1 0  255 255 255 255
-3.43954 -9.2 7.25962 0 -1 0  255 255 255 255
-11.294 -9.2 -17.5488 0 -1 0  255 255 255 255
-11.2328 -9.2 -5.32537 0 -1 0  255 255 255 255
17.5824 -9.2 -11.259 0 -1 0  255 255 255 255
12.0952 -9.2 0.272516 0 -1 0  255 255 255 255
18.0667 -9.2 -4.74204 0 -1 0  255 255 255 255
-18.0856 -9.2 -4.75365 0 -1 0  255 255 255 255
16.4396 -9.2 -6.84819 0 -1 0  255 255 255 255
5.50863 -9.2 -3.26118 0 -1 0  255 255 255 255
-0.837145 -9.2 12.118 0 -1 0  255 255 255 255
-8.46994 -9.2 -9.21887 0 -1 0  255 255 255 255
-6.31081 -9.2 -19.7895 0 -1 0  255 255 255 255
-15.8316 -9.2 8.8329 0 -1 0  255 255 255 255
8.83447 -9.2 -15.8347 0 -1 0  255 255 255 255
-19.7876 -9.2 -6.33732 0 -1 0  255 255 255 255
19.7803 -9.2 -6.32549 0 -1 0  255 255 255 255
-5.1868 -9.2 -13.9129 0 -1 0  255 255 255 255
-2.11588 -9.2 -6.91314 0 -1 0  255 255 255 255
6.67211 -9.2 10.6071 0 -1 0  255 255 255 255
-4.62331 -9.2 -0.200543 0 -1 0  255 255 255 255
-8.90088 -9.2 -7.15995 0 -1 0  255 255 255 255
-20.0344 -9.2 12.9721 0 -1 0  255 255 255 255
12.9721 -9.2 -20.0346 0 -1 0  255 255 255 255
-9.17561 -9.2 -20.0865 0 -1 0  255 255 255 255
-20.0863 -9.2 -9.17588 0 -1 0  255 255 255 255
20.0867 -9.2 -9.17579 0 -1 0  255 255 255 255
13.8461 -9.2 13.0288 0 -1 0  255 255 255 255
-0.180216 -9.2 15.2088 0 -1 0  255 255 255 255
-7.70427 -9.2 -5.1096 0 -1 0  255 255 255 255
12.7931 -9.2 12.7149 0 -1 0  255 255 255 255
4.52074 -9.2 -9.48955 0 -1 0  255 255 255 255
-4.07291 -9.2 19.3505 0 -1 0  255 255 255 255
17.7319 -9.2 -6.41783 0 -1 0  255 255 255 255
-10.6291 -9.2 9.88702 0 -1 0  255 255 255 255
-6.40338 -9.2 -17.7217 0 -1 0  255 255 255 255
10.4251 -9.2 -12.4778 0 -1 0  255 255 255 255
-7.29405 -9.2 -3.9908 0 -1 0  255 255 255 255
-13.8544 -9.2 9.50102 0 -1 0  255 255 255 255
-13.3861 -9.2 -3.40702 0 -1 0  255 255 255 255
9.4826 -9.2 -13.8594 0 -1 0  255 255 255 255
-9.42597 -9.2 10.7095 0 -1 0  255 255 255 255
-2.75888 -9.2 -12.5104 0 -1 0  255 255 255 255
10.4198 -9.2 8.18473 0 -1 0  255 255 255 255
-14.5854 -9.2 10.0057 0 -1 0  255 255 255 255
6.73157 -9.2 4.19126 0 -1 0  255 255 255 255
10.0053 -9.2 -14.5871 0 -1 0  255 255 255 255
13.2657 -9.2 11.1915 0 -1 0  255 255 255 255
-10.6585 -9.2 0.554956 0 -1 0  255 255 255 255
-15.4348 -9.2 -9.22204 0 -1 0  255 255 255 255
1.35708 -9.2 11.0959 0 -1 0  255 255 255 255
-17.9291 -9.2 -8.5644 0 -1 0  255 255 255 255
-1.89627 -9.2 3.54588 0 -1 0  255 255 255 255
-14.7785 -9.2 1.5644 0 -1 0  255 255 255 255
14.7647 -9.2 1.54256 0 -1 0  255 255 255 255
-2.3882 -9.2 -8.41731 0 -1 0  255 255 255 255
11.7897 -9.2 7.41798 0 -1 0  255 255 255 255
5.17547 -9.2 -15.8662 0 -1 0  255 255 255 255
0.553517 -9.2 -10.6457 0 -1 0  255 255 255 255
7.96158 -9.2 20.7098 0 -1 0  255 255 255 255
-9.45105 -9.2 4.49951 0 -1 0  255 255 255 255
-17.0739 -9.2 -8.98785 0 -1 0  255 255 255 255
-1.88572 -9.2 -10.7402 0 -1 0  255 255 255 255
1.56686 -9.2 -14.779 0 -1 0  255 255 255 255
0.569186 -9.2 10.4827 0 -1 0  255 255 255 255
-1.72676 -9.2 -3.26516 0 -1 0  255 255 255 255
-15.8932 -9.2 5.21723 0 -1 0  255 255 255 255
6.75876 -9.2 -8.28796 0 -1 0  255 255 255 255
-19.2916 -9.2 6.79673 0 -1 0  255 255 255 255
19.2916 -9.2 6.79673 0 -1 0  255 255 255 255
0.045263 -9.2 12.0712 0 -1 0  255 255 255 255
13.9166 -9.2 -5.15626 0 -1 0  255 255 255 255
1.5982 -9.2 18.8336 0 -1 0  255 255 255 255
6.79514 -9.2 -19.2918 0 -1 0  255 255 255 255
1.50754 -9.2 19.2962 0 -1 0  255 255 255 255
7.24129 -9.2 -20.6966 0 -1 0  255 255 255 255
12.9411 -9.2 -13.48 0 -1 0  255 255 255 255
-13.48 -9.2 12.9411 0 -1 0  255 255 255 255
1.01545 -9.2 -2.67751 0 -1 0  255 255 255 255
20.6967 -9.2 7.24186 0 -1 0  255 255 255 255
-20.6967 -9.2 7.24186 0 -1 0  255 255 255 255
-13.9012 -9.2 8.00958 0 -1 0  255 255 255 255
8.01158 -9.2 -13.9047 0 -1 0  255 255 255 255
0.050487 -9.2 -5.53318 0 -1 0  255 255 255 255
15.8714 -9.2 5.24508 0 -1 0  255 255 255 255
-6.85434 -9.2 -19.0793 0 -1 0  255 255 255 255
19.0793 -9.2 -6.8553 0 -1 0  255 255 255 255
-10.8658 -9.2 -2.77769 0 -1 0  255 255 255 255
10.8335 -9.2 -3.19498 0 -1 0  255 255 255 255
-17.4422 -9.2 -7.34735 0 -1 0  255 255 255 255
-8.83023 -9.2 8.99824 0 -1 0  255 255 255 255
-6.06423 -9.2 -0.063492 0 -1 0  255 255 255 255
-13.1823 -9.2 10.0898 0 -1 0  255 255 255 255
-0.134363 -9.2 -6.04862 0 -1 0  255 255 255 255
9.9019 -9.2 -12.2487 0 -1 0  255 255 255 255
-12.0806 -9.2 7.39239 0 -1 0  255 255 255 255
-5.59331 -9.2 -15.4283 0 -1 0  255 255 255 255
-0.163623 -9.2 -20.6879 0 -1 0  255 255 255 255
-9.49719 -9.2 -19.1015 0 -1 0  255 255 255 255
-6.37195 -9.2 13.8637 0 -1 0  255 255 255 255
-4.79689 -9.2 5.7088 0 -1 0  255 255 255 255
7.49676 -9.2 4.90842 0 -1 0  255 255 255 255
10.0871 -9.2 -13.1807 0 -1 0  255 255 255 255
2.35272 -9.2 -13.8332 0 -1 0  255 255 255 255
13.8118 -9.2 2.35763 0 -1 0  255 255 255 255
-13.8322 -9.2 2.35424 0 -1 0  255 255 255 255
9.27849 -9.2 0.985049 0 -1 0  255 255 255 255
-19.0927 -9.2 -9.50809 0 -1 0  255 255 255 255
19.1021 -9.2 -9.49799 0 -1 0  255 255 255 255
12.2862 -9.2 18.7396 0 -1 0  255 255 255 255
-20.6881 -9.2 -0.164543 0 -1 0  255 255 255 255
20.6881 -9.2 -0.164543 0 -1 0  255 255 255 255
5.29814 -9.2 8.82185 0 -1 0  255 255 255 255
7.3944 -9.2 -12.0845 0 -1 0  255 255 255 255
-3.60528 -9.2 -18.2418 0 -1 0  255 255 255 255
-15.6308 -9.2 6.53802 0 -1 0  255 255 255 255
11.861 -9.2 -9.8611 0 -1 0  255 255 255 255
-19.0978 -9.2 -6.8558 0 -1 0  255 255 255 255
10.4096 -9.2 -14.0044 0 -1 0  255 255 255 255
-4.49061 -9.2 6.41401 0 -1 0  255 255 255 255
6.53911 -9.2 -15.6319 0 -1 0  255 255 255 255
-10.4845 -9.2 11.3587 0 -1 0  255 255 255 255
-16.9337 -9.2 -9.78192 0 -1 0  255 255 255 255
-10.3005 -9.2 -5.35226 0 -1 0  255 255 255 255
-17.441 -9.2 -9.92996 0 -1 0  255 255 255 255
-8.84782 -9.2 -11.5404 0 -1 0  255 255 255 255
-14.0093 -9.2 10.4052 0 -1 0  255 255 255 255
0.086558 -9.2 15.9389 0 -1 0  255 255 255 255
11.672 -9.2 -18.0599 0 -1 0  255 255 255 255
6.67148 -9.2 11.4355 0 -1 0  255 255 255 255
18.2404 -9.2 -3.60674 0 -1 0  255 255 255 255
-18.2377 -9.2 -3.62422 0 -1 0  255 255 255 255
-3.87702 -9.2 3.19993 0 -1 0  255 255 255 255
-18.0591 -9.2 11.6721 0 -1 0  255 255 255 255
15.6392 -9.2 6.52887 0 -1 0  255 255 255 255
-2.72049 -9.2 -11.1207 0 -1 0  255 255 255 255
0.687794 -9.2 19.3007 0 -1 0  255 255 255 255
-3.19881 -9.2 10.8417 0 -1 0  255 255 255 255
2.12716 -9.2 -16.3111 0 -1 0  255 255 255 255
9.41799 -9.2 -1.09917 0 -1 0  255 255 255 255
-17.5378 -9.2 -8.24197 0 -1 0  255 255 255 255
-8.97889 -9.2 -15.0315 0 -1 0  255 255 255 255
17.4053 -9.2 6.00502 0 -1 0  255 255 255 255
-17.4053 -9.2 6.00502 0 -1 0  255 255 255 255
6.00489 -9.2 -17.4054 0 -1 0  255 255 255 255
6.32407 -9.2 7.06953 0 -1 0  255 255 255 255
7.77081 -9.2 2.85235 0 -1 0  255 255 255 255
-9.9176 -9.2 17.4431 0 -1 0  255 255 255 255
-16.3069 -9.2 2.1289 0 -1 0  255 255 255 255
16.3069 -9.2 2.1289 0 -1 0  255 255 255 255
-9.8881 -9.2 -17.4544 0 -1 0  255 255 255 255
15.0384 -9.2 -8.98222 0 -1 0  255 255 255 255
16.9327 -9.2 -9.78675 0 -1 0  255 255 255 255
17.4448 -9.2 -9.93315 0 -1 0  255 255 255 255
2.69339 -9.2 19.1712 0 -1 0  255 255 255 255
-2.84612 -9.2 -16.7197 0 -1 0  255 255 255 255
3.24915 -9.2 15.6996 0 -1 0  255 255 255 255
16.7178 -9.2 -2.84766 0 -1 0  255 255 255 255
3.29308 -9.2 19.1224 0 -1 0  255 255 255 255
11.2601 -9.2 8.66887 0 -1 0  255 255 255 255
-16.0868 -9.2 -2.57731 0 -1 0  255 255 255 255
5.24133 -9.2 -0.735426 0 -1 0  255 255 255 255
2.65007 -9.2 17.1237 0 -1 0  255 255 255 255
-13.2221 -9.2 -11.5529 0 -1 0  255 255 255 255
8.1393 -9.2 13.169 0 -1 0  255 255 255 255
-4.50651 -9.2 -3.00329 0 -1 0  255 255 255 255
-5.03586 -9.2 2.33014 0 -1 0  255 255 255 255
6.15658 -9.2 8.49725 0 -1 0  255 255 255 255
13.0698 -9.2 -17.2808 0 -1 0  255 255 255 255
-17.2807 -9.2 13.0698 0 -1 0  255 255 255 255
-20.0619 -9.2 -11.882 0 -1 0  255 255 255 255
-17.2021 -9.2 11.3313 0 -1 0  255 255 255 255
-8.40155 -9.2 11.7812 0 -1 0  255 255 255 255
-6.94165 -9.2 -0.154167 0 -1 0  255 255 255 255
11.332 -9.2 -17.2028 0 -1 0  255 255 255 255
7.10685 -9.2 20.195 0 -1 0  255 255 255 255
-7.99837 -9.2 -4.73092 0 -1 0  255 255 255 255
-3.50276 -9.2 -8.9773 0 -1 0  255 255 255 255
-0.8662 -9.2 16.0209 0 -1 0  255 255 255 255
2.10464 -9.2 20.1222 0 -1 0  255 255 255 255
4.6032 -9.2 -8.17891 0 -1 0  255 255 255 255
-5.95452 -9.2 -10.2797 0 -1 0  255 255 255 255
4.77389 -9.2 -4.6593 0 -1 0  255 255 255 255
-7.21054 -9.2 3.10397 0 -1 0  255 255 255 255
-9.7307 -9.2 9.11258 0 -1 0  255 255 255 255
-6.03345 -9.2 -2.18352 0 -1 0  255 255 255 255
9.76706 -9.2 -1.97752 0 -1 0  255 255 255 255
-8.5526 -9.2 5.24663 0 -1 0  255 255 255 255
-15.7071 -9.2 -4.12332 0 -1 0  255 255 255 255
-1.93682 -9.2 -9.76853 0 -1 0  255 255 255 255
7.5201 -9.2 6.2689 0 -1 0  255 255 255 255
4.18339 -9.2 6.99177 0 -1 0  255 255 255 255
-16.0731 -9.2 -11.5305 0 -1 0  255 255 255 255
-3.28487 -9.2 -20.6879 0 -1 0  255 255 255 255
-15.5274 -9.2 -8.33896 0 -1 0  255 255 255 255
-0.153238 -9.2 -6.92066 0 -1 0  255 255 255 255
-3.06051 -9.2 10.1127 0 -1 0  255 255 255 255
17.9455 -9.2 -1.38533 0 -1 0  255 255 255 255
-17.9455 -9.2 -1.38533 0 -1 0  255 255 255 255
20.6879 -9.2 -3.2862 0 -1 0  255 255 255 255
-20.6879 -9.2 -3.2862 0 -1 0  255 255 255 255
15.8801 -9.2 7.48404 0 -1 0  255 255 255 255
-0.128224 -9.2 -4.63062 0 -1 0  255 255 255 255
5.19555 -9.2 -8.4982 0 -1 0  255 255 255 255
-1.38363 -9.2 -17.9466 0 -1 0  255 255 255 255
5.50148 -9.2 9.77871 0 -1 0  255 255 255 255
2.64661 -9.2 -2.53812 0 -1 0  255 255 255 255
10.0247 -9.2 16.0036 0 -1 0  255 255 255 255
-5.89896 -9.2 -6.40565 0 -1 0  255 255 255 255
14.0136 -9.2 9.70409 0 -1 0  255 255 255 255
3.11935 -9.2 -7.22298 0 -1 0  255 255 255 255
3.61919 -9.2 -1.21203 0 -1 0  255 255 255 255
1.82219 -9.2 6.21591 0 -1 0  255 255 255 255
-1.45077 -9.2 -4.52068 0 -1 0  255 255 255 255
5.08762 -9.2 12.7269 0 -1 0  255 255 255 255
11.7052 -9.2 18.2729 0 -1 0  255 255 255 255
-9.77907 -9.2 -1.94156 0 -1 0  255 255 255 255
18.3732 -9.2 6.52263 0 -1 0  255 255 255 255
-18.3732 -9.2 6.52263 0 -1 0  255 255 255 255
-9.89359 -9.2 -8.91912 0 -1 0  255 255 255 255
6.52182 -9.2 -18.3734 0 -1 0  255 255 255 255
10.0265 -9.2 -2.38765 0 -1 0  255 255 255 255
-17.6479 -9.2 -6.34081 0 -1 0  255 255 255 255
-5.34795 -9.2 -15.8751 0 -1 0  255 255 255 255
-6.57444 -9.2 19.8868 0 -1 0  255 255 255 255
-1.29105 -9.2 19.2257 0 -1 0  255 255 255 255
-9.01352 -9.2 15.044 0 -1 0  255 255 255 255
7.18315 -9.2 -9.83354 0 -1 0  255 255 255 255
3.098 -9.2 16.508 0 -1 0  255 255 255 255
-9.89719 -9.2 7.22371 0 -1 0  255 255 255 255
-3.39963 -9.2 0.858805 0 -1 0  255 255 255 255
-2.94221 -9.2 -0.178927 0 -1 0  255 255 255 255
-9.54665 -9.2 20.7199 0 -1 0  255 255 255 255
4.26445 -9.2 1.77748 0 -1 0  255 255 255 255
3.03482 -9.2 6.91424 0 -1 0  255 255 255 255
19.4521 -9.2 7.57726 0 -1 0  255 255 255 255
-19.4521 -9.2 7.57726 0 -1 0  255 255 255 255
-17.6767 -9.2 4.45252 0 -1 0  255 255 255 255
17.6767 -9.2 4.45252 0 -1 0  255 255 255 255
4.45278 -9.2 -17.6763 0 -1 0  255 255 255 255
7.57654 -9.2 -19.4516 0 -1 0  255 255 255 255
7.49818 -9.2 -15.8897 0 -1 0  255 255 255 255
11.1889 -9.2 -0.015305 0 -1 0  255 255 255 255
-2.8161 -9.2 19.3469 0 -1 0  255 255 255 255
-2.40247 -9.2 -19.1959 0 -1 0  255 255 255 255
-3.16512 -9.2 2.78373 0 -1 0  255 255 255 255
-19.1948 -9.2 -2.40448 0 -1 0  255 255 255 255
19.1948 -9.2 -2.40448 0 -1 0  255 255 255 255
-15.8876 -9.2 7.49705 0 -1 0  255 255 255 255
-19.5254 -9.2 2.99773 0 -1 0  255 255 255 255
19.5254 -9.2 2.99773 0 -1 0  255 255 255 255
-3.05251 -9.2 12.0212 0 -1 0  255 255 255 255
2.9976 -9.2 -19.5263 0 -1 0  255 255 255 255
19.1942 -9.2 11.0307 0 -1 0  255 255 255 255
11.9552 -9.2 19.9782 0 -1 0  255 255 255 255
8.60132 -9.2 16.0934 0 -1 0  255 255 255 255
8.93644 -9.2 6.12944 0 -1 0  255 255 255 255
-11.8862 -9.2 -20.0659 0 -1 0  255 255 255 255
20.0663 -9.2 -11.8865 0 -1 0  255 255 255 255
-7.0771 -9.2 -7.37458 0 -1 0  255 255 255 255
15.8869 -9.2 -5.33147 0 -1 0  255 255 255 255
-8.39089 -9.2 12.2458 0 -1 0  255 255 255 255
-12.9423 -9.2 11.5329 0 -1 0  255 255 255 255
-2.56236 -9.2 16.2731 0 -1 0  255 255 255 255
-9.64978 -9.2 10.0379 0 -1 0  255 255 255 255
7.14153 -9.2 17.4172 0 -1 0  255 255 255 255
-6.73162 -9.2 3.99947 0 -1 0  255 255 255 255
11.5438 -9.2 -12.9475 0 -1 0  255 255 255 255
3.99642 -9.2 -6.74681 0 -1 0  255 255 255 255
-10.2086 -9.2 7.58966 0 -1 0  255 255 255 255
5.168 -9.2 -7.56298 0 -1 0  255 255 255 255
-13.8769 -9.2 -5.91801 0 -1 0  255 255 255 255
-11.8171 -9.2 15.0737 0 -1 0  255 255 255 255
-1.27606 -9.2 -5.89677 0 -1 0  255 255 255 255
-0.692432 -9.2 -6.67037 0 -1 0  255 255 255 255
15.0737 -9.2 -11.8171 0 -1 0  255 255 255 255
-8.52865 -9.2 7.09167 0 -1 0  255 255 255 255
-6.51155 -9.2 9.62811 0 -1 0  255 255 255 255
17.9349 -9.2 -8.60321 0 -1 0  255 255 255 255
13.6403 -9.2 1.75361 0 -1 0  255 255 255 255
-13.6226 -9.2 1.71334 0 -1 0  255 255 255 255
-8.60319 -9.2 -17.9392 0 -1 0  255 255 255 255
6.53618 -9.2 14.7423 0 -1 0  255 255 255 255
-9.51173 -9.2 -1.12611 0 -1 0  255 255 255 255
-8.61125 -9.2 3.2832 0 -1 0  255 255 255 255
12.3958 -9.2 10.989 0 -1 0  255 255 255 255
9.45222 -9.2 -6.78682 0 -1 0  255 255 255 255
15.1912 -9.2 -4.59567 0 -1 0  255 255 255 255
7.98738 -9.2 15.4071 0 -1 0  255 255 255 255
-8.60083 -9.2 8.11548 0 -1 0  255 255 255 255
10.3622 -9.2 19.2056 0 -1 0  255 255 255 255
-14.2247 -9.2 -3.62117 0 -1 0  255 255 255 255
19.9473 -9.2 -2.90054 0 -1 0  255 255 255 255
-19.9473 -9.2 -2.90054 0 -1 0  255 255 255 255
-10.6832 -9.2 -17.0164 0 -1 0  255 255 255 255
-4.51341 -9.2 -1.46917 0 -1 0  255 255 255 255
1.71458 -9.2 -13.6234 0 -1 0  255 255 255 255
6.64396 -9.2 -16.1804 0 -1 0  255 255 255 255
1.69173 -9.2 -5.37328 0 -1 0  255 255 255 255
-5.5299 -9.2 17.7663 0 -1 0  255 255 255 255
12.1964 -9.2 -1.90885 0 -1 0  255 255 255 255
9.02601 -9.2 6.93637 0 -1 0  255 255 255 255
-2.90813 -9.2 -19.9463 0 -1 0  255 255 255 255
16.1793 -9.2 6.63769 0 -1 0  255 255 255 255
-4.96237 -9.2 14.9592 0 -1 0  255 255 255 255
4.17112 -9.2 -1.46986 0 -1 0  255 255 255 255
6.86855 -9.2 5.65065 0 -1 0  255 255 255 255
14.9614 -9.2 11.7118 0 -1 0  255 255 255 255
-16.1803 -9.2 6.6429 0 -1 0  255 255 255 255
-12.3252 -9.2 18.6596 0 -1 0  255 255 255 255
3.55845 -9.2 9.78943 0 -1 0  255 255 255 255
3.99587 -9.2 -20.1039 0 -1 0  255 255 255 255
-20.1045 -9.2 3.99636 0 -1 0  255 255 255 255
20.1045 -9.2 3.99636 0 -1 0  255 255 255 255
-15.067 -9.2 -7.58081 0 -1 0  255 255 255 255
6.27327 -9.2 20.0297 0 -1 0  255 255 255 255
14.5144 -9.2 -11.7982 0 -1 0  255 255 255 255
-0.160611 -9.2 19.9794 0 -1 0  255 255 255 255
-11.7977 -9.2 14.5141 0 -1 0  255 255 255 255
10.3374 -9.2 -3.32063 0 -1 0  255 255 255 255
17.2532 -9.2 12.0405 0 -1 0  255 255 255 255
17.0332 -9.2 -10.6931 0 -1 0  255 255 255 255
8.65061 -9.2 16.979 0 -1 0  255 255 255 255
3.77756 -9.2 -9.07458 0 -1 0  255 255 255 255
7.85077 -9.2 19.9289 0 -1 0  255 255 255 255
9.90837 -9.2 7.19611 0 -1 0  255 255 255 255
3.57618 -9.2 19.9648 0 -1 0  255 255 255 255
-5.38186 -9.2 -2.89091 0 -1 0  255 255 255 255
8.18786 -9.2 11.164 0 -1 0  255 255 255 255
11.584 -9.2 -16.4087 0 -1 0  255 255 255 255
-16.4083 -9.2 11.5832 0 -1 0  255 255 255 255
10.9755 -9.2 -15.6228 0 -1 0  255 255 255 255
-15.6216 -9.2 10.9751 0 -1 0  255 255 255 255
10.4703 -9.2 -19.4439 0 -1 0  255 255 255 255
-6.20246 -9.2 -5.54315 0 -1 0  255 255 255 255
2.25002 -9.2 7.51901 0 -1 0  255 255 255 255
-16.0167 -9.2 -9.93876 0 -1 0  255 255 255 255
-19.4431 -9.2 10.4712 0 -1 0  255 255 255 255
-9.15627 -9.2 11.6073 0 -1 0  255 255 255 255
14.7628 -9.2 7.68585 0 -1 0  255 255 255 255
-15.1739 -9.2 -3.44269 0 -1 0  255 255 255 255
-15.6897 -9.2 11.6614 0 -1 0  255 255 255 255
2.10843 -9.2 6.99093 0 -1 0  255 255 255 255
4.88438 -9.2 5.42407 0 -1 0  255 255 255 255
0.037319 -9.2 17.2791 0 -1 0  255 255 255 255
11.6619 -9.2 -15.6903 0 -1 0  255 255 255 255
12.1445 -9.2 14.2024 0 -1 0  255 255 255 255
-10.7067 -9.2 16.9986 0 -1 0  255 255 255 255
9.96845 -9.2 -8.78354 0 -1 0  255 255 255 255
2.53353 -9.2 1.41655 0 -1 0  255 255 255 255
-11.6932 -9.2 -13.2842 0 -1 0  255 255 255 255
6.93205 -9.2 12.8213 0 -1 0  255 255 255 255
10.4203 -9.2 3.59557 0 -1 0  255 255 255 255
18.6973 -9.2 10.1346 0 -1 0  255 255 255 255
16.6197 -9.2 11.4922 0 -1 0  255 255 255 255
14.0289 -9.2 12.0938 0 -1 0  255 255 255 255
5.71475 -9.2 5.25539 0 -1 0  255 255 255 255
6.7555 -9.2 -10.5601 0 -1 0  255 255 255 255
-10.8744 -9.2 2.28545 0 -1 0  255 255 255 255
4.68315 -9.2 11.136 0 -1 0  255 255 255 255
14.2266 -9.2 -0.322797 0 -1 0  255 255 255 255
-1.1222 -9.2 -9.51048 0 -1 0  255 255 255 255
13.013 -9.2 -4.13913 0 -1 0  255 255 255 255
1.69601 -9.2 14.5634 0 -1 0  255 255 255 255
-18.2885 -9.2 -5.64679 0 -1 0  255 255 255 255
13.1465 -9.2 8.67419 0 -1 0  255 255 255 255
0.197161 -9.2 8.83308 0 -1 0  255 255 255 255
1.14535 -9.2 17.4459 0 -1 0  255 255 255 255
-11.323 -9.2 -4.66778 0 -1 0  255 255 255 255
-5.45964 -9.2 -11.6143 0 -1 0  255 255 255 255
-14.4967 -9.2 7.48771 0 -1 0  255 255 255 255
-10.6181 -9.2 6.72081 0 -1 0  255 255 255 255
4.80726 -9.2 7.25253 0 -1 0  255 255 255 255
11.9753 -9.2 16.4313 0 -1 0  255 255 255 255
20.0708 -9.2 12.9999 0 -1 0  255 255 255 255
4.20844 -9.2 8.23677 0 -1 0  255 255 255 255
7.48897 -9.2 -14.499 0 -1 0  255 255 255 255
-6.505 -9.2 -3.69751 0 -1 0  255 255 255 255
-7.11148 -9.2 19.0966 0 -1 0  255 255 255 255
10.334 -9.2 2.75205 0 -1 0  255 255 255 255
10.4621 -9.2 -16.9569 0 -1 0  255 255 255 255
-16.9553 -9.2 10.4609 0 -1 0  255 255 255 255
5.79891 -9.2 -0.134845 0 -1 0  255 255 255 255
-2.67534 -9.2 -1.20075 0 -1 0  255 255 255 255
0.106717 -9.2 14.7643 0 -1 0  255 255 255 255
10.5806 -9.2 -11.5736 0 -1 0  255 255 255 255
-19.2172 -9.2 -6.4247 0 -1 0  255 255 255 255
1.28859 -9.2 -10.9885 0 -1 0  255 255 255 255
-15.4456 -9.2 -9.7999 0 -1 0  255 255 255 255
-16.8214 -9.2 -13.0457 0 -1 0  255 255 255 255
7.54034 -9.2 9.09801 0 -1 0  255 255 255 255
-6.90833 -9.2 16.5785 0 -1 0  255 255 255 255
9.84585 -9.2 19.2018 0 -1 0  255 255 255 255
8.14464 -9.2 12.3379 0 -1 0  255 255 255 255
-7.58361 -9.2 3.88803 0 -1 0  255 255 255 255
-8.25788 -9.2 -6.47057 0 -1 0  255 255 255 255
