ply
format ascii 1.0
comment VCGLIB generated
element vertex 925
property float x
property float y
property float z
property float nx
property float ny
property float nz
property uchar red
property uchar green
property uchar blue
property uchar alpha
element face 0
property list uchar int vertex_indices
end_header
-35.4211 -12.7974 -63.5 0 0 -1  255 255 255 255
-30.3511 -18.6273 -63.5 0 0 -1  255 255 255 255
-33.02 -21.8783 -63.5 0 0 -1  255 255 255 255
-33.02 -8.60167 -63.5 0 0 -1  255 255 255 255
-30.094 -11.5311 -63.5 0 0 -1  255 255 255 255
-32.7364 -13.5325 -63.5 0 0 -1  255 255 255 255
-33.0724 -16.9186 -63.5 0 0 -1  255 255 255 255
-36.0876 -14.4749 -63.5 0 0 -1  255 255 255 255
-36.3345 -19.5221 -63.5 0 0 -1  255 255 255 255
-36.3623 -10.9665 -63.5 0 0 -1  255 255 255 255
-29.8233 -15.0434 -63.5 0 0 -1  255 255 255 255
-36.2972 -8.01853 -63.5 0 0 -1  255 255 255 255
-36.2972 -22.4615 -63.5 0 0 -1  255 255 255 255
-29.7439 -8.0349 -63.5 0 0 -1  255 255 255 255
-29.7228 -22.4746 -63.5 0 0 -1  255 255 255 255
-32.4002 -15.3231 -63.5 0 0 -1  255 255 255 255
-29.6279 -17.2373 -63.5 0 0 -1  255 255 255 255
-36.6342 -16.4685 -63.5 0 0 -1  255 255 255 255
-34.6141 -19.4427 -63.5 0 0 -1  255 255 255 255
-34.5926 -11.129 -63.5 0 0 -1  255 255 255 255
-29.5413 -19.8665 -63.5 0 0 -1  255 255 255 255
-31.598 -22.5715 -63.5 0 0 -1  255 255 255 255
-34.442 -7.90853 -63.5 0 0 -1  255 255 255 255
-31.598 -7.90853 -63.5 0 0 -1  255 255 255 255
-34.442 -22.5715 -63.5 0 0 -1  255 255 255 255
-31.7103 -17.9546 -63.5 0 0 -1  255 255 255 255
-29.2076 -12.826 -63.5 0 0 -1  255 255 255 255
-32.3018 -20.5691 -63.5 0 0 -1  255 255 255 255
-32.2039 -9.60159 -63.5 0 0 -1  255 255 255 255
-31.4984 -12.0811 -63.5 0 0 -1  255 255 255 255
-29.4882 -9.99156 -63.5 0 0 -1  255 255 255 255
-36.6705 -9.47574 -63.5 0 0 -1  255 255 255 255
-36.6691 -21.0047 -63.5 0 0 -1  255 255 255 255
-36.9383 -17.9363 -63.5 0 0 -1  255 255 255 255
-36.8142 -12.6769 -63.5 0 0 -1  255 255 255 255
-34.0282 -12.5355 -63.5 0 0 -1  255 255 255 255
-34.4711 -13.7491 -63.5 0 0 -1  255 255 255 255
-34.157 -17.9792 -63.5 0 0 -1  255 255 255 255
-35.0963 -16.2941 -63.5 0 0 -1  255 255 255 255
-33.6845 -9.82108 -63.5 0 0 -1  255 255 255 255
-33.7583 -20.7715 -63.5 0 0 -1  255 255 255 255
-31.2853 -19.5237 -63.5 0 0 -1  255 255 255 255
-28.979 -16.0739 -63.5 0 0 -1  255 255 255 255
-31.1149 -14.7788 -63.5 0 0 -1  255 255 255 255
-31.1764 -10.6486 -63.5 0 0 -1  255 255 255 255
-29.1258 -21.2909 -63.5 0 0 -1  255 255 255 255
-29.1389 -18.3936 -63.5 0 0 -1  255 255 255 255
-37.2462 -23.25 -63.5 0 0 -1  255 255 255 255
-37.2462 -7.23001 -63.5 0 0 -1  255 255 255 255
-28.8008 -7.22589 -63.5 0 0 -1  255 255 255 255
-28.809 -23.2716 -63.5 0 0 -1  255 255 255 255
-29.099 -13.9908 -63.5 0 0 -1  255 255 255 255
33.0217 -19.0089 -63.5 0 0 -1  255 255 255 255
33.109 -11.3677 -63.5 0 0 -1  255 255 255 255
31.9042 -15.24 -63.5 0 0 -1  255 255 255 255
35.0674 -16.184 -63.5 0 0 -1  255 255 255 255
35.2508 -21.116 -63.5 0 0 -1  255 255 255 255
30.8865 -21.1585 -63.5 0 0 -1  255 255 255 255
30.8865 -9.32147 -63.5 0 0 -1  255 255 255 255
35.1968 -9.31879 -63.5 0 0 -1  255 255 255 255
35.456 -13.3826 -63.5 0 0 -1  255 255 255 255
30.6189 -17.6826 -63.5 0 0 -1  255 255 255 255
30.5964 -12.7994 -63.5 0 0 -1  255 255 255 255
35.6889 -18.6273 -63.5 0 0 -1  255 255 255 255
33.02 -8.60167 -63.5 0 0 -1  255 255 255 255
33.02 -21.8783 -63.5 0 0 -1  255 255 255 255
35.946 -11.5311 -63.5 0 0 -1  255 255 255 255
33.3009 -13.5359 -63.5 0 0 -1  255 255 255 255
32.9537 -16.9978 -63.5 0 0 -1  255 255 255 255
29.9135 -15.977 -63.5 0 0 -1  255 255 255 255
29.6754 -10.9667 -63.5 0 0 -1  255 255 255 255
29.6777 -19.5135 -63.5 0 0 -1  255 255 255 255
36.2167 -15.0434 -63.5 0 0 -1  255 255 255 255
36.2961 -8.0349 -63.5 0 0 -1  255 255 255 255
36.3172 -22.4746 -63.5 0 0 -1  255 255 255 255
29.7428 -22.4615 -63.5 0 0 -1  255 255 255 255
29.7428 -8.01853 -63.5 0 0 -1  255 255 255 255
33.6303 -15.3473 -63.5 0 0 -1  255 255 255 255
36.4121 -17.2373 -63.5 0 0 -1  255 255 255 255
29.3616 -14.1262 -63.5 0 0 -1  255 255 255 255
31.426 -19.3459 -63.5 0 0 -1  255 255 255 255
31.4432 -11.1293 -63.5 0 0 -1  255 255 255 255
36.4987 -19.8665 -63.5 0 0 -1  255 255 255 255
34.442 -22.5715 -63.5 0 0 -1  255 255 255 255
34.442 -7.90853 -63.5 0 0 -1  255 255 255 255
31.598 -7.90853 -63.5 0 0 -1  255 255 255 255
31.598 -22.5715 -63.5 0 0 -1  255 255 255 255
34.329 -17.958 -63.5 0 0 -1  255 255 255 255
36.8324 -12.826 -63.5 0 0 -1  255 255 255 255
33.7382 -20.5691 -63.5 0 0 -1  255 255 255 255
33.8361 -9.60159 -63.5 0 0 -1  255 255 255 255
34.541 -12.0818 -63.5 0 0 -1  255 255 255 255
36.5518 -9.99156 -63.5 0 0 -1  255 255 255 255
29.3694 -9.47575 -63.5 0 0 -1  255 255 255 255
29.3695 -21.0043 -63.5 0 0 -1  255 255 255 255
29.218 -17.7974 -63.5 0 0 -1  255 255 255 255
29.1027 -12.6076 -63.5 0 0 -1  255 255 255 255
32.0059 -12.5367 -63.5 0 0 -1  255 255 255 255
31.6892 -13.7635 -63.5 0 0 -1  255 255 255 255
31.9756 -18.0216 -63.5 0 0 -1  255 255 255 255
31.5393 -16.6844 -63.5 0 0 -1  255 255 255 255
32.2817 -20.7554 -63.5 0 0 -1  255 255 255 255
32.3555 -9.82108 -63.5 0 0 -1  255 255 255 255
34.7546 -19.5243 -63.5 0 0 -1  255 255 255 255
37.061 -16.0739 -63.5 0 0 -1  255 255 255 255
34.8754 -14.758 -63.5 0 0 -1  255 255 255 255
34.8635 -10.6488 -63.5 0 0 -1  255 255 255 255
36.9142 -21.2909 -63.5 0 0 -1  255 255 255 255
36.9011 -18.3936 -63.5 0 0 -1  255 255 255 255
28.7938 -23.25 -63.5 0 0 -1  255 255 255 255
37.2392 -7.22589 -63.5 0 0 -1  255 255 255 255
37.231 -23.2716 -63.5 0 0 -1  255 255 255 255
28.7938 -7.23001 -63.5 0 0 -1  255 255 255 255
30.6775 -14.4739 -63.5 0 0 -1  255 255 255 255
36.941 -13.9908 -63.5 0 0 -1  255 255 255 255
-38.1 0.720651 -87.7154 -1 0 0  255 255 255 255
-38.1 -1.28325 -83.1598 -1 0 0  255 255 255 255
-38.1 5.65908 -88.6772 -1 0 0  255 255 255 255
-38.1 -2.10314 -91.5716 -1 0 0  255 255 255 255
-38.1 -3.93426 -59.8498 -1 0 0  255 255 255 255
-38.1 -2.36021 -79.1714 -1 0 0  255 255 255 255
-38.1 9.921 -88.8743 -1 0 0  255 255 255 255
-38.1 2.70289 -90.9127 -1 0 0  255 255 255 255
-38.1 -2.75088 -86.5031 -1 0 0  255 255 255 255
-38.1 3.04691 -84.8694 -1 0 0  255 255 255 255
-38.1 -9.03582 -59.9249 -1 0 0  255 255 255 255
-38.1 -11.8678 -60.0649 -1 0 0  255 255 255 255
-38.1 -15.4218 -60.0857 -1 0 0  255 255 255 255
-38.1 -19.0331 -60.0893 -1 0 0  255 255 255 255
-38.1 -3.06843 -75.8153 -1 0 0  255 255 255 255
-38.1 -3.22251 -15.8824 -1 0 0  255 255 255 255
-38.1 13.8406 -88.2545 -1 0 0  255 255 255 255
-38.1 -3.18811 -71.1176 -1 0 0  255 255 255 255
-38.1 46.9927 -79.4684 -1 0 0  255 255 255 255
-38.1 -2.93969 -64.7902 -1 0 0  255 255 255 255
-38.1 -3.21527 -68.0092 -1 0 0  255 255 255 255
-38.1 17.7129 -87.3817 -1 0 0  255 255 255 255
-38.1 43.4914 -80.5399 -1 0 0  255 255 255 255
-38.1 39.9434 -81.5049 -1 0 0  255 255 255 255
-38.1 36.326 -82.4814 -1 0 0  255 255 255 255
-38.1 32.7086 -83.4574 -1 0 0  255 255 255 255
-38.1 29.091 -84.4329 -1 0 0  255 255 255 255
-38.1 25.4733 -85.4078 -1 0 0  255 255 255 255
-38.1 22.2121 -86.2323 -1 0 0  255 255 255 255
-38.1 -3.23099 -19.708 -1 0 0  255 255 255 255
-38.1 -3.2319 -23.4845 -1 0 0  255 255 255 255
-38.1 -3.23278 -27.2611 -1 0 0  255 255 255 255
-38.1 -3.23363 -31.0376 -1 0 0  255 255 255 255
-38.1 -3.23446 -34.8141 -1 0 0  255 255 255 255
-38.1 -3.23525 -38.5907 -1 0 0  255 255 255 255
-38.1 -3.23601 -42.3672 -1 0 0  255 255 255 255
-38.1 -3.23674 -46.1437 -1 0 0  255 255 255 255
-38.1 -3.23744 -49.9202 -1 0 0  255 255 255 255
-38.1 -3.24327 -53.6593 -1 0 0  255 255 255 255
-38.1 -3.33188 -57.1194 -1 0 0  255 255 255 255
-38.1 -2.63598 -12.1614 -1 0 0  255 255 255 255
-38.1 1.42043 -82.8077 -1 0 0  255 255 255 255
-38.1 -3.64547 -89.1856 -1 0 0  255 255 255 255
-38.1 5.51365 -85.9397 -1 0 0  255 255 255 255
-38.1 7.60146 -90.6203 -1 0 0  255 255 255 255
-38.1 -3.64292 -81.7937 -1 0 0  255 255 255 255
-38.1 -2.62975 56.0614 -1 0 0  255 255 255 255
-38.1 0.555201 -92.6916 -1 0 0  255 255 255 255
-38.1 -0.141196 -80.6995 -1 0 0  255 255 255 255
-38.1 0.284382 -85.2562 -1 0 0  255 255 255 255
-38.1 -6.50527 -60.7641 -1 0 0  255 255 255 255
-38.1 3.22706 -87.7191 -1 0 0  255 255 255 255
-38.1 -2.50784 51.8346 -1 0 0  255 255 255 255
-38.1 -2.55173 48.0686 -1 0 0  255 255 255 255
-38.1 -2.55619 44.3044 -1 0 0  255 255 255 255
-38.1 -2.5605 40.5402 -1 0 0  255 255 255 255
-38.1 -2.56469 36.7761 -1 0 0  255 255 255 255
-38.1 7.92362 -86.8483 -1 0 0  255 255 255 255
-38.1 -2.56874 33.0119 -1 0 0  255 255 255 255
-38.1 -2.57265 29.2477 -1 0 0  255 255 255 255
-38.1 -2.57643 25.4836 -1 0 0  255 255 255 255
-38.1 -2.58007 21.7194 -1 0 0  255 255 255 255
-38.1 -2.58357 17.9553 -1 0 0  255 255 255 255
-38.1 -2.58694 14.1911 -1 0 0  255 255 255 255
-38.1 -2.59018 10.4269 -1 0 0  255 255 255 255
-38.1 -2.59328 6.66277 -1 0 0  255 255 255 255
-38.1 -2.59624 2.89861 -1 0 0  255 255 255 255
-38.1 -2.54339 -9.60761 -1 0 0  255 255 255 255
-38.1 -2.59907 -0.865557 -1 0 0  255 255 255 255
-38.1 -2.40144 -4.46757 -1 0 0  255 255 255 255
-38.1 -4.06108 -84.2718 -1 0 0  255 255 255 255
-38.1 -2.403 -61.9718 -1 0 0  255 255 255 255
-38.1 5.2262 -91.6 -1 0 0  255 255 255 255
-38.1 -21.8242 -58.8885 -1 0 0  255 255 255 255
-38.1 -2.29925 -7.10726 -1 0 0  255 255 255 255
-38.1 10.9271 -87.2857 -1 0 0  255 255 255 255
-38.1 0.355187 -90.2177 -1 0 0  255 255 255 255
-38.1 -1.30973 -77.505 -1 0 0  255 255 255 255
-38.1 11.7388 -89.8994 -1 0 0  255 255 255 255
-38.1 -3.97639 -77.7846 -1 0 0  255 255 255 255
-38.1 -21.5832 -61.3359 -1 0 0  255 255 255 255
-38.1 -4.18608 -73.5965 -1 0 0  255 255 255 255
-38.1 15.4155 -86.9678 -1 0 0  255 255 255 255
-38.1 -10.8806 -61.7081 -1 0 0  255 255 255 255
-38.1 -14.4344 -61.7154 -1 0 0  255 255 255 255
-38.1 -17.9961 -61.7185 -1 0 0  255 255 255 255
-38.1 20.0054 -87.7989 -1 0 0  255 255 255 255
-38.1 -7.21085 -58.8213 -1 0 0  255 255 255 255
-38.1 -1.43287 -73.419 -1 0 0  255 255 255 255
-38.1 -1.40784 -88.7615 -1 0 0  255 255 255 255
-38.1 -4.19003 -91.1172 -1 0 0  255 255 255 255
-38.1 -4.88857 -62.5481 -1 0 0  255 255 255 255
-38.1 -10.8054 -58.6768 -1 0 0  255 255 255 255
-38.1 -14.3547 -58.722 -1 0 0  255 255 255 255
-38.1 -17.9087 -58.7433 -1 0 0  255 255 255 255
-38.1 -1.4644 -93.437 -1 0 0  255 255 255 255
-38.1 -4.39054 -17.8218 -1 0 0  255 255 255 255
-38.1 -4.38823 -69.8189 -1 0 0  255 255 255 255
-38.1 -4.39841 -66.2055 -1 0 0  255 255 255 255
-38.1 42.0639 -82.207 -1 0 0  255 255 255 255
-38.1 38.4348 -83.1131 -1 0 0  255 255 255 255
-38.1 34.8163 -84.0851 -1 0 0  255 255 255 255
-38.1 31.1977 -85.057 -1 0 0  255 255 255 255
-38.1 27.5791 -86.0286 -1 0 0  255 255 255 255
-38.1 24.0314 -87.0541 -1 0 0  255 255 255 255
-38.1 41.3496 -79.8485 -1 0 0  255 255 255 255
-38.1 -2.30199 -58.7961 -1 0 0  255 255 255 255
-38.1 -4.36214 -21.5963 -1 0 0  255 255 255 255
-38.1 -4.36246 -25.3728 -1 0 0  255 255 255 255
-38.1 -4.36277 -29.1493 -1 0 0  255 255 255 255
-38.1 15.3917 -89.1461 -1 0 0  255 255 255 255
-38.1 -4.36306 -32.9259 -1 0 0  255 255 255 255
-38.1 -4.36335 -36.7024 -1 0 0  255 255 255 255
-38.1 -4.36363 -40.4789 -1 0 0  255 255 255 255
-38.1 -4.36389 -44.2555 -1 0 0  255 255 255 255
-38.1 -4.36414 -48.032 -1 0 0  255 255 255 255
-38.1 -4.36439 -51.8085 -1 0 0  255 255 255 255
-38.1 -3.2502 -13.6553 -1 0 0  255 255 255 255
-38.1 -1.99171 -69.66 -1 0 0  255 255 255 255
-38.1 37.7446 -80.8401 -1 0 0  255 255 255 255
-38.1 34.0626 -81.8022 -1 0 0  255 255 255 255
-38.1 30.4249 -82.7841 -1 0 0  255 255 255 255
-38.1 26.7889 -83.7654 -1 0 0  255 255 255 255
-38.1 -1.98967 -21.8303 -1 0 0  255 255 255 255
-38.1 -1.99091 -25.6113 -1 0 0  255 255 255 255
-38.1 -1.99211 -29.3922 -1 0 0  255 255 255 255
-38.1 -1.99329 -33.1732 -1 0 0  255 255 255 255
-38.1 -1.99444 -36.9541 -1 0 0  255 255 255 255
-38.1 -2.48644 -40.6779 -1 0 0  255 255 255 255
-38.1 -2.15174 -44.2557 -1 0 0  255 255 255 255
-38.1 23.1871 -84.7354 -1 0 0  255 255 255 255
-38.1 -2.15338 -48.0322 -1 0 0  255 255 255 255
-38.1 -2.34262 -51.7454 -1 0 0  255 255 255 255
-38.1 -2.22725 -66.4349 -1 0 0  255 255 255 255
-38.1 19.2491 -85.7632 -1 0 0  255 255 255 255
-38.1 -2.02335 -17.9943 -1 0 0  255 255 255 255
-38.1 -3.22073 53.9868 -1 0 0  255 255 255 255
-38.1 9.70205 -90.8426 -1 0 0  255 255 255 255
-38.1 -4.99664 -58.1725 -1 0 0  255 255 255 255
-38.1 -4.33732 -79.8066 -1 0 0  255 255 255 255
-38.1 44.8741 -78.8774 -1 0 0  255 255 255 255
-38.1 45.5886 -81.2111 -1 0 0  255 255 255 255
-38.1 -4.43835 -55.3413 -1 0 0  255 255 255 255
-38.1 48.5384 -80.0029 -1 0 0  255 255 255 255
-38.1 -3.29047 49.9506 -1 0 0  255 255 255 255
-38.1 -3.29177 46.1865 -1 0 0  255 255 255 255
-38.1 -3.29303 42.4223 -1 0 0  255 255 255 255
-38.1 -4.50251 -87.7078 -1 0 0  255 255 255 255
-38.1 -3.29424 38.6581 -1 0 0  255 255 255 255
-38.1 -3.29542 34.894 -1 0 0  255 255 255 255
-38.1 -3.29655 31.1298 -1 0 0  255 255 255 255
-38.1 -3.29764 27.3657 -1 0 0  255 255 255 255
-38.1 -3.29869 23.6015 -1 0 0  255 255 255 255
-38.1 -3.29969 19.8373 -1 0 0  255 255 255 255
-38.1 -3.30066 16.0732 -1 0 0  255 255 255 255
-38.1 -3.30158 12.309 -1 0 0  255 255 255 255
-38.1 -3.30247 8.54485 -1 0 0  255 255 255 255
-38.1 -3.30331 4.78069 -1 0 0  255 255 255 255
-38.1 -3.30412 1.01652 -1 0 0  255 255 255 255
-38.1 -3.30488 -2.74764 -1 0 0  255 255 255 255
-38.1 -2.0593 -55.346 -1 0 0  255 255 255 255
-38.1 2.51595 -92.8817 -1 0 0  255 255 255 255
-38.1 47.8072 -77.852 -1 0 0  255 255 255 255
-38.1 7.6737 -88.7336 -1 0 0  255 255 255 255
-38.1 -1.50991 -84.8857 -1 0 0  255 255 255 255
-38.1 1.82412 -89.2231 -1 0 0  255 255 255 255
-38.1 4.03345 -89.3333 -1 0 0  255 255 255 255
-38.1 -0.444119 -78.789 -1 0 0  255 255 255 255
-38.1 -3.34089 -93.0996 -1 0 0  255 255 255 255
-38.1 -1.56788 -14.6565 -1 0 0  255 255 255 255
-38.1 -0.893215 -86.9287 -1 0 0  255 255 255 255
-38.1 -9.08313 -61.6997 -1 0 0  255 255 255 255
-38.1 -12.7183 -61.7613 -1 0 0  255 255 255 255
-38.1 -1.82705 -81.324 -1 0 0  255 255 255 255
-38.1 4.10947 -83.5278 -1 0 0  255 255 255 255
-38.1 -16.2733 -61.7685 -1 0 0  255 255 255 255
-38.1 -20.0706 -61.8219 -1 0 0  255 255 255 255
-38.1 9.65842 -86.1866 -1 0 0  255 255 255 255
-38.1 -4.76467 -14.6824 -1 0 0  255 255 255 255
-38.1 -4.76738 -74.9172 -1 0 0  255 255 255 255
-38.1 -1.36103 -75.6606 -1 0 0  255 255 255 255
-38.1 13.4148 -86.534 -1 0 0  255 255 255 255
-38.1 1.81739 -86.3329 -1 0 0  255 255 255 255
-38.1 -19.9969 -58.4695 -1 0 0  255 255 255 255
-38.1 -9.0335 -58.1929 -1 0 0  255 255 255 255
-38.1 13.5827 -89.9548 -1 0 0  255 255 255 255
-38.1 -12.775 -58.3814 -1 0 0  255 255 255 255
-38.1 -1.55485 -63.6527 -1 0 0  255 255 255 255
-38.1 -1.57751 -2.61798 -1 0 0  255 255 255 255
-38.1 -1.54473 0.787822 -1 0 0  255 255 255 255
-38.1 -1.58114 -71.5908 -1 0 0  255 255 255 255
-38.1 -1.54221 4.56698 -1 0 0  255 255 255 255
-38.1 -16.256 -58.3133 -1 0 0  255 255 255 255
-38.1 -1.5397 8.34614 -1 0 0  255 255 255 255
-38.1 -1.53719 12.1253 -1 0 0  255 255 255 255
-38.1 -1.5347 15.9045 -1 0 0  255 255 255 255
-38.1 -1.53221 19.6836 -1 0 0  255 255 255 255
-38.1 -1.52972 23.4628 -1 0 0  255 255 255 255
-38.1 -4.71286 -72.0129 -1 0 0  255 255 255 255
-38.1 -1.52725 27.2419 -1 0 0  255 255 255 255
-38.1 18.8323 -89.0084 -1 0 0  255 255 255 255
-38.1 -1.52478 31.0211 -1 0 0  255 255 255 255
-38.1 -1.52232 34.8003 -1 0 0  255 255 255 255
-38.1 -1.51987 38.5794 -1 0 0  255 255 255 255
-38.1 -1.51743 42.3586 -1 0 0  255 255 255 255
-38.1 -1.515 46.1377 -1 0 0  255 255 255 255
-38.1 -1.50696 49.9172 -1 0 0  255 255 255 255
-38.1 21.0448 -84.9957 -1 0 0  255 255 255 255
-38.1 -4.7255 -64.2212 -1 0 0  255 255 255 255
-38.1 -4.91236 -68.0092 -1 0 0  255 255 255 255
-38.1 -4.6109 -85.7109 -1 0 0  255 255 255 255
-38.1 1.39624 -81.0426 -1 0 0  255 255 255 255
-38.1 -1.55578 -10.8562 -1 0 0  255 255 255 255
-38.1 47.7253 -81.1693 -1 0 0  255 255 255 255
-38.1 35.6646 -80.8627 -1 0 0  255 255 255 255
-38.1 32.0487 -81.8269 -1 0 0  255 255 255 255
-38.1 -1.36275 -16.2829 -1 0 0  255 255 255 255
-38.1 16.9122 -85.7573 -1 0 0  255 255 255 255
-38.1 39.3524 -79.8582 -1 0 0  255 255 255 255
-38.1 43.999 -82.1979 -1 0 0  255 255 255 255
-38.1 43.002 -78.8541 -1 0 0  255 255 255 255
-38.1 28.4161 -82.8133 -1 0 0  255 255 255 255
-38.1 40.3889 -83.1689 -1 0 0  255 255 255 255
-38.1 4.01646 -92.5674 -1 0 0  255 255 255 255
-38.1 36.7695 -84.1364 -1 0 0  255 255 255 255
-38.1 33.1513 -85.1095 -1 0 0  255 255 255 255
-38.1 -1.48684 -67.8652 -1 0 0  255 255 255 255
-38.1 29.533 -86.0824 -1 0 0  255 255 255 255
-38.1 24.7852 -83.8073 -1 0 0  255 255 255 255
-38.1 25.9146 -87.055 -1 0 0  255 255 255 255
-38.1 7.20846 -85.5054 -1 0 0  255 255 255 255
-38.1 21.8066 -87.9056 -1 0 0  255 255 255 255
-38.1 -4.93578 -19.7083 -1 0 0  255 255 255 255
-38.1 -1.5497 -19.9963 -1 0 0  255 255 255 255
-38.1 -4.93389 -23.4845 -1 0 0  255 255 255 255
-38.1 -4.93437 -27.2611 -1 0 0  255 255 255 255
-38.1 -4.93483 -31.0376 -1 0 0  255 255 255 255
-38.1 -4.93528 -34.8141 -1 0 0  255 255 255 255
-38.1 -4.93572 -38.5907 -1 0 0  255 255 255 255
-38.1 -1.52422 -23.7795 -1 0 0  255 255 255 255
-38.1 -4.93613 -42.3672 -1 0 0  255 255 255 255
-38.1 -3.41012 -8.06868 -1 0 0  255 255 255 255
-38.1 -4.93653 -46.1437 -1 0 0  255 255 255 255
-38.1 -4.93691 -49.9202 -1 0 0  255 255 255 255
-38.1 -4.93728 -53.6968 -1 0 0  255 255 255 255
-38.1 -1.52679 -27.5592 -1 0 0  255 255 255 255
-38.1 -1.88885 -60.5543 -1 0 0  255 255 255 255
-38.1 -1.5293 -31.3389 -1 0 0  255 255 255 255
-38.1 -1.53176 -35.1185 -1 0 0  255 255 255 255
-38.1 -1.44429 -39.2778 -1 0 0  255 255 255 255
-38.1 -1.35104 53.4919 -1 0 0  255 255 255 255
-38.1 -1.53286 -42.5641 -1 0 0  255 255 255 255
-38.1 -1.41606 -46.138 -1 0 0  255 255 255 255
-38.1 -1.44881 -49.9109 -1 0 0  255 255 255 255
-38.1 -4.79504 -82.7943 -1 0 0  255 255 255 255
-38.1 -3.94574 -12.1792 -1 0 0  255 255 255 255
-38.1 3.87177 -86.2384 -1 0 0  255 255 255 255
-38.1 6.41473 -87.2448 -1 0 0  255 255 255 255
-38.1 -2.86412 -83.3413 -1 0 0  255 255 255 255
-38.1 -5.5738 -59.6603 -1 0 0  255 255 255 255
-38.1 6.71986 -92.0073 -1 0 0  255 255 255 255
-38.1 -0.047159 -82.2121 -1 0 0  255 255 255 255
-38.1 -1.63627 -53.361 -1 0 0  255 255 255 255
-38.1 17.122 -89.2623 -1 0 0  255 255 255 255
-38.1 -5.04172 -89.5564 -1 0 0  255 255 255 255
-38.1 1.54842 -84.3549 -1 0 0  255 255 255 255
-38.1 -1.61509 -57.3693 -1 0 0  255 255 255 255
-38.1 -3.40531 -6.15449 -1 0 0  255 255 255 255
-38.1 -3.47348 -10.8927 -1 0 0  255 255 255 255
-38.1 5.92602 -90.2351 -1 0 0  255 255 255 255
-38.1 -7.29877 -62.1518 -1 0 0  255 255 255 255
-38.1 2.76694 -82.084 -1 0 0  255 255 255 255
-38.1 -4.89227 -16.2597 -1 0 0  255 255 255 255
-38.1 5.87044 -84.4581 -1 0 0  255 255 255 255
-38.1 -1.40303 -13.0583 -1 0 0  255 255 255 255
-38.1 46.2032 -78.0687 -1 0 0  255 255 255 255
-38.1 -22.689 -57.3429 -1 0 0  255 255 255 255
-38.1 -22.8214 -49.0345 -1 0 0  255 255 255 255
-38.1 0.088837 -83.7606 -1 0 0  255 255 255 255
-38.1 -1.49157 -8.43003 -1 0 0  255 255 255 255
-38.1 -1.52102 -5.81595 -1 0 0  255 255 255 255
-38.1 -2.65605 -87.9916 -1 0 0  255 255 255 255
-38.1 -3.64945 56.9536 -1 0 0  255 255 255 255
-38.1 -1.33557 57.0768 -1 0 0  255 255 255 255
-38.1 -22.8316 -50.7985 -1 0 0  255 255 255 255
-38.1 -22.6657 -60.3671 -1 0 0  255 255 255 255
-38.1 -0.053397 -93.9603 -1 0 0  255 255 255 255
-38.1 12.1784 -88.4618 -1 0 0  255 255 255 255
-38.1 -2.64657 -77.1497 -1 0 0  255 255 255 255
-38.1 4.78662 -87.5254 -1 0 0  255 255 255 255
-38.1 -22.8317 -52.5736 -1 0 0  255 255 255 255
-38.1 -22.7849 -55.5005 -1 0 0  255 255 255 255
-38.1 -2.35436 -89.9078 -1 0 0  255 255 255 255
-38.1 -22.7881 -47.6382 -1 0 0  255 255 255 255
-38.1 -5.15023 -78.6188 -1 0 0  255 255 255 255
-38.1 -22.6235 -54.002 -1 0 0  255 255 255 255
-38.1 -4.953 -81.2075 -1 0 0  255 255 255 255
-38.1 1.29147 -91.314 -1 0 0  255 255 255 255
-38.1 -1.15565 -1.21951 -1 0 0  255 255 255 255
-38.1 -1.15405 2.5115 -1 0 0  255 255 255 255
-38.1 -0.383218 -91.4841 -1 0 0  255 255 255 255
-38.1 -5.09451 -76.7857 -1 0 0  255 255 255 255
-38.1 -1.14862 6.30191 -1 0 0  255 255 255 255
-38.1 -1.14337 10.0923 -1 0 0  255 255 255 255
-38.1 -1.1383 13.8827 -1 0 0  255 255 255 255
-38.1 -22.7783 -62.1449 -1 0 0  255 255 255 255
-38.1 -1.13341 17.6731 -1 0 0  255 255 255 255
-38.1 -3.34653 -63.0768 -1 0 0  255 255 255 255
-38.1 -1.42285 55.2952 -1 0 0  255 255 255 255
-38.1 -1.12871 21.4635 -1 0 0  255 255 255 255
-38.1 4.47181 -84.9979 -1 0 0  255 255 255 255
-38.1 16.4105 -88.1895 -1 0 0  255 255 255 255
-38.1 -3.92444 55.5306 -1 0 0  255 255 255 255
-38.1 -1.12418 25.2539 -1 0 0  255 255 255 255
-38.1 -7.9511 -60.9614 -1 0 0  255 255 255 255
-38.1 -1.11985 29.0443 -1 0 0  255 255 255 255
-38.1 -3.64119 -58.4845 -1 0 0  255 255 255 255
-38.1 -10.4414 -60.0541 -1 0 0  255 255 255 255
-38.1 -1.11569 32.8348 -1 0 0  255 255 255 255
-38.1 2.57843 -83.5288 -1 0 0  255 255 255 255
-38.1 -1.11172 36.6252 -1 0 0  255 255 255 255
-38.1 -5.63617 -13.967 -1 0 0  255 255 255 255
-38.1 -1.10794 40.4156 -1 0 0  255 255 255 255
-38.1 -1.10434 44.206 -1 0 0  255 255 255 255
-38.1 -1.10094 47.9964 -1 0 0  255 255 255 255
-38.1 -1.07317 51.7635 -1 0 0  255 255 255 255
-38.1 -13.5953 -60.1218 -1 0 0  255 255 255 255
-38.1 -3.98838 51.8327 -1 0 0  255 255 255 255
-38.1 8.3807 -91.6765 -1 0 0  255 255 255 255
-38.1 -3.991 48.0686 -1 0 0  255 255 255 255
-38.1 -3.99353 44.3044 -1 0 0  255 255 255 255
-38.1 -3.99599 40.5402 -1 0 0  255 255 255 255
-38.1 8.71883 -89.9048 -1 0 0  255 255 255 255
-38.1 -17.1482 -60.1198 -1 0 0  255 255 255 255
-38.1 -3.99838 36.7761 -1 0 0  255 255 255 255
-38.1 11.2116 -91.2864 -1 0 0  255 255 255 255
-38.1 -4.00069 33.0119 -1 0 0  255 255 255 255
-38.1 -4.00292 29.2477 -1 0 0  255 255 255 255
-38.1 -3.12982 -80.529 -1 0 0  255 255 255 255
-38.1 -4.00507 25.4836 -1 0 0  255 255 255 255
-38.1 -4.00715 21.7194 -1 0 0  255 255 255 255
-38.1 -5.06467 -61.0585 -1 0 0  255 255 255 255
-38.1 49.2358 -81.1074 -1 0 0  255 255 255 255
-38.1 -4.00915 17.9553 -1 0 0  255 255 255 255
-38.1 -18.8427 -57.5678 -1 0 0  255 255 255 255
-38.1 -4.77922 -56.7906 -1 0 0  255 255 255 255
-38.1 -4.01108 14.1911 -1 0 0  255 255 255 255
-38.1 -4.01292 10.4269 -1 0 0  255 255 255 255
-38.1 -4.64717 -92.6367 -1 0 0  255 255 255 255
-38.1 -4.0147 6.66277 -1 0 0  255 255 255 255
-38.1 -5.30651 -84.2449 -1 0 0  255 255 255 255
-38.1 -4.01639 2.89861 -1 0 0  255 255 255 255
-38.1 -4.01801 -0.865557 -1 0 0  255 255 255 255
-38.1 -3.85433 -4.52583 -1 0 0  255 255 255 255
-38.1 -2.9255 -74.3548 -1 0 0  255 255 255 255
-38.1 -3.04682 -85.0489 -1 0 0  255 255 255 255
-38.1 -20.8623 -60.162 -1 0 0  255 255 255 255
-38.1 -1.19314 -79.996 -1 0 0  255 255 255 255
-38.1 20.8636 -86.5391 -1 0 0  255 255 255 255
-38.1 0.778357 -79.5283 -1 0 0  255 255 255 255
-38.1 1.33063 -93.6609 -1 0 0  255 255 255 255
-38.1 -0.997623 -90.1507 -1 0 0  255 255 255 255
-38.1 -1.01511 -61.9254 -1 0 0  255 255 255 255
-38.1 -3.57488 -61.3618 -1 0 0  255 255 255 255
-38.1 -6.02145 -62.0045 -1 0 0  255 255 255 255
-38.1 48.3555 -76.7649 -1 0 0  255 255 255 255
-38.1 9.08471 -87.579 -1 0 0  255 255 255 255
-38.1 -2.54564 -94.3063 -1 0 0  255 255 255 255
-38.1 -21.463 -62.5491 -1 0 0  255 255 255 255
-38.1 -5.39715 -73.4202 -1 0 0  255 255 255 255
-38.1 4.16083 -90.8526 -1 0 0  255 255 255 255
-38.1 -0.066454 -88.8329 -1 0 0  255 255 255 255
-38.1 1.91664 -87.6829 -1 0 0  255 255 255 255
-38.1 8.50454 -85.7416 -1 0 0  255 255 255 255
-38.1 14.9566 -90.4455 -1 0 0  255 255 255 255
-38.1 -3.00443 -72.682 -1 0 0  255 255 255 255
-38.1 -15.1139 -57.5234 -1 0 0  255 255 255 255
-38.1 -0.115614 -77.0493 -1 0 0  255 255 255 255
-38.1 -2.53962 57.4659 -1 0 0  255 255 255 255
-38.1 -21.2899 -57.7759 -1 0 0  255 255 255 255
-38.1 -1.06237 -7.05646 -1 0 0  255 255 255 255
-38.1 0.482301 -86.5583 -1 0 0  255 255 255 255
-38.1 -0.917369 -48.7706 -1 0 0  255 255 255 255
-38.1 15.2841 -85.6907 -1 0 0  255 255 255 255
-38.1 -1.31465 -65.1986 -1 0 0  255 255 255 255
-38.1 -0.92259 -44.9523 -1 0 0  255 255 255 255
-38.1 48.651 -78.7784 -1 0 0  255 255 255 255
-38.1 -23.1004 -58.8254 -1 0 0  255 255 255 255
-38.1 -1.00178 -41.0261 -1 0 0  255 255 255 255
-38.1 20.6117 -88.9788 -1 0 0  255 255 255 255
-38.1 -1.00439 -56.1777 -1 0 0  255 255 255 255
-38.1 11.4718 -85.8648 -1 0 0  255 255 255 255
30.0357 -3.06103 63.5 0 0 1  255 255 255 255
-29.9603 -3.11936 63.5 0 0 1  255 255 255 255
-18.6498 -3.168 63.5 0 0 1  255 255 255 255
-24.5291 -3.175 63.5 0 0 1  255 255 255 255
-9.43429 -3.20156 63.5 0 0 1  255 255 255 255
-15.3137 -3.182 63.5 0 0 1  255 255 255 255
2.10566 -3.182 63.5 0 0 1  255 255 255 255
15.0949 -3.175 63.5 0 0 1  255 255 255 255
5.44177 -3.182 63.5 0 0 1  255 255 255 255
26.3506 -3.175 63.5 0 0 1  255 255 255 255
18.8686 -3.175 63.5 0 0 1  255 255 255 255
11.5399 -3.182 63.5 0 0 1  255 255 255 255
22.6423 -3.175 63.5 0 0 1  255 255 255 255
-3.77371 -3.20156 63.5 0 0 1  255 255 255 255
-21.6698 -3.15488 63.5 0 0 1  255 255 255 255
-12.2936 -3.19512 63.5 0 0 1  255 255 255 255
-6.63303 -3.19512 63.5 0 0 1  255 255 255 255
-0.914399 -3.19512 63.5 0 0 1  255 255 255 255
8.46183 -3.19512 63.5 0 0 1  255 255 255 255
-27.1334 -3.49882 63.5 0 0 1  255 255 255 255
-17.0185 -4.3964 63.5 0 0 1  255 255 255 255
-16.9502 -1.96138 63.5 0 0 1  255 255 255 255
16.9817 -4.342 63.5 0 0 1  255 255 255 255
13.286 -4.40035 63.5 0 0 1  255 255 255 255
3.77371 -4.39165 63.5 0 0 1  255 255 255 255
16.9817 -2.008 63.5 0 0 1  255 255 255 255
13.2603 -1.95324 63.5 0 0 1  255 255 255 255
3.77371 -1.95596 63.5 0 0 1  255 255 255 255
24.5291 -4.342 63.5 0 0 1  255 255 255 255
24.5291 -2.008 63.5 0 0 1  255 255 255 255
20.7554 -4.342 63.5 0 0 1  255 255 255 255
20.7554 -2.008 63.5 0 0 1  255 255 255 255
28.2132 -4.37572 63.5 0 0 1  255 255 255 255
28.1068 -1.94973 63.5 0 0 1  255 255 255 255
-28.2818 -1.89007 63.5 0 0 1  255 255 255 255
-26.1574 -1.91174 63.5 0 0 1  255 255 255 255
31.4088 -3.96875 63.5 0 0 1  255 255 255 255
-31.4088 -3.96875 63.5 0 0 1  255 255 255 255
-20.2203 -4.16735 63.5 0 0 1  255 255 255 255
-23.104 -4.18975 63.5 0 0 1  255 255 255 255
-13.7431 -2.18265 63.5 0 0 1  255 255 255 255
-10.7529 -2.2771 63.5 0 0 1  255 255 255 255
-8.12534 -2.2771 63.5 0 0 1  255 255 255 255
7.0123 -2.18265 63.5 0 0 1  255 255 255 255
0.535125 -2.18265 63.5 0 0 1  255 255 255 255
9.9625 -2.18265 63.5 0 0 1  255 255 255 255
-2.4551 -2.2771 63.5 0 0 1  255 255 255 255
-5.09233 -2.2771 63.5 0 0 1  255 255 255 255
31.2922 -1.63809 63.5 0 0 1  255 255 255 255
-31.2877 -1.63958 63.5 0 0 1  255 255 255 255
-20.0697 -2.23833 63.5 0 0 1  255 255 255 255
0.685747 -4.11167 63.5 0 0 1  255 255 255 255
-8.14933 -4.19697 63.5 0 0 1  255 255 255 255
-22.9759 -1.89894 63.5 0 0 1  255 255 255 255
-13.8937 -4.11167 63.5 0 0 1  255 255 255 255
-10.9994 -4.50454 63.5 0 0 1  255 255 255 255
6.86168 -4.11167 63.5 0 0 1  255 255 255 255
9.82825 -4.43144 63.5 0 0 1  255 255 255 255
-5.33887 -4.50454 63.5 0 0 1  255 255 255 255
-2.20856 -4.50454 63.5 0 0 1  255 255 255 255
-28.4727 -4.65937 63.5 0 0 1  255 255 255 255
-25.6274 -4.57632 63.5 0 0 1  255 255 255 255
30.3051 -4.88756 63.5 0 0 1  255 255 255 255
15.0949 -1.44733 63.5 0 0 1  255 255 255 255
15.0949 -4.90267 63.5 0 0 1  255 255 255 255
26.416 -4.90267 63.5 0 0 1  255 255 255 255
18.8686 -4.90267 63.5 0 0 1  255 255 255 255
26.416 -1.44733 63.5 0 0 1  255 255 255 255
18.8686 -1.44733 63.5 0 0 1  255 255 255 255
22.6423 -1.44733 63.5 0 0 1  255 255 255 255
22.6423 -4.90267 63.5 0 0 1  255 255 255 255
-18.7251 -4.88635 63.5 0 0 1  255 255 255 255
-15.2393 -1.4652 63.5 0 0 1  255 255 255 255
2.03764 -1.46412 63.5 0 0 1  255 255 255 255
11.481 -1.46358 63.5 0 0 1  255 255 255 255
5.50979 -1.46412 63.5 0 0 1  255 255 255 255
-9.43429 -1.3764 63.5 0 0 1  255 255 255 255
-3.77371 -1.3764 63.5 0 0 1  255 255 255 255
-30.288 -4.99123 63.5 0 0 1  255 255 255 255
2.21392 -4.83478 63.5 0 0 1  255 255 255 255
-15.4219 -4.83478 63.5 0 0 1  255 255 255 255
-18.5415 -1.51522 63.5 0 0 1  255 255 255 255
11.6482 -4.83478 63.5 0 0 1  255 255 255 255
5.33351 -4.83478 63.5 0 0 1  255 255 255 255
29.6257 -1.52963 63.5 0 0 1  255 255 255 255
-29.7542 -1.44112 63.5 0 0 1  255 255 255 255
-24.5442 -1.39714 63.5 0 0 1  255 255 255 255
-9.46288 -5.07338 63.5 0 0 1  255 255 255 255
-3.77371 -5.10476 63.5 0 0 1  255 255 255 255
-24.3635 -4.9943 63.5 0 0 1  255 255 255 255
-21.3821 -1.44181 63.5 0 0 1  255 255 255 255
-12.5825 -4.91365 63.5 0 0 1  255 255 255 255
-6.84717 -4.92389 63.5 0 0 1  255 255 255 255
-0.625471 -4.91365 63.5 0 0 1  255 255 255 255
8.12571 -4.89846 63.5 0 0 1  255 255 255 255
-31.7936 -5.21986 63.5 0 0 1  255 255 255 255
31.7936 -5.21986 63.5 0 0 1  255 255 255 255
-26.8871 -5.05534 63.5 0 0 1  255 255 255 255
-32.0766 -0.79375 63.5 0 0 1  255 255 255 255
32.0766 -0.79375 63.5 0 0 1  255 255 255 255
-28.4489 -3.2464 63.5 0 0 1  255 255 255 255
-6.604 -1.36681 63.5 0 0 1  255 255 255 255
-12.2646 -1.36681 63.5 0 0 1  255 255 255 255
-0.943429 -1.36681 63.5 0 0 1  255 255 255 255
8.49086 -1.36681 63.5 0 0 1  255 255 255 255
-21.6989 -4.98319 63.5 0 0 1  255 255 255 255
-25.8819 -3.23765 63.5 0 0 1  255 255 255 255
31.8342 -2.81221 63.5 0 0 1  255 255 255 255
-31.8301 -2.81532 63.5 0 0 1  255 255 255 255
-31.584 8.80329 -84.4365 0 0.306828 0.951765  255 255 255 255
-31.8753 1.924 -79.0697 0 0.848504 0.529188  255 255 255 255
-32.5389 11.101 -84.948 0 0.125908 0.992042  255 255 255 255
-31.3665 7.20285 -83.7977 0 0.432847 0.901468  255 255 255 255
-31.62 5.49514 -82.8075 0 0.567311 0.823503  255 255 255 255
-31.8268 4.08388 -81.6792 0 0.678434 0.734661  255 255 255 255
-32.0445 2.84604 -80.3609 0 0.775902 0.630853  255 255 255 255
-30.9545 0.909054 -77.0675 0 0.928421 0.37153  255 255 255 255
-32.5187 0.434798 -75.6437 0 0.965764 0.259422  255 255 255 255
-30.9659 12.6331 -85.0489 0 0.00527 0.999986  255 255 255 255
-35.0057 11.906 -85.0242 0 0.062522 0.998044  255 255 255 255
-28.5021 0.646582 -76.3497 0 0.949088 0.315011  255 255 255 255
-35.3183 13.481 -85.025 0 -0.061495 0.998107  255 255 255 255
-35.1352 0.156794 -74.3385 0 0.987654 0.156651  255 255 255 255
-28.3563 14.0052 -84.9818 0 -0.102773 0.994705  255 255 255 255
-28.1844 0.249007 -74.8516 0 0.980393 0.197052  255 255 255 255
-36.8448 14.1825 -84.9622 0 -0.116731 0.993164  255 255 255 255
-36.8032 0.120061 -74.0912 0 0.990546 0.137178  255 255 255 255
-26.693 14.2657 -84.9522 0 -0.123283 0.992372  255 255 255 255
-26.6564 0.131783 -74.1738 0 0.989623 0.143685  255 255 255 255
-32.803 1.13621 -77.5996 0 0.910534 0.413433  255 255 255 255
-30.6597 10.5122 -84.8592 0 0.172271 0.98505  255 255 255 255
-34.3061 10.1665 -84.7938 0 0.199492 0.9799  255 255 255 255
-29.2144 1.29053 -77.927 0 0.898384 0.439212  255 255 255 255
-35.0444 8.56807 -84.3581 0 0.325349 0.945594  255 255 255 255
-34.9691 5.65968 -82.919 0 0.554356 0.83228  255 255 255 255
-35.1589 4.20579 -81.7904 0 0.668835 0.743411  255 255 255 255
-34.6924 2.86774 -80.3875 0 0.774194 0.632949  255 255 255 255
-34.7425 1.77346 -78.8221 0 0.860358 0.509691  255 255 255 255
-28.5324 2.099 -79.3425 0 0.834724 0.550668  255 255 255 255
-28.4912 4.83875 -82.3235 0 0.618996 0.785394  255 255 255 255
-29.0116 3.86919 -81.4763 0 0.69534 0.718681  255 255 255 255
-27.8782 5.94541 -83.1038 0 0.531857 0.846834  255 255 255 255
-28.601 7.35588 -83.8699 0 0.420797 0.907155  255 255 255 255
-28.673 9.18055 -84.5516 0 0.277122 0.960835  255 255 255 255
-34.927 7.18881 -83.7909 0 0.433952 0.900936  255 255 255 255
-28.7591 2.93645 -80.4708 0 0.768783 0.639509  255 255 255 255
-34.8708 1.03249 -77.3649 0 0.918702 0.394952  255 255 255 255
-28.5903 10.8105 -84.9077 0 0.148782 0.98887  255 255 255 255
-32.4813 12.682 -85.049 0 0.001421 0.999999  255 255 255 255
-31.013 0.422697 -75.5983 0 0.966717 0.255849  255 255 255 255
-33.9251 13.1003 -85.0427 0 -0.031517 0.999503  255 255 255 255
-29.5761 0.325972 -75.208 0 0.974333 0.225112  255 255 255 255
-30.0267 14.2217 -84.9575 0 -0.119818 0.992796  255 255 255 255
-33.4651 0.123577 -74.1164 0 0.99027 0.139162  255 255 255 255
-36.4111 1.41291 -78.1707 0 0.888748 0.458397  255 255 255 255
-27.0524 9.96025 -84.75 0 0.215728 0.976453  255 255 255 255
-36.233 10.6968 -84.8901 0 0.157735 0.987481  255 255 255 255
-27.2809 1.08774 -77.4915 0 0.914351 0.404922  255 255 255 255
-31.6572 14.2843 -84.9498 0 -0.124745 0.992189  255 255 255 255
-31.8376 0.114669 -74.0518 0 0.990971 0.134077  255 255 255 255
-36.2272 0.602848 -76.2154 0 0.952532 0.30444  255 255 255 255
-27.2573 12.0704 -85.0334 0 0.049577 0.99877  255 255 255 255
-36.6003 12.2267 -85.0402 0 0.03727 0.999305  255 255 255 255
-26.904 0.557721 -76.0713 0 0.956085 0.29309  255 255 255 255
-34.125 14.5989 -84.9063 0 -0.149522 0.988758  255 255 255 255
-29.3755 0.077248 -73.7477 0 0.993917 0.110128  255 255 255 255
-33.6514 11.7875 -85.0162 0 0.071847 0.997416  255 255 255 255
-29.852 0.67839 -76.4443 0 0.946583 0.322459  255 255 255 255
-35.409 14.8542 -84.865 0 -0.169619 0.98551  255 255 255 255
-28.0918 0.052061 -73.4978 0 0.995901 0.090453  255 255 255 255
-27.823 15.0678 -84.8264 0 -0.18644 0.982466  255 255 255 255
-35.6739 0.034502 -73.2845 0 0.997283 0.073661  255 255 255 255
-32.4737 9.75992 -84.704 0 0.231503 0.972834  255 255 255 255
-31.0207 1.45831 -78.2579 0 0.885173 0.465263  255 255 255 255
-31.6614 11.7292 -85.0119 0 0.076443 0.997074  255 255 255 255
-31.8223 0.693546 -76.4885 0 0.94539 0.325941  255 255 255 255
-36.2223 9.35471 -84.6005 0 0.263409 0.964684  255 255 255 255
-27.3156 1.70346 -78.7025 0 0.865869 0.500271  255 255 255 255
-33.2797 8.27331 -84.2526 0 0.348558 0.937287  255 255 255 255
-30.2559 2.22121 -79.5243 0 0.825102 0.564984  255 255 255 255
-36.526 6.4377 -83.3977 0 0.493094 0.869976  255 255 255 255
-27.2924 3.74166 -81.3512 0 0.705381 0.708828  255 255 255 255
-36.5733 5.05729 -82.492 0 0.601788 0.798656  255 255 255 255
-36.5105 3.45905 -81.0608 0 0.727634 0.685966  255 255 255 255
-26.8679 5.0281 -82.4699 0 0.604086 0.796919  255 255 255 255
-26.8365 6.69434 -83.5393 0 0.472886 0.881123  255 255 255 255
-36.4261 2.365 -79.7299 0 0.813779 0.581174  255 255 255 255
-26.9938 8.20583 -84.2273 0 0.353872 0.935294  255 255 255 255
-30.1405 8.35904 -84.2841 0 0.341808 0.93977  255 255 255 255
-33.2511 2.18249 -79.4675 0 0.82815 0.560506  255 255 255 255
-36.5857 4.23495 -81.8165 0 0.666539 0.74547  255 255 255 255
-26.7456 5.83067 -83.0309 0 0.540892 0.841092  255 255 255 255
-33.2559 6.41166 -83.3829 0 0.495145 0.86881  255 255 255 255
-33.3731 4.86707 -82.3458 0 0.616766 0.787147  255 255 255 255
-33.4075 3.58369 -81.1911 0 0.71782 0.696229  255 255 255 255
-30.3447 3.38099 -80.9773 0 0.73378 0.679387  255 255 255 255
-29.9587 7.23005 -83.8107 0 0.430705 0.902493  255 255 255 255
-33.3489 2.8511 -80.3671 0 0.775504 0.631343  255 255 255 255
-30.1702 4.58439 -82.1177 0 0.639024 0.769186  255 255 255 255
-29.7265 6.05883 -83.1742 0 0.522927 0.852377  255 255 255 255
-32.9691 14.1372 -84.9675 0 -0.113168 0.993576  255 255 255 255
-30.529 0.135344 -74.1982 0 0.989343 0.145604  255 255 255 255
-36.4866 7.93516 -84.1213 0 0.375184 0.92695  255 255 255 255
-27.1166 2.53554 -79.9631 0 0.800351 0.599531  255 255 255 255
-34.17 0.506911 -75.9013 0 0.960086 0.279706  255 255 255 255
-29.3094 12.3735 -85.0448 0 0.02571 0.999669  255 255 255 255
-37.1638 9.90329 -84.7373 0 0.220214 0.975452  255 255 255 255
-26.3491 1.44631 -78.235 0 0.886117 0.463461  255 255 255 255
32.2949 2.38395 -79.7564 0 0.812288 0.583257  255 255 255 255
31.1952 8.34137 -84.2777 0 0.343199 0.939263  255 255 255 255
32.6214 0.96507 -77.2051 0 0.92401 0.382368  255 255 255 255
31.7449 3.15002 -80.7209 0 0.751967 0.659201  255 255 255 255
32.0233 4.31702 -81.8892 0 0.660078 0.751197  255 255 255 255
31.475 5.87928 -83.062 0 0.537064 0.843541  255 255 255 255
31.7295 7.26039 -83.8251 0 0.428316 0.903629  255 255 255 255
30.8699 11.1009 -84.948 0 0.125913 0.992041  255 255 255 255
30.9212 0.466211 -75.7585 0 0.96329 0.268461  255 255 255 255
32.5665 12.6085 -85.0487 0 0.007203 0.999974  255 255 255 255
28.4325 11.9335 -85.0259 0 0.060352 0.998177  255 255 255 255
35.0681 0.662186 -76.3964 0 0.947859 0.318689  255 255 255 255
28.2271 0.262031 -74.9155 0 0.979368 0.202087  255 255 255 255
28.1567 13.4917 -85.0243 0 -0.062342 0.998055  255 255 255 255
35.2643 13.4555 -85.0266 0 -0.059486 0.998229  255 255 255 255
35.3429 0.254399 -74.8783 0 0.979969 0.199152  255 255 255 255
26.7252 0.142342 -74.2451 0 0.988792 0.1493  255 255 255 255
26.6467 14.1864 -84.9617 0 -0.117043 0.993127  255 255 255 255
36.7712 14.1242 -84.9689 0 -0.112145 0.993692  255 255 255 255
36.8533 0.132969 -74.182 0 0.98953 0.144327  255 255 255 255
30.7534 1.20467 -77.7479 0 0.905144 0.425105  255 255 255 255
32.7205 10.5269 -84.8617 0 0.171113 0.985251  255 255 255 255
29.0392 10.2364 -84.8078 0 0.193983 0.981005  255 255 255 255
34.4655 1.32736 -78.0017 0 0.895483 0.445095  255 255 255 255
28.8499 1.85578 -78.9591 0 0.853875 0.520478  255 255 255 255
28.8365 4.15282 -81.7424 0 0.673006 0.739637  255 255 255 255
29.0071 5.17407 -82.5789 0 0.592593 0.805502  255 255 255 255
28.6547 6.1754 -83.2449 0 0.513748 0.857941  255 255 255 255
28.4568 7.51711 -83.9433 0 0.408101 0.912937  255 255 255 255
28.2637 8.75159 -84.4197 0 0.310898 0.950443  255 255 255 255
34.5864 9.18667 -84.5534 0 0.27664 0.960974  255 255 255 255
34.7861 5.17591 -82.5803 0 0.592448 0.805609  255 255 255 255
34.3216 6.22288 -83.2732 0 0.510009 0.860169  255 255 255 255
34.9883 3.98765 -81.5894 0 0.686011 0.727591  255 255 255 255
35.0998 2.90497 -80.4328 0 0.771262 0.636518  255 255 255 255
35.2601 2.09858 -79.3419 0 0.834757 0.550618  255 255 255 255
28.8323 2.94414 -80.48 0 0.768178 0.640236  255 255 255 255
34.5161 7.48674 -83.9297 0 0.410492 0.911864  255 255 255 255
28.6439 1.09712 -77.5127 0 0.913613 0.406586  255 255 255 255
34.8259 10.7561 -84.8994 0 0.15306 0.988217  255 255 255 255
30.9947 12.682 -85.049 0 0.001414 0.999999  255 255 255 255
32.4986 0.446115 -75.6855 0 0.964873 0.262717  255 255 255 255
29.5417 13.1114 -85.0424 0 -0.032396 0.999475  255 255 255 255
33.9561 0.338002 -75.2595 0 0.973386 0.229173  255 255 255 255
33.7709 14.1974 -84.9604 0 -0.117909 0.993024  255 255 255 255
29.7226 0.13294 -74.1818 0 0.989532 0.144312  255 255 255 255
27.2068 10.7327 -84.8957 0 0.154902 0.98793  255 255 255 255
36.2965 1.09942 -77.5178 0 0.913431 0.406993  255 255 255 255
31.8932 14.2765 -84.9508 0 -0.12413 0.992266  255 255 255 255
31.602 0.12191 -74.1045 0 0.990401 0.138226  255 255 255 255
27.2516 0.656745 -76.3802 0 0.948288 0.317412  255 255 255 255
36.2355 11.9399 -85.0263 0 0.059849 0.998207  255 255 255 255
26.8738 12.2398 -85.0407 0 0.036237 0.999343  255 255 255 255
36.6268 0.563277 -76.0894 0 0.955647 0.294513  255 255 255 255
29.3632 14.6035 -84.9056 0 -0.149879 0.988704  255 255 255 255
34.1359 0.079755 -73.7701 0 0.99372 0.111895  255 255 255 255
33.7219 0.70603 -76.5245 0 0.944407 0.328778  255 255 255 255
29.7756 11.8095 -85.0178 0 0.070116 0.997539  255 255 255 255
28.0819 14.858 -84.8644 0 -0.169919 0.985458  255 255 255 255
35.4178 0.053116 -73.5094 0 0.995818 0.091363  255 255 255 255
35.3127 14.7577 -84.8812 0 -0.16202 0.986788  255 255 255 255
28.1836 0.062983 -73.6123 0 0.995041 0.099468  255 255 255 255
32.592 1.62068 -78.557 0 0.872388 0.488815  255 255 255 255
30.9 9.65537 -84.6787 0 0.239734 0.970839  255 255 255 255
31.6986 0.736648 -76.6115 0 0.941996 0.335624  255 255 255 255
31.7879 11.7268 -85.0117 0 0.076631 0.99706  255 255 255 255
27.1949 9.42975 -84.6208 0 0.2575 0.966278  255 255 255 255
36.316 1.70912 -78.7123 0 0.865424 0.501041  255 255 255 255
30.6334 2.36494 -79.7299 0 0.813784 0.581167  255 255 255 255
32.8094 8.37311 -84.2892 0 0.3407 0.940172  255 255 255 255
27.1584 3.59828 -81.2062 0 0.71667 0.697412  255 255 255 255
36.0781 6.3651 -83.3563 0 0.498811 0.866711  255 255 255 255
27.3564 5.05577 -82.4908 0 0.601908 0.798565  255 255 255 255
27.0378 6.5988 -83.4875 0 0.480409 0.877044  255 255 255 255
36.4335 4.80276 -82.2951 0 0.62183 0.783152  255 255 255 255
36.5487 3.5441 -81.1501 0 0.720937 0.693001  255 255 255 255
26.9589 8.06176 -84.1718 0 0.365216 0.930923  255 255 255 255
36.5708 2.50359 -79.9202 0 0.802867 0.596158  255 255 255 255
27.1118 1.4584 -78.258 0 0.885166 0.465276  255 255 255 255
36.3562 9.92396 -84.7419 0 0.218586 0.975818  255 255 255 255
30.2744 4.78548 -82.2813 0 0.623191 0.78207  255 255 255 255
30.3908 3.57533 -81.1825 0 0.718478 0.69555  255 255 255 255
27.1254 2.42144 -79.8083 0 0.809335 0.587347  255 255 255 255
36.2895 8.16476 -84.2117 0 0.357105 0.934064  255 255 255 255
33.0113 6.7517 -83.5699 0 0.46837 0.883532  255 255 255 255
33.6793 4.41361 -81.9733 0 0.652472 0.757813  255 255 255 255
29.9135 5.79464 -83.0077 0 0.543729 0.839261  255 255 255 255
33.2161 5.43248 -82.7641 0 0.572246 0.820082  255 255 255 255
30.5271 14.1388 -84.9673 0 -0.113293 0.993562  255 255 255 255
32.9699 0.141798 -74.2415 0 0.988835 0.149016  255 255 255 255
33.8492 2.22381 -79.5281 0 0.824897 0.565283  255 255 255 255
29.6685 8.5748 -84.3604 0 0.324819 0.945776  255 255 255 255
31.5684 1.86085 -78.9674 0 0.853477 0.521131  255 255 255 255
31.9063 9.2146 -84.5614 0 0.274441 0.961604  255 255 255 255
33.3828 3.29443 -80.8828 0 0.740596 0.67195  255 255 255 255
30.1562 7.05289 -83.7245 0 0.444654 0.895702  255 255 255 255
29.2533 0.567785 -76.104 0 0.955293 0.295662  255 255 255 255
34.2306 12.245 -85.0409 0 0.035827 0.999358  255 255 255 255
26.3004 9.93113 -84.7435 0 0.218021 0.975944  255 255 255 255
37.2031 1.45096 -78.2439 0 0.885752 0.46416  255 255 255 255
36.8626 -3.175 61.7428 0.756409 0 0.654099  255 255 255 255
37.6264 -3.175 60.5618 0.906779 0 0.421607  255 255 255 255
35.7932 -3.175 62.6763 0.5459 0 0.83785  255 255 255 255
35.1776 -4.61111 63.0191 0.424717 0 0.905326  255 255 255 255
35.1776 -1.73889 63.0191 0.424717 0 0.905326  255 255 255 255
37.8751 -4.73724 59.9147 0.955736 0 0.294227  255 255 255 255
37.8751 -1.61276 59.9147 0.955736 0 0.294227  255 255 255 255
34.0205 -4.59813 63.4005 0.196946 0 0.980414  255 255 255 255
34.0205 -1.75187 63.4005 0.196946 0 0.980414  255 255 255 255
38.0405 -5.54993 59.1952 0.988288 0 0.152603  255 255 255 255
38.0405 -0.800065 59.1952 0.988288 0 0.152603  255 255 255 255
33.669 -5.51516 63.4584 0.12775 0 0.991806  255 255 255 255
33.669 -0.834843 63.4584 0.12775 0 0.991806  255 255 255 255
37.312 -4.63116 61.1376 0.844874 0 0.534965  255 255 255 255
37.312 -1.71884 61.1376 0.844874 0 0.534965  255 255 255 255
36.3335 -4.8326 62.2706 0.652263 0 0.757992  255 255 255 255
36.3335 -1.5174 62.2706 0.652263 0 0.757992  255 255 255 255
37.5912 -5.5171 60.636 0.899838 0 0.436224  255 255 255 255
35.557 -5.53593 62.8211 0.499415 0 0.866363  255 255 255 255
37.5912 -0.8329 60.636 0.899838 0 0.436224  255 255 255 255
35.557 -0.814073 62.8211 0.499415 0 0.866363  255 255 255 255
38.025 -3.175 59.2899 0.98523 0 0.171237  255 255 255 255
34.5626 -3.175 63.2601 0.303669 0 0.952778  255 255 255 255
-36.1239 -2.87733 62.4415 -0.611 0 0.791631  255 255 255 255
-37.127 -2.75039 61.4098 -0.808465 0 0.588545  255 255 255 255
-35.6624 -4.47943 62.7587 -0.520154 0 0.854073  255 255 255 255
-37.8592 -2.61757 59.9654 -0.952606 0 0.304206  255 255 255 255
-34.2531 -4.38075 63.3481 -0.242735 0 0.970093  255 255 255 255
-35.426 -1.50435 62.8941 -0.473624 0 0.880727  255 255 255 255
-34.1123 -1.68356 63.3812 -0.215011 0 0.976612  255 255 255 255
-37.5181 -3.93541 60.7808 -0.88546 0 0.464715  255 255 255 255
-33.9579 -5.44902 63.4127 -0.184619 0 0.98281  255 255 255 255
-37.8777 -0.978309 59.9064 -0.956235 0 0.292601  255 255 255 255
-37.9729 -4.01993 59.5491 -0.974988 0 0.222256  255 255 255 255
-33.6922 -0.817765 63.4553 -0.132326 0 0.991206  255 255 255 255
-34.8093 -3.01674 63.1745 -0.352218 0 0.935918  255 255 255 255
-36.7275 -4.06456 61.8929 -0.729827 0 0.683632  255 255 255 255
-36.6069 -1.4485 62.0173 -0.706089 0 0.708123  255 255 255 255
-37.4028 -1.55895 60.9885 -0.86276 0 0.505613  255 255 255 255
-34.897 -5.40184 63.1405 -0.369482 0 0.929238  255 255 255 255
-36.5222 -5.2648 62.0998 -0.689412 0 0.724369  255 255 255 255
-31.75 -4.71849 -94.2853 0 -0.678836 -0.73429  255 255 255 255
-34.1943 -3.86637 -94.9215 0 -0.511097 -0.859523  255 255 255 255
-29.3057 -3.86637 -94.9215 0 -0.511097 -0.859523  255 255 255 255
-35.6512 -5.18534 -93.7918 0 -0.770736 -0.637155  255 255 255 255
-27.8488 -5.18534 -93.7918 0 -0.770736 -0.637155  255 255 255 255
-35.5082 -6.06337 -92.2374 0 -0.943577 -0.331153  255 255 255 255
-27.9918 -6.06337 -92.2374 0 -0.943577 -0.331153  255 255 255 255
-35.2864 -2.21299 -95.5468 0 -0.185628 -0.98262  255 255 255 255
-28.2135 -2.21299 -95.5468 0 -0.185629 -0.98262  255 255 255 255
-36.5409 -6.25396 -91.5382 0 -0.981094 -0.193534  255 255 255 255
-26.9591 -6.25396 -91.5382 0 -0.981094 -0.193534  255 255 255 255
-36.6723 -1.218 -95.6348 0 0.010235 -0.999948  255 255 255 255
-26.8276 -1.21801 -95.6348 0 0.010235 -0.999948  255 255 255 255
-33.3358 -5.31583 -93.6272 0 -0.796423 -0.60474  255 255 255 255
-30.1641 -5.31583 -93.6272 0 -0.796423 -0.60474  255 255 255 255
-31.75 -5.9438 -92.5456 0 -0.92004 -0.391825  255 255 255 255
-32.512 -3.45287 -95.1422 0 -0.4297 -0.902972  255 255 255 255
-30.988 -3.45288 -95.1422 0 -0.429701 -0.902971  255 255 255 255
-33.4416 -2.08699 -95.569 0 -0.160824 -0.986983  255 255 255 255
-30.0583 -2.08699 -95.569 0 -0.160825 -0.986983  255 255 255 255
-34.0973 -6.06337 -92.2374 0 -0.943576 -0.331155  255 255 255 255
-29.4027 -6.06337 -92.2374 0 -0.943576 -0.331155  255 255 255 255
-36.185 -3.70318 -95.0145 0 -0.478973 -0.87783  255 255 255 255
-27.315 -3.70318 -95.0145 0 -0.478973 -0.87783  255 255 255 255
-36.8688 -2.5287 -95.4767 0 -0.247776 -0.968817  255 255 255 255
-26.6312 -2.5287 -95.4767 0 -0.247776 -0.968817  255 255 255 255
-37.009 -4.43304 -94.5302 0 -0.622646 -0.782504  255 255 255 255
-26.491 -4.43304 -94.5302 0 -0.622646 -0.782504  255 255 255 255
-36.7801 -5.81169 -92.8309 0 -0.894033 -0.448002  255 255 255 255
-26.7199 -5.81169 -92.8309 0 -0.894033 -0.448002  255 255 255 255
-34.25 -1.01104 -95.6285 0 0.050975 -0.9987  255 255 255 255
-29.25 -1.01105 -95.6285 0 0.050975 -0.9987  255 255 255 255
-32.948 -4.39281 -94.5619 0 -0.614726 -0.788741  255 255 255 255
-30.5519 -4.39281 -94.5619 0 -0.614726 -0.78874  255 255 255 255
-35.3932 -0.865937 -95.619 0 0.07954 -0.996832  255 255 255 255
-28.1068 -0.865938 -95.619 0 0.07954 -0.996832  255 255 255 255
-30.5399 -6.04654 -92.2846 0 -0.940263 -0.34045  255 255 255 255
-32.9601 -6.04653 -92.2846 0 -0.940263 -0.34045  255 255 255 255
-31.75 -1.85104 -95.6018 0 -0.114378 -0.993437  255 255 255 255
0 -6.35 4.84239 0 -1 0  255 255 255 255
0 -6.35 8.96723 0 -1 0  255 255 255 255
-0.186703 -6.35 13.3426 0 -1 0  255 255 255 255
2.46477 -6.35 3.07061 0 -1 0  255 255 255 255
-2.46477 -6.35 3.07061 0 -1 0  255 255 255 255
-0.000745 -6.35 16.7268 0 -1 0  255 255 255 255
-1.88778 -6.35 6.92067 0 -1 0  255 255 255 255
1.88778 -6.35 6.92067 0 -1 0  255 255 255 255
0 -6.35 2.26182 0 -1 0  255 255 255 255
1.46467 -6.35 11.1498 0 -1 0  255 255 255 255
-1.3626 -6.35 11.2625 0 -1 0  255 255 255 255
0 -6.35 19.3186 0 -1 0  255 255 255 255
1.08938 -6.35 15.097 0 -1 0  255 255 255 255
-1.09456 -6.35 15.1044 0 -1 0  255 255 255 255
2.7799 -6.35 5.05164 0 -1 0  255 255 255 255
-2.7799 -6.35 5.05164 0 -1 0  255 255 255 255
1.92675 -6.35 9.07645 0 -1 0  255 255 255 255
-1.84358 -6.35 9.10061 0 -1 0  255 255 255 255
0 -6.35 21.5949 0 -1 0  255 255 255 255
3.5936 -6.35 1.96916 0 -1 0  255 255 255 255
-3.5936 -6.35 1.96916 0 -1 0  255 255 255 255
0 -6.35 30.2751 0 -1 0  255 0 0 255
0 -6.35 6.4918 0 -1 0  255 255 255 255
-2.01779 -6.35 13.185 0 -1 0  255 255 255 255
1.73054 -6.35 12.9821 0 -1 0  255 255 255 255
1.56522 -6.35 1.56472 0 -1 0  255 255 255 255
-1.56522 -6.35 1.56472 0 -1 0  255 255 255 255
0 -6.35 23.2224 0 -1 0  255 255 255 255
1.04154 -6.35 3.69416 0 -1 0  255 255 255 255
-1.0165 -6.35 3.71445 0 -1 0  255 255 255 255
