ply
format ascii 1.0
comment VCGLIB generated
element vertex 1052
property float x
property float y
property float z
property float nx
property float ny
property float nz
property uchar red
property uchar green
property uchar blue
property uchar alpha
element face 0
property list uchar int vertex_indices
end_header
17.5 -2.38058 25.0322 1 0 0  255 255 255 255
17.5 -1.43109 17.7878 1 0 0  255 255 255 255
17.5 -2.66519 18.0189 1 0 0  255 255 255 255
17.5 -1.29706 15.3836 1 0 0  255 255 255 255
17.5 -2.73159 15.3509 1 0 0  255 255 255 255
17.5 -1.30889 13.0861 1 0 0  255 255 255 255
17.5 -1.26041 11.0794 1 0 0  255 255 255 255
17.5 -2.72768 11.0552 1 0 0  255 255 255 255
17.5 -1.31693 9.02984 1 0 0  255 255 255 255
17.5 -2.72768 8.89935 1 0 0  255 255 255 255
17.5 -2.72586 13.2315 1 0 0  255 255 255 255
17.5 -1.2697 20.2639 1 0 0  255 255 255 255
17.5 -2.69111 20.0926 1 0 0  255 255 255 255
17.5 -1.2859 22.3567 1 0 0  255 255 255 255
17.5 -2.72768 22.3734 1 0 0  255 255 255 255
17.5 -1.33998 24.4929 1 0 0  255 255 255 255
17.5 -2.70424 6.75344 1 0 0  255 255 255 255
17.5 -1.30421 -3.90096 1 0 0  255 255 255 255
17.5 -2.7583 31.4867 1 0 0  255 255 255 255
17.5 -2.7583 -3.98669 1 0 0  255 255 255 255
17.5 -1.30421 31.401 1 0 0  255 255 255 255
17.5 -2.80805 27.6898 1 0 0  255 255 255 255
17.5 -2.74578 -0.180759 1 0 0  255 255 255 255
17.5 -2.76279 3.5966 1 0 0  255 255 255 255
17.5 -2.64954 1.90757 1 0 0  255 255 255 255
17.5 -2.65758 -1.87967 1 0 0  255 255 255 255
17.5 -2.7513 29.401 1 0 0  255 255 255 255
17.5 -2.76118 5.54725 1 0 0  255 255 255 255
17.5 -1.15505 25.8289 1 0 0  255 255 255 255
17.5 -1.29743 -5.8491 1 0 0  255 255 255 255
17.5 -2.70686 -5.86219 1 0 0  255 255 255 255
17.5 -1.29314 33.3622 1 0 0  255 255 255 255
17.5 -2.70257 33.3491 1 0 0  255 255 255 255
17.5 -1.22431 -0.137092 1 0 0  255 255 255 255
17.5 -1.20239 27.4939 1 0 0  255 255 255 255
17.5 -1.20503 -2.06995 1 0 0  255 255 255 255
17.5 -1.20503 29.5699 1 0 0  255 255 255 255
17.5 -1.13471 3.53463 1 0 0  255 255 255 255
17.5 -1.14297 1.75411 1 0 0  255 255 255 255
17.5 -1.07272 5.24453 1 0 0  255 255 255 255
17.5 -1.00421 7.18926 1 0 0  255 255 255 255
17.5 -2.99859 26.0412 1 0 0  255 255 255 255
17.5 -2.93582 24.0814 1 0 0  255 255 255 255
17.5 -2.97341 17.0108 1 0 0  255 255 255 255
17.5 -1.03482 18.7464 1 0 0  255 255 255 255
17.5 -1.04004 16.822 1 0 0  255 255 255 255
17.5 -2.95457 21.063 1 0 0  255 255 255 255
17.5 -2.97061 14.2005 1 0 0  255 255 255 255
17.5 -0.981845 14.289 1 0 0  255 255 255 255
17.5 -2.97498 7.83328 1 0 0  255 255 255 255
17.5 -3.08148 0.814836 1 0 0  255 255 255 255
17.5 -1.04543 21.5279 1 0 0  255 255 255 255
17.5 -0.981845 23.4513 1 0 0  255 255 255 255
17.5 -3.00695 12.2439 1 0 0  255 255 255 255
17.5 -0.981845 12.1331 1 0 0  255 255 255 255
17.5 -2.94837 18.9069 1 0 0  255 255 255 255
17.5 -1.00764 9.97727 1 0 0  255 255 255 255
17.5 -3.01011 9.97394 1 0 0  255 255 255 255
17.5 -2.97923 -2.91339 1 0 0  255 255 255 255
17.5 -2.97923 30.4134 1 0 0  255 255 255 255
17.5 -2.99721 4.57868 1 0 0  255 255 255 255
17.5 -0.872753 -3.14577 1 0 0  255 255 255 255
17.5 -0.872753 30.6458 1 0 0  255 255 255 255
17.5 -3.07701 32.3948 1 0 0  255 255 255 255
17.5 -0.935118 32.4221 1 0 0  255 255 255 255
17.5 -3.06488 -4.92209 1 0 0  255 255 255 255
17.5 -0.922992 -4.89477 1 0 0  255 255 255 255
17.5 -0.985033 26.6519 1 0 0  255 255 255 255
17.5 -0.893376 -1.19501 1 0 0  255 255 255 255
17.5 -0.90977 28.4246 1 0 0  255 255 255 255
17.5 -3.12211 -1.06997 1 0 0  255 255 255 255
17.5 -3.12211 28.57 1 0 0  255 255 255 255
17.5 -0.912184 0.809617 1 0 0  255 255 255 255
17.5 -0.872553 2.57612 1 0 0  255 255 255 255
17.5 -3.12653 2.68797 1 0 0  255 255 255 255
17.5 -0.909309 8.06525 1 0 0  255 255 255 255
17.5 -3.14549 23.2066 1 0 0  255 255 255 255
17.5 -3.06183 26.8415 1 0 0  255 255 255 255
17.5 -3.17563 16.1385 1 0 0  255 255 255 255
17.5 -2.14109 17.269 1 0 0  255 255 255 255
17.5 -2 -6.18681 1 0 0  255 255 255 255
17.5 -2 33.6868 1 0 0  255 255 255 255
17.5 -0.846465 6.20455 1 0 0  255 255 255 255
17.5 -3.18747 25.0682 1 0 0  255 255 255 255
17.5 -1.94254 5.42425 1 0 0  255 255 255 255
17.5 -2.05746 25.8485 1 0 0  255 255 255 255
17.5 -0.818279 4.42629 1 0 0  255 255 255 255
17.5 -1.90001 6.94031 1 0 0  255 255 255 255
17.5 -2.04665 24.3192 1 0 0  255 255 255 255
17.5 -0.831045 16.0434 1 0 0  255 255 255 255
17.5 -0.794371 19.5359 1 0 0  255 255 255 255
17.5 -1.99022 3.79106 1 0 0  255 255 255 255
17.5 -1.99022 1.61154 1 0 0  255 255 255 255
17.5 -1.98649 -0.258056 1 0 0  255 255 255 255
17.5 -2.01018 27.4965 1 0 0  255 255 255 255
17.5 -1.99117 -2.18461 1 0 0  255 255 255 255
17.5 -1.97467 29.3729 1 0 0  255 255 255 255
17.5 -2.00076 31.7159 1 0 0  255 255 255 255
17.5 -2.00076 -4.21592 1 0 0  255 255 255 255
17.5 -3.22806 6.19141 1 0 0  255 255 255 255
17.5 -0.786028 25.0777 1 0 0  255 255 255 255
17.5 -2.00886 11.3454 1 0 0  255 255 255 255
17.5 -2.00205 15.6736 1 0 0  255 255 255 255
17.5 -1.99338 8.58905 1 0 0  255 255 255 255
17.5 -1.99114 20.5078 1 0 0  255 255 255 255
17.5 -2 13.5044 1 0 0  255 255 255 255
17.5 -2 22.08 1 0 0  255 255 255 255
17.5 -2 18.3552 1 0 0  255 255 255 255
17.5 -0.726937 17.5423 1 0 0  255 255 255 255
17.5 -0.787238 -6.34822 1 0 0  255 255 255 255
17.5 -3.21276 -6.34822 1 0 0  255 255 255 255
17.5 -0.787238 33.8482 1 0 0  255 255 255 255
17.5 -3.21276 33.8482 1 0 0  255 255 255 255
17.5 -1.64517 25.1115 1 0 0  255 255 255 255
17.5 -2.36884 6.1761 1 0 0  255 255 255 255
17.5 -3.2584 17.5405 1 0 0  255 255 255 255
17.5 -3.2981 18.5252 1 0 0  255 255 255 255
17.5 -3.27073 14.7668 1 0 0  255 255 255 255
17.5 -0.721711 14.8611 1 0 0  255 255 255 255
17.5 -0.697243 12.7879 1 0 0  255 255 255 255
17.5 -0.697243 20.6407 1 0 0  255 255 255 255
17.5 -0.69052 22.8945 1 0 0  255 255 255 255
17.5 -0.687426 13.728 1 0 0  255 255 255 255
17.5 -3.27888 12.6784 1 0 0  255 255 255 255
17.5 -3.30198 20.6957 1 0 0  255 255 255 255
17.5 -3.30465 13.7044 1 0 0  255 255 255 255
17.5 -0.697243 11.4783 1 0 0  255 255 255 255
17.5 -3.30538 8.38437 1 0 0  255 255 255 255
17.5 -3.32384 21.9313 1 0 0  255 255 255 255
17.5 -3.30276 19.7944 1 0 0  255 255 255 255
17.5 -0.698023 21.904 1 0 0  255 255 255 255
17.5 -3.32466 11.4885 1 0 0  255 255 255 255
17.5 -0.677652 9.34082 1 0 0  255 255 255 255
17.5 -3.20059 9.36371 1 0 0  255 255 255 255
17.5 -0.697243 10.6321 1 0 0  255 255 255 255
17.5 -3.20059 10.5899 1 0 0  255 255 255 255
17.5 -2.22596 14.8791 1 0 0  255 255 255 255
17.5 -2.15799 22.7769 1 0 0  255 255 255 255
17.5 -2.22596 12.7232 1 0 0  255 255 255 255
17.5 -1.85343 19.8252 1 0 0  255 255 255 255
17.5 -2.17054 9.31989 1 0 0  255 255 255 255
17.5 -2.17955 10.6216 1 0 0  255 255 255 255
17.5 -0.681747 24.0675 1 0 0  255 255 255 255
17.5 -3.3271 7.1962 1 0 0  255 255 255 255
17.5 -3.29097 -3.45659 1 0 0  255 255 255 255
17.5 -3.29097 30.9566 1 0 0  255 255 255 255
17.5 -3.31675 -2.45458 1 0 0  255 255 255 255
17.5 -3.31675 29.9546 1 0 0  255 255 255 255
17.5 -3.33378 0.308915 1 0 0  255 255 255 255
17.5 -3.3337 1.31898 1 0 0  255 255 255 255
17.5 -3.3334 5.17582 1 0 0  255 255 255 255
17.5 -3.32348 33.012 1 0 0  255 255 255 255
17.5 -0.662304 33.0326 1 0 0  255 255 255 255
17.5 -3.3377 -5.53255 1 0 0  255 255 255 255
17.5 -0.676524 -5.51201 1 0 0  255 255 255 255
17.5 -3.31994 4.08123 1 0 0  255 255 255 255
17.5 -0.542588 -2.48474 1 0 0  255 255 255 255
17.5 -0.542588 29.9847 1 0 0  255 255 255 255
17.5 -0.680061 -0.527606 1 0 0  255 255 255 255
17.5 -0.638918 28.0198 1 0 0  255 255 255 255
17.5 -0.685028 3.31593 1 0 0  255 255 255 255
17.5 -0.717872 -3.60758 1 0 0  255 255 255 255
17.5 -0.717872 31.1076 1 0 0  255 255 255 255
17.5 -0.528356 27.1677 1 0 0  255 255 255 255
17.5 -2.49114 19.6809 1 0 0  255 255 255 255
17.5 -1.45692 14.6895 1 0 0  255 255 255 255
17.5 -1.51235 9.43493 1 0 0  255 255 255 255
17.5 -1.46132 23.0457 1 0 0  255 255 255 255
17.5 -1.50892 12.6745 1 0 0  255 255 255 255
17.5 -1.50035 10.5524 1 0 0  255 255 255 255
17.5 -3.33057 31.8353 1 0 0  255 255 255 255
17.5 -0.712825 31.8734 1 0 0  255 255 255 255
17.5 -3.33057 -4.33532 1 0 0  255 255 255 255
17.5 -0.727759 -4.38318 1 0 0  255 255 255 255
17.5 -0.676681 26.0577 1 0 0  255 255 255 255
17.5 -0.674288 18.2458 1 0 0  255 255 255 255
17.5 -3.3575 -1.63851 1 0 0  255 255 255 255
17.5 -3.3575 29.1385 1 0 0  255 255 255 255
17.5 -3.32177 27.9863 1 0 0  255 255 255 255
17.5 -3.28563 -0.552919 1 0 0  255 255 255 255
17.5 -0.620491 1.40078 1 0 0  255 255 255 255
17.5 -1.3857 16.0656 1 0 0  255 255 255 255
17.5 -0.545224 0.283865 1 0 0  255 255 255 255
17.5 -2.45795 3.01165 1 0 0  255 255 255 255
17.5 -2.23396 -3.59211 1 0 0  255 255 255 255
17.5 -2.23396 31.0921 1 0 0  255 255 255 255
17.5 -3.345 2.11052 1 0 0  255 255 255 255
17.5 -3.35581 3.26659 1 0 0  255 255 255 255
17.5 -2.38449 -0.850493 1 0 0  255 255 255 255
17.5 -2.4748 28.2663 1 0 0  255 255 255 255
17.5 -0.648235 8.64148 1 0 0  255 255 255 255
17.5 -3.37061 22.6457 1 0 0  255 255 255 255
17.5 -0.643877 29.2317 1 0 0  255 255 255 255
17.5 -0.630729 -1.68495 1 0 0  255 255 255 255
17.5 -1.48024 23.8486 1 0 0  255 255 255 255
17.5 -2.48538 7.43926 1 0 0  255 255 255 255
17.5 -0.665977 2.04874 1 0 0  255 255 255 255
17.5 -2.45651 28.9147 1 0 0  255 255 255 255
17.5 -2.44507 -1.3805 1 0 0  255 255 255 255
17.5 -2.56112 18.693 1 0 0  255 255 255 255
17.5 -2.39993 11.6252 1 0 0  255 255 255 255
17.5 -1.44763 11.6575 1 0 0  255 255 255 255
17.5 -1.50868 13.8585 1 0 0  255 255 255 255
17.5 -2.54284 13.8025 1 0 0  255 255 255 255
17.5 -2.56346 20.8544 1 0 0  255 255 255 255
17.5 -1.5742 21.724 1 0 0  255 255 255 255
17.5 -2.49419 21.836 1 0 0  255 255 255 255
17.5 -2.55637 8.27509 1 0 0  255 255 255 255
17.5 -1.59797 20.7882 1 0 0  255 255 255 255
17.5 -1.4901 30.9697 1 0 0  255 255 255 255
17.5 -1.4901 -3.46972 1 0 0  255 255 255 255
17.5 -2.45691 27.166 1 0 0  255 255 255 255
17.5 -2.40716 0.420975 1 0 0  255 255 255 255
17.5 -2.40157 1.22706 1 0 0  255 255 255 255
17.5 -2.40606 4.10574 1 0 0  255 255 255 255
17.5 -2.41239 -2.60441 1 0 0  255 255 255 255
17.5 -2.45588 30.1174 1 0 0  255 255 255 255
17.5 -2.43729 2.362 1 0 0  255 255 255 255
17.5 -2.53124 5.00132 1 0 0  255 255 255 255
17.5 -1.5622 26.2454 1 0 0  255 255 255 255
17.5 -2.19101 33.0906 1 0 0  255 255 255 255
17.5 -1.80899 -5.59059 1 0 0  255 255 255 255
17.5 -1.41229 4.40642 1 0 0  255 255 255 255
17.5 -2.49974 16.0525 1 0 0  255 255 255 255
17.5 -1.3937 -0.699386 1 0 0  255 255 255 255
17.5 -1.45044 28.219 1 0 0  255 255 255 255
17.5 -1.46552 0.453557 1 0 0  255 255 255 255
17.5 -1.47617 3.09107 1 0 0  255 255 255 255
17.5 -1.48168 1.01982 1 0 0  255 255 255 255
17.5 -2.43826 -4.55311 1 0 0  255 255 255 255
17.5 -1.50129 -4.68017 1 0 0  255 255 255 255
17.5 -2.43925 32.0306 1 0 0  255 255 255 255
17.5 -1.49878 32.2393 1 0 0  255 255 255 255
17.5 -1.41031 27.09 1 0 0  255 255 255 255
17.5 -1.41656 19.1647 1 0 0  255 255 255 255
17.5 -1.47831 -2.62793 1 0 0  255 255 255 255
17.5 -1.51034 30.0558 1 0 0  255 255 255 255
17.5 -0.592349 5.60884 1 0 0  255 255 255 255
17.5 -3.45199 24.5775 1 0 0  255 255 255 255
17.5 -3.44669 25.5848 1 0 0  255 255 255 255
17.5 -0.567831 6.74651 1 0 0  255 255 255 255
17.5 -3.37986 15.5947 1 0 0  255 255 255 255
17.5 -1.57702 8.2054 1 0 0  255 255 255 255
17.5 -2.50404 -5.28043 1 0 0  255 255 255 255
17.5 -1.46748 32.7989 1 0 0  255 255 255 255
17.5 -1.62347 -1.73943 1 0 0  255 255 255 255
17.5 -1.61945 2.05715 1 0 0  255 255 255 255
17.5 -1.55327 29.085 1 0 0  255 255 255 255
17.5 -0.629828 3.83332 1 0 0  255 255 255 255
17.5 -1.46278 -6.4168 1 0 0  255 255 255 255
17.5 -2.51775 -6.38137 1 0 0  255 255 255 255
17.5 -2.53722 33.9168 1 0 0  255 255 255 255
17.5 -1.48225 33.8814 1 0 0  255 255 255 255
17.5 -1.65813 16.9558 1 0 0  255 255 255 255
17.5 -2.59874 23.5682 1 0 0  255 255 255 255
17.5 -0.608218 7.53656 1 0 0  255 255 255 255
17.5 -3.39144 23.7151 1 0 0  255 255 255 255
17.5 -3.38979 26.3921 1 0 0  255 255 255 255
17.5 -3.41827 27.3894 1 0 0  255 255 255 255
17.5 -2.72969 14.8822 1 0 0  255 255 255 255
17.5 -2.7413 12.7779 1 0 0  255 255 255 255
17.5 -2.59842 9.43878 1 0 0  255 255 255 255
17.5 -2.59979 10.5045 1 0 0  255 255 255 255
17.5 -0.615412 4.96953 1 0 0  255 255 255 255
17.5 -3.38117 16.6549 1 0 0  255 255 255 255
17.5 -0.552087 15.472 1 0 0  255 255 255 255
17.5 -0.571517 20.07 1 0 0  255 255 255 255
17.5 -1.18849 5.78536 1 0 0  255 255 255 255
17.5 -2.88855 25.5069 1 0 0  255 255 255 255
17.5 -2.79228 24.6377 1 0 0  255 255 255 255
17.5 -1.15369 6.63751 1 0 0  255 255 255 255
17.5 -2.60199 26.4671 1 0 0  255 255 255 255
17.5 -1.44964 7.63697 1 0 0  255 255 255 255
17.5 -2.68646 17.5143 1 0 0  255 255 255 255
17.5 -0.532389 19.0729 1 0 0  255 255 255 255
17.5 -0.540384 16.5145 1 0 0  255 255 255 255
17.5 -1.58096 4.98968 1 0 0  255 255 255 255
17.5 -1.63595 18.7434 1 0 0  255 255 255 255
17.5 -2.51954 16.6516 1 0 0  255 255 255 255
17.5 -2.21425 17.8397 1 0 0  255 255 255 255
17.5 -1.46796 -5.12073 1 0 0  255 255 255 255
17.5 -2.5192 32.5889 1 0 0  255 255 255 255
17.5 -1.97279 28.0336 1 0 0  255 255 255 255
17.5 -1.96353 0.26299 1 0 0  255 255 255 255
17.5 -1.97613 29.8828 1 0 0  255 255 255 255
17.5 -1.97891 3.24258 1 0 0  255 255 255 255
17.5 -3.58175 5.68495 1 0 0  255 255 255 255
17.5 -3.57648 6.70475 1 0 0  255 255 255 255
17.5 -0.44942 24.5746 1 0 0  255 255 255 255
17.5 -2.74969 -3.56524 1 0 0  255 255 255 255
17.5 -2.74969 31.0652 1 0 0  255 255 255 255
17.5 -2.65958 22.8991 1 0 0  255 255 255 255
17.5 -0.421555 25.5817 1 0 0  255 255 255 255
17.5 -3.57463 -2.95082 1 0 0  255 255 255 255
17.5 -3.57463 30.4508 1 0 0  255 255 255 255
17.5 -3.54606 0.814935 1 0 0  255 255 255 255
17.5 -3.54606 7.82143 1 0 0  255 255 255 255
17.5 -3.56169 14.2606 1 0 0  255 255 255 255
17.5 -0.453941 14.289 1 0 0  255 255 255 255
17.5 -3.49579 12.0832 1 0 0  255 255 255 255
17.5 -0.564562 12.1345 1 0 0  255 255 255 255
17.5 -0.453941 23.4513 1 0 0  255 255 255 255
17.5 -0.494417 21.2754 1 0 0  255 255 255 255
17.5 -3.49203 21.3223 1 0 0  255 255 255 255
17.5 -3.50208 19.1602 1 0 0  255 255 255 255
17.5 -0.568443 9.97931 1 0 0  255 255 255 255
17.5 -3.54606 9.97727 1 0 0  255 255 255 255
17.5 -3.58519 4.59805 1 0 0  255 255 255 255
17.5 -1.37249 18.2524 1 0 0  255 255 255 255
17.5 -0.466074 -2.92877 1 0 0  255 255 255 255
17.5 -0.466074 30.4288 1 0 0  255 255 255 255
17.5 -0.534067 17.0853 1 0 0  255 255 255 255
17.5 -1.18744 17.3411 1 0 0  255 255 255 255
17.5 -3.59538 -5.12777 1 0 0  255 255 255 255
17.5 -3.59513 32.6221 1 0 0  255 255 255 255
17.5 -0.404619 32.6278 1 0 0  255 255 255 255
17.5 -0.404868 -5.12207 1 0 0  255 255 255 255
17.5 -0.411019 26.5656 1 0 0  255 255 255 255
17.5 -2.50908 9.95725 1 0 0  255 255 255 255
17.5 -3.55124 17.1161 1 0 0  255 255 255 255
17.5 -1.73277 33.2725 1 0 0  255 255 255 255
17.5 -2.26723 -5.7725 1 0 0  255 255 255 255
17.5 -3.56472 18.0511 1 0 0  255 255 255 255
17.5 -3.57507 11.0552 1 0 0  255 255 255 255
17.5 -0.424934 11.0552 1 0 0  255 255 255 255
17.5 -0.407072 22.3846 1 0 0  255 255 255 255
17.5 -0.406519 13.2282 1 0 0  255 255 255 255
17.5 -3.57507 13.211 1 0 0  255 255 255 255
17.5 -3.57786 8.88833 1 0 0  255 255 255 255
17.5 -3.59197 20.2292 1 0 0  255 255 255 255
17.5 -0.378823 -1.27976 1 0 0  255 255 255 255
17.5 -0.492952 28.7904 1 0 0  255 255 255 255
17.5 -0.38101 2.48642 1 0 0  255 255 255 255
17.5 -2.4612 12.2488 1 0 0  255 255 255 255
17.5 -2.35331 14.3713 1 0 0  255 255 255 255
17.5 -0.416302 0.814935 1 0 0  255 255 255 255
17.5 -3.59796 28.7312 1 0 0  255 255 255 255
17.5 -3.59796 -1.23116 1 0 0  255 255 255 255
17.5 -3.59855 2.85581 1 0 0  255 255 255 255
17.5 -1.32382 -1.18389 1 0 0  255 255 255 255
17.5 -1.81958 10.9048 1 0 0  255 255 255 255
17.5 -1.82404 9.07022 1 0 0  255 255 255 255
17.5 -1.83359 13.0259 1 0 0  255 255 255 255
17.5 -2.17649 20.0456 1 0 0  255 255 255 255
17.5 -1.72802 22.5748 1 0 0  255 255 255 255
17.5 -1.73525 15.1593 1 0 0  255 255 255 255
17.5 -1.14465 2.2087 1 0 0  255 255 255 255
17.5 -2.01445 6.50781 1 0 0  255 255 255 255
17.5 -1.66674 24.6532 1 0 0  255 255 255 255
17.5 -0.442293 33.5377 1 0 0  255 255 255 255
17.5 -3.56779 33.5628 1 0 0  255 255 255 255
17.5 -0.432206 -6.06275 1 0 0  255 255 255 255
17.5 -3.55771 -6.03772 1 0 0  255 255 255 255
17.5 -1.24473 19.7767 1 0 0  255 255 255 255
17.5 -3.61013 23.0279 1 0 0  255 255 255 255
17.5 -0.458954 8.23046 1 0 0  255 255 255 255
17.5 -2.37865 30.6507 1 0 0  255 255 255 255
17.5 -2.40656 -3.13796 1 0 0  255 255 255 255
17.5 -1.09453 -1.64224 1 0 0  255 255 255 255
17.5 -1.83554 31.3202 1 0 0  255 255 255 255
17.5 -1.83554 -3.82019 1 0 0  255 255 255 255
17.5 -1.46635 16.4843 1 0 0  255 255 255 255
17.5 -1.39175 2.60415 1 0 0  255 255 255 255
17.5 -1.99063 5.89377 1 0 0  255 255 255 255
17.5 -2.00937 25.379 1 0 0  255 255 255 255
17.5 -2.89693 2.25159 1 0 0  255 255 255 255
17.5 -0.431654 18.6357 1 0 0  255 255 255 255
17.5 -2.40927 24.0679 1 0 0  255 255 255 255
17.5 -1.11127 -5.43441 1 0 0  255 255 255 255
17.5 -2.88873 32.9344 1 0 0  255 255 255 255
17.5 -1.22555 25.3133 1 0 0  255 255 255 255
17.5 -2.77449 5.97261 1 0 0  255 255 255 255
17.5 -3.59013 15.9882 1 0 0  255 255 255 255
17.5 -2.13602 -1.74126 1 0 0  255 255 255 255
17.5 -2.45953 21.3352 1 0 0  255 255 255 255
17.5 -1.46757 21.2587 1 0 0  255 255 255 255
17.5 -2.90039 -1.51381 1 0 0  255 255 255 255
17.5 -2.91792 29.0231 1 0 0  255 255 255 255
17.5 -1.72831 17.4911 1 0 0  255 255 255 255
17.5 -0.980224 17.8562 1 0 0  255 255 255 255
17.5 -2.92079 3.14398 1 0 0  255 255 255 255
17.5 -2.39289 0.013873 1 0 0  255 255 255 255
17.5 -3.57571 26.7818 1 0 0  255 255 255 255
17.5 -1.14806 8.55491 1 0 0  255 255 255 255
17.5 -2.15076 -6.63518 1 0 0  255 255 255 255
17.5 -1.84924 34.1352 1 0 0  255 255 255 255
17.5 -2.81584 -0.613144 1 0 0  255 255 255 255
17.5 -2.89627 28.139 1 0 0  255 255 255 255
17.5 -2.44308 19.1799 1 0 0  255 255 255 255
17.5 -2.12144 2.04658 1 0 0  255 255 255 255
17.5 -3.58505 31.4088 1 0 0  255 255 255 255
17.5 -3.58505 -3.90879 1 0 0  255 255 255 255
17.5 -2.35773 29.636 1 0 0  255 255 255 255
17.5 -1.4717 12.1417 1 0 0  255 255 255 255
17.5 -1.54965 14.2984 1 0 0  255 255 255 255
17.5 -0.389122 4.55327 1 0 0  255 255 255 255
17.5 -0.397086 27.6749 1 0 0  255 255 255 255
17.5 -1.63299 3.51432 1 0 0  255 255 255 255
17.5 -0.376089 15.923 1 0 0  255 255 255 255
17.5 -0.376089 19.6614 1 0 0  255 255 255 255
17.5 -2.51751 25.9325 1 0 0  255 255 255 255
17.5 -1.49317 5.44872 1 0 0  255 255 255 255
17.5 -1.58672 27.6601 1 0 0  255 255 255 255
17.5 -0.388412 31.4876 1 0 0  255 255 255 255
17.5 -0.388412 -3.98761 1 0 0  255 255 255 255
17.5 -2.90751 -4.39576 1 0 0  255 255 255 255
17.5 -1.14523 -4.34203 1 0 0  255 255 255 255
17.5 -2.91463 31.886 1 0 0  255 255 255 255
17.5 -1.14435 31.8548 1 0 0  255 255 255 255
17.5 -1.49516 7.0691 1 0 0  255 255 255 255
17.5 -0.400504 -0.292535 1 0 0  255 255 255 255
17.5 -1.49075 9.98238 1 0 0  255 255 255 255
17.5 -2.34455 27.7304 1 0 0  255 255 255 255
17.5 -0.387267 6.19687 1 0 0  255 255 255 255
17.5 -3.63225 25.0708 1 0 0  255 255 255 255
17.5 -2.85975 15.7491 1 0 0  255 255 255 255
17.5 -2.4382 7.87276 1 0 0  255 255 255 255
17.5 -2.16182 26.2521 1 0 0  255 255 255 255
17.5 -1.10001 31.0224 1 0 0  255 255 255 255
17.5 -1.10001 -3.52235 1 0 0  255 255 255 255
17.5 -2.31919 3.54953 1 0 0  255 255 255 255
17.5 -2.33001 24.6032 1 0 0  255 255 255 255
17.5 -2.9099 16.5017 1 0 0  255 255 255 255
17.5 -1.91546 7.3457 1 0 0  255 255 255 255
17.5 -1.0832 26.2032 1 0 0  255 255 255 255
17.5 -1.02074 0.284595 1 0 0  255 255 255 255
17.5 -2.93627 27.2717 1 0 0  255 255 255 255
17.5 -0.468678 2.98035 1 0 0  255 255 255 255
17.5 -1.09883 1.30321 1 0 0  255 255 255 255
17.5 -1.60913 25.6211 1 0 0  255 255 255 255
17.5 -2.33884 5.60938 1 0 0  255 255 255 255
17.5 -2.84436 -2.35904 1 0 0  255 255 255 255
17.5 -2.85557 29.8575 1 0 0  255 255 255 255
17.5 -0.425732 -0.82235 1 0 0  255 255 255 255
17.5 -0.37001 28.337 1 0 0  255 255 255 255
17.5 -1.10729 -6.62108 1 0 0  255 255 255 255
17.5 -2.91232 -6.59437 1 0 0  255 255 255 255
17.5 -2.89271 34.1211 1 0 0  255 255 255 255
17.5 -1.08768 34.0944 1 0 0  255 255 255 255
17.5 -2.49799 17.0541 1 0 0  255 255 255 255
17.5 -1.64389 29.5933 1 0 0  255 255 255 255
17.5 -3.58675 -6.59678 1 0 0  255 255 255 255
17.5 -0.406561 -6.59564 1 0 0  255 255 255 255
17.5 -0.413255 34.0968 1 0 0  255 255 255 255
17.5 -3.59344 34.0956 1 0 0  255 255 255 255
17.5 -2.90474 4.00971 1 0 0  255 255 255 255
17.5 -3.65312 28.2975 1 0 0  255 255 255 255
17.5 -3.65312 -0.797452 1 0 0  255 255 255 255
17.5 -3.01305 26.4355 1 0 0  255 255 255 255
17.5 -1.00091 27.1743 1 0 0  255 255 255 255
17.5 -2.91132 5.14958 1 0 0  255 255 255 255
17.5 -2.80411 1.35178 1 0 0  255 255 255 255
17.5 -1.63701 -0.099532 1 0 0  255 255 255 255
17.5 -2.84255 0.276131 1 0 0  255 255 255 255
17.5 -3.63167 2.46265 1 0 0  255 255 255 255
17.5 -2.08165 5.01354 1 0 0  255 255 255 255
17.5 -1.12433 24.0791 1 0 0  255 255 255 255
17.5 -2.84513 7.15512 1 0 0  255 255 255 255
17.5 -1.03557 30.1049 1 0 0  255 255 255 255
17.5 -1.03557 -2.60492 1 0 0  255 255 255 255
17.5 -1.58727 23.4451 1 0 0  255 255 255 255
17.5 -1.88728 23.9048 1 0 0  255 255 255 255
17.5 -2.32544 6.96008 1 0 0  255 255 255 255
17.5 -2.91601 -5.48156 1 0 0  255 255 255 255
17.5 -1.08399 32.9816 1 0 0  255 255 255 255
17.5 -1.09993 4.80729 1 0 0  255 255 255 255
17.5 -2.28636 23.1681 1 0 0  255 255 255 255
17.5 -3.59398 -0.174515 1 0 0  255 255 255 255
17.5 -2.93473 19.5751 1 0 0  255 255 255 255
17.5 -1.1276 14.9612 1 0 0  255 255 255 255
17.5 -1.05749 12.5784 1 0 0  255 255 255 255
17.5 -1.1276 22.7791 1 0 0  255 255 255 255
17.5 -1.05793 10.4229 1 0 0  255 255 255 255
17.5 -1.06056 9.55381 1 0 0  255 255 255 255
17.5 -0.350164 3.49005 1 0 0  255 255 255 255
17.5 -2.14419 16.8706 1 0 0  255 255 255 255
17.5 -0.399711 9.01381 1 0 0  255 255 255 255
17.5 -3.58313 22.2416 1 0 0  255 255 255 255
17.5 -0.992844 7.60701 1 0 0  255 255 255 255
17.5 -1.08944 15.6498 1 0 0  255 255 255 255
17.5 -3.59191 1.72318 1 0 0  255 255 255 255
17.5 -0.423711 17.8425 1 0 0  255 255 255 255
17.5 -3.59817 -4.70691 1 0 0  255 255 255 255
17.5 -0.371849 -4.63859 1 0 0  255 255 255 255
17.5 -3.60054 32.2003 1 0 0  255 255 255 255
17.5 -0.371849 32.1386 1 0 0  255 255 255 255
17.5 -3.59308 -2.03358 1 0 0  255 255 255 255
17.5 -3.59308 29.5336 1 0 0  255 255 255 255
17.5 -3.59367 3.66249 1 0 0  255 255 255 255
17.5 -1.78709 -6.66906 1 0 0  255 255 255 255
17.5 -2.2129 34.1691 1 0 0  255 255 255 255
17.5 -3.15699 11.1535 1 0 0  255 255 255 255
17.5 -3.15137 8.87284 1 0 0  255 255 255 255
17.5 -0.837876 10.9802 1 0 0  255 255 255 255
17.5 -3.11892 20.1642 1 0 0  255 255 255 255
17.5 -3.12759 13.1898 1 0 0  255 255 255 255
17.5 -0.88636 22.3853 1 0 0  255 255 255 255
17.5 -0.877769 13.1667 1 0 0  255 255 255 255
17.5 -2.35011 33.4703 1 0 0  255 255 255 255
17.5 -1.64989 -5.97027 1 0 0  255 255 255 255
17.5 -1.03406 29.067 1 0 0  255 255 255 255
17.5 -3.60819 24.0998 1 0 0  255 255 255 255
17.5 -0.391808 7.1729 1 0 0  255 255 255 255
17.5 -3.67726 6.19804 1 0 0  255 255 255 255
17.5 -0.326206 25.0682 1 0 0  255 255 255 255
17.5 -2.32892 15.3735 1 0 0  255 255 255 255
17.5 -2.28923 11.0095 1 0 0  255 255 255 255
17.5 -2.30207 22.3864 1 0 0  255 255 255 255
17.5 -1.69529 20.2175 1 0 0  255 255 255 255
17.5 -2.30471 13.211 1 0 0  255 255 255 255
17.5 -2.30471 8.89935 1 0 0  255 255 255 255
17.5 -1.11601 4.02258 1 0 0  255 255 255 255
17.5 -1.87264 4.16932 1 0 0  255 255 255 255
17.5 -3.14533 18.0122 1 0 0  255 255 255 255
17.5 -0.414838 -2.08375 1 0 0  255 255 255 255
17.5 -0.414838 29.5838 1 0 0  255 255 255 255
17.5 -1.53322 1.49291 1 0 0  255 255 255 255
17.5 -1.86617 1.21165 1 0 0  255 255 255 255
17.5 -1.56502 15.6641 1 0 0  255 255 255 255
17.5 -2.14386 18.7474 1 0 0  255 255 255 255
17.5 -1.85864 -0.635937 1 0 0  255 255 255 255
17.5 -1.83153 11.7132 1 0 0  255 255 255 255
17.5 -2.15538 20.8835 1 0 0  255 255 255 255
17.5 -2.14327 13.8967 1 0 0  255 255 255 255
17.5 -2.13085 21.679 1 0 0  255 255 255 255
17.5 -2.13224 8.1915 1 0 0  255 255 255 255
17.5 -1.03544 16.3966 1 0 0  255 255 255 255
17.5 -1.57189 8.68988 1 0 0  255 255 255 255
17.5 -1.86301 27.1017 1 0 0  255 255 255 255
17.5 -0.983548 19.1588 1 0 0  255 255 255 255
17.5 -1.77054 17.9551 1 0 0  255 255 255 255
17.5 -1.88267 -2.56308 1 0 0  255 255 255 255
17.5 -1.60912 -2.24074 1 0 0  255 255 255 255
17.5 -2.90455 8.50175 1 0 0  255 255 255 255
17.5 -2.90224 13.6004 1 0 0  255 255 255 255
17.5 -1.12253 13.5935 1 0 0  255 255 255 255
17.5 -2.93903 11.6997 1 0 0  255 255 255 255
17.5 -1.06593 20.8649 1 0 0  255 255 255 255
17.5 -2.93747 21.736 1 0 0  255 255 255 255
17.5 -2.86406 20.5771 1 0 0  255 255 255 255
17.5 -1.16097 21.9999 1 0 0  255 255 255 255
17.5 -1.04192 11.7348 1 0 0  255 255 255 255
17.5 -2.85237 18.4193 1 0 0  255 255 255 255
17.5 -3.68655 27.763 1 0 0  255 255 255 255
17.5 -3.07218 6.7341 1 0 0  255 255 255 255
17.5 -0.948013 24.5261 1 0 0  255 255 255 255
17.5 -0.352049 7.8595 1 0 0  255 255 255 255
17.5 -3.65064 23.4014 1 0 0  255 255 255 255
17.5 -3.60683 15.2227 1 0 0  255 255 255 255
17.5 -2.04745 28.967 1 0 0  255 255 255 255
17.5 -2.33951 31.4618 1 0 0  255 255 255 255
17.5 -2.33608 -3.95554 1 0 0  255 255 255 255
17.5 -2.40156 1.60923 1 0 0  255 255 255 255
17.5 -1.82123 16.0714 1 0 0  255 255 255 255
17.5 -1.36587 28.6562 1 0 0  255 255 255 255
17.5 -2.59268 0.816203 1 0 0  255 255 255 255
17.5 -2.40274 -2.17538 1 0 0  255 255 255 255
17.5 -3.69341 18.6006 1 0 0  255 255 255 255
17.5 -3.01787 23.6428 1 0 0  255 255 255 255
17.5 -0.306167 11.5942 1 0 0  255 255 255 255
17.5 -0.306167 13.75 1 0 0  255 255 255 255
17.5 -3.69383 13.75 1 0 0  255 255 255 255
17.5 -0.306167 9.43831 1 0 0  255 255 255 255
17.5 -0.306167 12.6721 1 0 0  255 255 255 255
17.5 -0.320519 14.838 1 0 0  255 255 255 255
17.5 -3.69383 12.6721 1 0 0  255 255 255 255
17.5 -3.69383 11.5942 1 0 0  255 255 255 255
17.5 -3.69383 19.6786 1 0 0  255 255 255 255
17.5 -3.69383 9.43831 1 0 0  255 255 255 255
17.5 -0.318263 20.7417 1 0 0  255 255 255 255
17.5 -3.69383 21.8344 1 0 0  255 255 255 255
17.5 -0.306167 21.8344 1 0 0  255 255 255 255
17.5 -0.306167 22.9123 1 0 0  255 255 255 255
17.5 -3.69383 20.7565 1 0 0  255 255 255 255
17.5 -3.69383 8.36039 1 0 0  255 255 255 255
17.5 -0.306167 10.5162 1 0 0  255 255 255 255
17.5 -3.69383 10.5162 1 0 0  255 255 255 255
17.5 -3.16464 31.4637 1 0 0  255 255 255 255
17.5 -3.16464 -3.96369 1 0 0  255 255 255 255
17.5 -3.69448 17.5227 1 0 0  255 255 255 255
17.5 -3.69203 14.8247 1 0 0  255 255 255 255
17.5 -2.40413 18.3082 1 0 0  255 255 255 255
17.5 -3.10761 -5.93231 1 0 0  255 255 255 255
17.5 -0.892393 33.4323 1 0 0  255 255 255 255
17.5 -3.12151 33.4574 1 0 0  255 255 255 255
17.5 -0.878492 -5.95739 1 0 0  255 255 255 255
17.5 -2.40521 4.60122 1 0 0  255 255 255 255
17.5 -1.91114 32.0837 1 0 0  255 255 255 255
17.5 -1.91097 -4.58226 1 0 0  255 255 255 255
17.5 -2.01308 24.8497 1 0 0  255 255 255 255
17.5 -2.42342 6.56938 1 0 0  255 255 255 255
17.5 -0.389783 1.73379 1 0 0  255 255 255 255
17.5 -3.6045 26.0236 1 0 0  255 255 255 255
17.5 -1.86025 32.8678 1 0 0  255 255 255 255
17.5 -2.14083 -5.37929 1 0 0  255 255 255 255
17.5 -2.25178 10.2823 1 0 0  255 255 255 255
17.5 -1.27656 6.20564 1 0 0  255 255 255 255
17.5 -2.77516 25.0943 1 0 0  255 255 255 255
17.5 -1.6736 11.3401 1 0 0  255 255 255 255
17.5 -1.58736 22.1259 1 0 0  255 255 255 255
17.5 -2.39943 20.4725 1 0 0  255 255 255 255
17.5 -1.55474 13.4137 1 0 0  255 255 255 255
17.5 -0.380599 -3.35198 1 0 0  255 255 255 255
17.5 -0.380599 30.852 1 0 0  255 255 255 255
17.5 -1.65003 24.2189 1 0 0  255 255 255 255
17.5 -0.808869 -0.159638 1 0 0  255 255 255 255
17.5 -0.862386 25.5536 1 0 0  255 255 255 255
17.5 -1.90453 -3.36664 1 0 0  255 255 255 255
17.5 -1.87573 30.8181 1 0 0  255 255 255 255
17.5 -1.8861 9.59444 1 0 0  255 255 255 255
17.5 -1.89411 12.5095 1 0 0  255 255 255 255
17.5 -1.88433 14.6406 1 0 0  255 255 255 255
17.5 -1.89012 23.0837 1 0 0  255 255 255 255
17.5 -2.10864 19.5344 1 0 0  255 255 255 255
17.5 -1.27944 24.8631 1 0 0  255 255 255 255
17.5 -3.09837 5.62027 1 0 0  255 255 255 255
17.5 -0.992045 -0.737247 1 0 0  255 255 255 255
17.5 -1.10107 27.9131 1 0 0  255 255 255 255
17.5 -0.336943 17.5031 1 0 0  255 255 255 255
17.5 -1.602 31.752 1 0 0  255 255 255 255
17.5 -1.60239 -4.24331 1 0 0  255 255 255 255
17.5 -1.41161 -3.10233 1 0 0  255 255 255 255
17.5 -1.40473 30.5666 1 0 0  255 255 255 255
17.5 -0.859859 31.4771 1 0 0  255 255 255 255
17.5 -0.860546 -3.97692 1 0 0  255 255 255 255
17.5 -1.88262 10.3694 1 0 0  255 255 255 255
17.5 -3.70607 -3.48769 1 0 0  255 255 255 255
17.5 -3.70607 30.9877 1 0 0  255 255 255 255
17.5 -3.71198 7.28247 1 0 0  255 255 255 255
17.5 -0.288022 23.9903 1 0 0  255 255 255 255
17.5 -0.811071 29.5889 1 0 0  255 255 255 255
17.5 -0.811071 -2.08893 1 0 0  255 255 255 255
17.5 -0.995743 3.01783 1 0 0  255 255 255 255
17.5 -3.15508 -0.14472 1 0 0  255 255 255 255
17.5 -3.11161 -1.97986 1 0 0  255 255 255 255
17.5 -3.14699 29.5093 1 0 0  255 255 255 255
17.5 -0.957581 15.2655 1 0 0  255 255 255 255
17.5 -0.910182 20.3054 1 0 0  255 255 255 255
17.5 -0.811454 27.5739 1 0 0  255 255 255 255
17.5 -0.884307 8.9964 1 0 0  255 255 255 255
17.5 -3.15187 22.2666 1 0 0  255 255 255 255
17.5 -1.59983 6.59458 1 0 0  255 255 255 255
17.5 -3.10353 1.77727 1 0 0  255 255 255 255
17.5 -3.24237 -6.70787 1 0 0  255 255 255 255
17.5 -0.760218 -6.71299 1 0 0  255 255 255 255
17.5 -0.757634 34.2079 1 0 0  255 255 255 255
17.5 -3.23978 34.213 1 0 0  255 255 255 255
17.5 -1.72893 19.4547 1 0 0  255 255 255 255
17.5 -0.365006 4.17681 1 0 0  255 255 255 255
17.5 -3.09641 15.2611 1 0 0  255 255 255 255
17.5 -1.52648 3.90639 1 0 0  255 255 255 255
17.5 -2.35716 -0.409102 1 0 0  255 255 255 255
17.5 -3.15078 3.62957 1 0 0  255 255 255 255
17.5 -3.72018 4.0487 1 0 0  255 255 255 255
17.5 -3.72024 0.275974 1 0 0  255 255 255 255
17.5 -3.72037 1.3539 1 0 0  255 255 255 255
17.5 -2.7679 2.69144 1 0 0  255 255 255 255
17.5 -1.10854 33.7237 1 0 0  255 255 255 255
17.5 -2.80281 33.6938 1 0 0  255 255 255 255
17.5 -2.89146 -6.22369 1 0 0  255 255 255 255
17.5 -1.19719 -6.19381 1 0 0  255 255 255 255
17.5 -2.4381 25.4655 1 0 0  255 255 255 255
17.5 -1.60272 5.82253 1 0 0  255 255 255 255
17.5 -0.292257 -5.63022 1 0 0  255 255 255 255
17.5 -3.70774 33.1302 1 0 0  255 255 255 255
17.5 -0.292257 33.1302 1 0 0  255 255 255 255
17.5 -3.70774 -5.63022 1 0 0  255 255 255 255
17.5 -3.71678 29.9283 1 0 0  255 255 255 255
17.5 -3.71678 -2.42833 1 0 0  255 255 255 255
17.5 -1.59249 26.7064 1 0 0  255 255 255 255
17.5 -0.294478 26.1128 1 0 0  255 255 255 255
17.5 -2.2508 9.65763 1 0 0  255 255 255 255
17.5 -0.371049 5.29399 1 0 0  255 255 255 255
17.5 -3.72561 5.12662 1 0 0  255 255 255 255
17.5 -2.96849 22.6718 1 0 0  255 255 255 255
17.5 -2.70137 -1.09078 1 0 0  255 255 255 255
17.5 -2.77352 28.5826 1 0 0  255 255 255 255
17.5 -3.66611 16.3605 1 0 0  255 255 255 255
17.5 -2.76187 6.39951 1 0 0  255 255 255 255
-15.4945 -2 34.5 0 0 1  255 255 255 255
15.4945 -2 34.5 0 0 1  255 255 255 255
-13.5282 -1.94129 34.5 0 0 1  255 255 255 255
13.4787 -2 34.5 0 0 1  255 255 255 255
-8.60956 -2.0962 34.5 0 0 1  255 255 255 255
0.01647 -2.01924 34.5 0 0 1  255 255 255 255
8.07692 -2 34.5 0 0 1  255 255 255 255
-6.41868 -2.01397 34.5 0 0 1  255 255 255 255
-3.76774 -2.04288 34.5 0 0 1  255 255 255 255
2.68122 -2.08539 34.5 0 0 1  255 255 255 255
4.84615 -2 34.5 0 0 1  255 255 255 255
10.1912 -1.92469 34.5 0 0 1  255 255 255 255
-11.2646 -1.98633 34.5 0 0 1  255 255 255 255
-1.78374 -2.04256 34.5 0 0 1  255 255 255 255
11.8547 -1.64232 34.5 0 0 1  255 255 255 255
6.47409 -2.39285 34.5 0 0 1  255 255 255 255
1.34615 -1.45303 34.5 0 0 1  255 255 255 255
-5.11978 -1.43057 34.5 0 0 1  255 255 255 255
-9.96154 -2.54697 34.5 0 0 1  255 255 255 255
-12.5196 -2.67839 34.5 0 0 1  255 255 255 255
-12.4085 -1.27403 34.5 0 0 1  255 255 255 255
-9.61225 -1.26047 34.5 0 0 1  255 255 255 255
1.05549 -2.70766 34.5 0 0 1  255 255 255 255
-4.89569 -2.66529 34.5 0 0 1  255 255 255 255
-7.52223 -1.29674 34.5 0 0 1  255 255 255 255
-7.50448 -2.73955 34.5 0 0 1  255 255 255 255
9.02818 -1.31843 34.5 0 0 1  255 255 255 255
9.15385 -2.72818 34.5 0 0 1  255 255 255 255
3.76923 -2.72818 34.5 0 0 1  255 255 255 255
3.81557 -1.26922 34.5 0 0 1  255 255 255 255
5.71198 -1.25957 34.5 0 0 1  255 255 255 255
11.302 -2.71696 34.5 0 0 1  255 255 255 255
-14.4866 -1.24216 34.5 0 0 1  255 255 255 255
-14.4945 -2.73423 34.5 0 0 1  255 255 255 255
14.4965 -2.73492 34.5 0 0 1  255 255 255 255
14.5138 -1.21505 34.5 0 0 1  255 255 255 255
-1.09862 -1.34126 34.5 0 0 1  255 255 255 255
-2.68539 -1.25846 34.5 0 0 1  255 255 255 255
12.511 -2.75022 34.5 0 0 1  255 255 255 255
7.08258 -1.28169 34.5 0 0 1  255 255 255 255
-16.3623 -1.29321 34.5 0 0 1  255 255 255 255
16.3492 -1.29747 34.5 0 0 1  255 255 255 255
-16.3492 -2.70253 34.5 0 0 1  255 255 255 255
16.3623 -2.70679 34.5 0 0 1  255 255 255 255
-0.87829 -2.77764 34.5 0 0 1  255 255 255 255
-2.7988 -2.79792 34.5 0 0 1  255 255 255 255
12.8239 -1.08001 34.5 0 0 1  255 255 255 255
10.8258 -0.975735 34.5 0 0 1  255 255 255 255
7.48504 -2.99638 34.5 0 0 1  255 255 255 255
5.47728 -2.99609 34.5 0 0 1  255 255 255 255
2.14053 -2.96804 34.5 0 0 1  255 255 255 255
-5.89298 -2.97552 34.5 0 0 1  255 255 255 255
-10.74 -1.02469 34.5 0 0 1  255 255 255 255
0.411608 -0.9986 34.5 0 0 1  255 255 255 255
2.30035 -1.03464 34.5 0 0 1  255 255 255 255
-4.24113 -0.934405 34.5 0 0 1  255 255 255 255
-6.08518 -1.04006 34.5 0 0 1  255 255 255 255
-9.00734 -2.96536 34.5 0 0 1  255 255 255 255
-10.8866 -3.01121 34.5 0 0 1  255 255 255 255
-13.4615 -0.981952 34.5 0 0 1  255 255 255 255
-13.6664 -2.94225 34.5 0 0 1  255 255 255 255
-8.39141 -1.05763 34.5 0 0 1  255 255 255 255
4.84615 -0.981879 34.5 0 0 1  255 255 255 255
10.4316 -2.94776 34.5 0 0 1  255 255 255 255
8.00139 -0.981985 34.5 0 0 1  255 255 255 255
13.4783 -3.01594 34.5 0 0 1  255 255 255 255
0.090817 -3.0059 34.5 0 0 1  255 255 255 255
-3.89118 -3.01538 34.5 0 0 1  255 255 255 255
-15.3947 -3.07685 34.5 0 0 1  255 255 255 255
-15.422 -0.935293 34.5 0 0 1  255 255 255 255
15.422 -3.06471 34.5 0 0 1  255 255 255 255
15.3947 -0.923145 34.5 0 0 1  255 255 255 255
-1.75855 -3.12812 34.5 0 0 1  255 255 255 255
-1.87531 -0.873457 34.5 0 0 1  255 255 255 255
9.9918 -0.911598 34.5 0 0 1  255 255 255 255
4.60204 -3.09167 34.5 0 0 1  255 255 255 255
8.32966 -3.13225 34.5 0 0 1  255 255 255 255
13.6629 -0.823061 34.5 0 0 1  255 255 255 255
-11.644 -0.881809 34.5 0 0 1  255 255 255 255
-6.76629 -3.13018 34.5 0 0 1  255 255 255 255
2.99706 -3.13018 34.5 0 0 1  255 255 255 255
-10.4757 -1.85296 34.5 0 0 1  255 255 255 255
-5.62952 -2.14709 34.5 0 0 1  255 255 255 255
1.83836 -2.13913 34.5 0 0 1  255 255 255 255
-16.6868 -2 34.5 0 0 1  255 255 255 255
16.6868 -2 34.5 0 0 1  255 255 255 255
11.849 -0.850119 34.5 0 0 1  255 255 255 255
12.6047 -1.92327 34.5 0 0 1  255 255 255 255
6.46154 -3.1541 34.5 0 0 1  255 255 255 255
11.0942 -1.92789 34.5 0 0 1  255 255 255 255
7.24061 -2.05649 34.5 0 0 1  255 255 255 255
5.68058 -2.0648 34.5 0 0 1  255 255 255 255
-11.7138 -3.15997 34.5 0 0 1  255 255 255 255
-6.86308 -0.830512 34.5 0 0 1  255 255 255 255
3.08876 -0.793566 34.5 0 0 1  255 255 255 255
-8.2176 -3.18926 34.5 0 0 1  255 255 255 255
-0.890596 -2.01845 34.5 0 0 1  255 255 255 255
-2.67701 -2.02755 34.5 0 0 1  255 255 255 255
11.8669 -3.2224 34.5 0 0 1  255 255 255 255
-14.7056 -2 34.5 0 0 1  255 255 255 255
14.7154 -1.99855 34.5 0 0 1  255 255 255 255
6.47414 -0.787171 34.5 0 0 1  255 255 255 255
-0.410024 -0.75912 34.5 0 0 1  255 255 255 255
-3.38282 -0.770879 34.5 0 0 1  255 255 255 255
-7.23266 -2.00222 34.5 0 0 1  255 255 255 255
9.46314 -1.99339 34.5 0 0 1  255 255 255 255
4.07853 -2.00666 34.5 0 0 1  255 255 255 255
0.784198 -2 34.5 0 0 1  255 255 255 255
-4.55343 -2 34.5 0 0 1  255 255 255 255
-9.39958 -2 34.5 0 0 1  255 255 255 255
-12.0791 -1.99909 34.5 0 0 1  255 255 255 255
1.07211 -0.706542 34.5 0 0 1  255 255 255 255
-5.36565 -0.726516 34.5 0 0 1  255 255 255 255
-9.65415 -3.35601 34.5 0 0 1  255 255 255 255
16.8482 -0.787309 34.5 0 0 1  255 255 255 255
-16.8482 -0.787309 34.5 0 0 1  255 255 255 255
16.8482 -3.21269 34.5 0 0 1  255 255 255 255
-16.8482 -3.21269 34.5 0 0 1  255 255 255 255
6.44029 -1.67018 34.5 0 0 1  255 255 255 255
11.8745 -2.37407 34.5 0 0 1  255 255 255 255
-5.37151 -3.26093 34.5 0 0 1  255 255 255 255
1.60508 -3.25968 34.5 0 0 1  255 255 255 255
-10.2136 -0.741195 34.5 0 0 1  255 255 255 255
-9.27112 -0.698146 34.5 0 0 1  255 255 255 255
9.59552 -3.32412 34.5 0 0 1  255 255 255 255
-8.0065 -0.734078 34.5 0 0 1  255 255 255 255
4.19194 -0.696895 34.5 0 0 1  255 255 255 255
-12.9714 -0.723896 34.5 0 0 1  255 255 255 255
-12.8075 -3.30326 34.5 0 0 1  255 255 255 255
8.72377 -0.673703 34.5 0 0 1  255 255 255 255
-12.8251 -1.82368 34.5 0 0 1  255 255 255 255
-7.93079 -2.14796 34.5 0 0 1  255 255 255 255
8.75039 -2.15929 34.5 0 0 1  255 255 255 255
3.37019 -1.88524 34.5 0 0 1  255 255 255 255
5.47144 -0.673095 34.5 0 0 1  255 255 255 255
-14.0213 -3.30842 34.5 0 0 1  255 255 255 255
-13.9641 -0.702249 34.5 0 0 1  255 255 255 255
10.8513 -3.3044 34.5 0 0 1  255 255 255 255
13.9912 -3.32067 34.5 0 0 1  255 255 255 255
0.733038 -3.35113 34.5 0 0 1  255 255 255 255
-4.48082 -3.31377 34.5 0 0 1  255 255 255 255
12.87 -3.34373 34.5 0 0 1  255 255 255 255
7.48949 -0.665573 34.5 0 0 1  255 255 255 255
-16.0119 -3.32318 34.5 0 0 1  255 255 255 255
16.0324 -3.33742 34.5 0 0 1  255 255 255 255
-16.0324 -0.662575 34.5 0 0 1  255 255 255 255
16.0119 -0.676823 34.5 0 0 1  255 255 255 255
-0.461681 -3.45177 34.5 0 0 1  255 255 255 255
-3.30062 -3.42817 34.5 0 0 1  255 255 255 255
-2.4662 -3.33112 34.5 0 0 1  255 255 255 255
-12.9192 -2.48274 34.5 0 0 1  255 255 255 255
14.8351 -3.33033 34.5 0 0 1  255 255 255 255
-14.8351 -3.33033 34.5 0 0 1  255 255 255 255
14.8236 -0.693712 34.5 0 0 1  255 255 255 255
-14.8351 -0.669667 34.5 0 0 1  255 255 255 255
-8.17495 -1.49094 34.5 0 0 1  255 255 255 255
8.62896 -1.48494 34.5 0 0 1  255 255 255 255
3.18661 -2.43171 34.5 0 0 1  255 255 255 255
-4.68072 -0.661543 34.5 0 0 1  255 255 255 255
1.78027 -0.666874 34.5 0 0 1  255 255 255 255
-10.4135 -3.33625 34.5 0 0 1  255 255 255 255
3.76923 -3.39259 34.5 0 0 1  255 255 255 255
-7.54223 -3.55564 34.5 0 0 1  255 255 255 255
-0.362184 -1.4572 34.5 0 0 1  255 255 255 255
-3.35683 -1.48954 34.5 0 0 1  255 255 255 255
-6.84082 -1.38557 34.5 0 0 1  255 255 255 255
-1.61761 -1.54077 34.5 0 0 1  255 255 255 255
-11.6876 -2.61254 34.5 0 0 1  255 255 255 255
14.0724 -1.79581 34.5 0 0 1  255 255 255 255
-14.0526 -1.77255 34.5 0 0 1  255 255 255 255
-2.44061 -0.689044 34.5 0 0 1  255 255 255 255
-1.29884 -0.666967 34.5 0 0 1  255 255 255 255
5.22559 -1.51 34.5 0 0 1  255 255 255 255
8.88269 -3.37009 34.5 0 0 1  255 255 255 255
10.6399 -2.51844 34.5 0 0 1  255 255 255 255
-13.8796 -2.51592 34.5 0 0 1  255 255 255 255
9.41852 -0.647054 34.5 0 0 1  255 255 255 255
13.8754 -2.52795 34.5 0 0 1  255 255 255 255
-1.27551 -3.36754 34.5 0 0 1  255 255 255 255
-9.12274 -1.45352 34.5 0 0 1  255 255 255 255
9.68989 -2.49153 34.5 0 0 1  255 255 255 255
4.30927 -1.50821 34.5 0 0 1  255 255 255 255
-2.22498 -1.56588 34.5 0 0 1  255 255 255 255
13.0612 -2.52098 34.5 0 0 1  255 255 255 255
7.69297 -1.48629 34.5 0 0 1  255 255 255 255
-16.0907 -2.19105 34.5 0 0 1  255 255 255 255
16.0907 -1.80895 34.5 0 0 1  255 255 255 255
-6.88235 -2.50788 34.5 0 0 1  255 255 255 255
-11.6993 -1.50192 34.5 0 0 1  255 255 255 255
-2.31786 -2.6067 34.5 0 0 1  255 255 255 255
-15.0872 -1.51865 34.5 0 0 1  255 255 255 255
-15.1378 -2.40351 34.5 0 0 1  255 255 255 255
15.2387 -2.49949 34.5 0 0 1  255 255 255 255
15.0663 -1.53474 34.5 0 0 1  255 255 255 255
12.3345 -0.555279 34.5 0 0 1  255 255 255 255
-8.59005 -2.58359 34.5 0 0 1  255 255 255 255
2.82588 -1.38352 34.5 0 0 1  255 255 255 255
6.98576 -3.44227 34.5 0 0 1  255 255 255 255
5.9198 -3.43239 34.5 0 0 1  255 255 255 255
11.3038 -0.566259 34.5 0 0 1  255 255 255 255
-0.316921 -2.51572 34.5 0 0 1  255 255 255 255
-3.42675 -2.5245 34.5 0 0 1  255 255 255 255
-12.1491 -0.621528 34.5 0 0 1  255 255 255 255
4.45383 -2.4854 34.5 0 0 1  255 255 255 255
9.84357 -1.5694 34.5 0 0 1  255 255 255 255
-15.784 -1.48919 34.5 0 0 1  255 255 255 255
15.799 -2.53248 34.5 0 0 1  255 255 255 255
-1.24382 -2.36236 34.5 0 0 1  255 255 255 255
0.494513 -2.55745 34.5 0 0 1  255 255 255 255
-4.24676 -2.54955 34.5 0 0 1  255 255 255 255
16.9199 -1.4828 34.5 0 0 1  255 255 255 255
16.8952 -2.52723 34.5 0 0 1  255 255 255 255
-16.8814 -1.48228 34.5 0 0 1  255 255 255 255
-16.9168 -2.53719 34.5 0 0 1  255 255 255 255
-10.8137 -2.36167 34.5 0 0 1  255 255 255 255
-5.95084 -1.66642 34.5 0 0 1  255 255 255 255
1.93269 -1.57275 34.5 0 0 1  255 255 255 255
13.3756 -1.37824 34.5 0 0 1  255 255 255 255
14.2493 -0.726673 34.5 0 0 1  255 255 255 255
10.522 -0.609708 34.5 0 0 1  255 255 255 255
7.98177 -2.61378 34.5 0 0 1  255 255 255 255
5.11528 -3.38811 34.5 0 0 1  255 255 255 255
7.79265 -3.39227 34.5 0 0 1  255 255 255 255
13.2035 -0.613084 34.5 0 0 1  255 255 255 255
-11.224 -0.552087 34.5 0 0 1  255 255 255 255
-12.8993 -1.32801 34.5 0 0 1  255 255 255 255
-6.25706 -3.41843 34.5 0 0 1  255 255 255 255
2.48783 -3.41843 34.5 0 0 1  255 255 255 255
12.2158 -1.19049 34.5 0 0 1  255 255 255 255
-7.43124 -0.552346 34.5 0 0 1  255 255 255 255
3.6221 -0.570725 34.5 0 0 1  255 255 255 255
-12.2907 -3.45721 34.5 0 0 1  255 255 255 255
10.3952 -1.43174 34.5 0 0 1  255 255 255 255
6.89849 -2.79092 34.5 0 0 1  255 255 255 255
6.08644 -2.76913 34.5 0 0 1  255 255 255 255
11.4147 -1.20796 34.5 0 0 1  255 255 255 255
5.03029 -2.55008 34.5 0 0 1  255 255 255 255
2.58092 -2.56473 34.5 0 0 1  255 255 255 255
-11.2778 -3.4782 34.5 0 0 1  255 255 255 255
1.59941 -2.70415 34.5 0 0 1  255 255 255 255
-5.39044 -2.68947 34.5 0 0 1  255 255 255 255
-10.1946 -1.28508 34.5 0 0 1  255 255 255 255
-6.40627 -0.538552 34.5 0 0 1  255 255 255 255
2.62591 -0.532099 34.5 0 0 1  255 255 255 255
-8.67103 -3.4642 34.5 0 0 1  255 255 255 255
-9.01116 -2.36422 34.5 0 0 1  255 255 255 255
0.392099 -1.59695 34.5 0 0 1  255 255 255 255
-4.16133 -1.59695 34.5 0 0 1  255 255 255 255
0.5608 -0.491906 34.5 0 0 1  255 255 255 255
-6.23748 -2.52648 34.5 0 0 1  255 255 255 255
-11.0791 -1.47518 34.5 0 0 1  255 255 255 255
1.25749 -2.22617 34.5 0 0 1  255 255 255 255
-5.0674 -2.21439 34.5 0 0 1  255 255 255 255
-9.91356 -1.78561 34.5 0 0 1  255 255 255 255
-15.6233 -2.51528 34.5 0 0 1  255 255 255 255
15.5962 -1.47567 34.5 0 0 1  255 255 255 255
-3.79667 -0.512466 34.5 0 0 1  255 255 255 255
-3.2711 -1.95778 34.5 0 0 1  255 255 255 255
6.98061 -0.420169 34.5 0 0 1  255 255 255 255
11.3412 -3.57293 34.5 0 0 1  255 255 255 255
12.3614 -3.58069 34.5 0 0 1  255 255 255 255
-14.0583 -1.23949 34.5 0 0 1  255 255 255 255
5.96994 -0.448648 34.5 0 0 1  255 255 255 255
4.28818 -3.52594 34.5 0 0 1  255 255 255 255
-0.047762 -3.50495 34.5 0 0 1  255 255 255 255
-3.77574 -3.53409 34.5 0 0 1  255 255 255 255
8.62861 -2.66058 34.5 0 0 1  255 255 255 255
13.4615 -3.54466 34.5 0 0 1  255 255 255 255
8.02251 -0.419993 34.5 0 0 1  255 255 255 255
-13.4641 -0.429218 34.5 0 0 1  255 255 255 255
-13.4222 -3.48692 34.5 0 0 1  255 255 255 255
-8.64458 -0.516799 34.5 0 0 1  255 255 255 255
4.82611 -0.469796 34.5 0 0 1  255 255 255 255
10.2026 -3.4938 34.5 0 0 1  255 255 255 255
0.858012 -1.36125 34.5 0 0 1  255 255 255 255
-4.66926 -1.35054 34.5 0 0 1  255 255 255 255
-9.49133 -2.61281 34.5 0 0 1  255 255 255 255
-10.4087 -2.80538 34.5 0 0 1  255 255 255 255
-5.82337 -0.533586 34.5 0 0 1  255 255 255 255
-9.23722 -3.50338 34.5 0 0 1  255 255 255 255
-5.56642 -1.18756 34.5 0 0 1  255 255 255 255
15.6281 -3.59515 34.5 0 0 1  255 255 255 255
15.6224 -0.405096 34.5 0 0 1  255 255 255 255
-15.6224 -3.5949 34.5 0 0 1  255 255 255 255
-15.6281 -0.404846 34.5 0 0 1  255 255 255 255
-0.795684 -0.516788 34.5 0 0 1  255 255 255 255
-2.97355 -0.516788 34.5 0 0 1  255 255 255 255
-10.6235 -0.477098 34.5 0 0 1  255 255 255 255
-13.4957 -1.49055 34.5 0 0 1  255 255 255 255
-5.78149 -3.54201 34.5 0 0 1  255 255 255 255
2.02608 -3.5568 34.5 0 0 1  255 255 255 255
16.2725 -2.26723 34.5 0 0 1  255 255 255 255
-16.2725 -1.73277 34.5 0 0 1  255 255 255 255
0.023132 -0.493068 34.5 0 0 1  255 255 255 255
-9.70731 -0.428045 34.5 0 0 1  255 255 255 255
-7.05685 -3.54249 34.5 0 0 1  255 255 255 255
3.28762 -3.54249 34.5 0 0 1  255 255 255 255
13.9873 -1.27729 34.5 0 0 1  255 255 255 255
-1.67807 -3.62567 34.5 0 0 1  255 255 255 255
-14.2841 -2.26241 34.5 0 0 1  255 255 255 255
-2.14599 -0.370628 34.5 0 0 1  255 255 255 255
3.66785 -2.23371 34.5 0 0 1  255 255 255 255
-7.72912 -1.7298 34.5 0 0 1  255 255 255 255
8.98737 -1.81949 34.5 0 0 1  255 255 255 255
14.2978 -2.27631 34.5 0 0 1  255 255 255 255
11.5456 -2.01684 34.5 0 0 1  255 255 255 255
6.01266 -1.71093 34.5 0 0 1  255 255 255 255
-1.29921 -2.90026 34.5 0 0 1  255 255 255 255
-4.9471 -3.57044 34.5 0 0 1  255 255 255 255
1.18076 -3.57474 34.5 0 0 1  255 255 255 255
4.14454 -2.97432 34.5 0 0 1  255 255 255 255
-16.5378 -0.442471 34.5 0 0 1  255 255 255 255
-16.5357 -3.55608 34.5 0 0 1  255 255 255 255
16.5378 -3.55753 34.5 0 0 1  255 255 255 255
16.5357 -0.443925 34.5 0 0 1  255 255 255 255
3.33888 -1.24582 34.5 0 0 1  255 255 255 255
-8.05017 -2.69265 34.5 0 0 1  255 255 255 255
-12.5607 -2.17434 34.5 0 0 1  255 255 255 255
1.72466 -1.14923 34.5 0 0 1  255 255 255 255
8.50138 -3.60836 34.5 0 0 1  255 255 255 255
9.8307 -0.460645 34.5 0 0 1  255 255 255 255
-6.42243 -1.46842 34.5 0 0 1  255 255 255 255
-11.2807 -2.51637 34.5 0 0 1  255 255 255 255
-1.23819 -1.8319 34.5 0 0 1  255 255 255 255
-1.84256 -2.60634 34.5 0 0 1  255 255 255 255
12.1551 -1.9961 34.5 0 0 1  255 255 255 255
7.51748 -2.43862 34.5 0 0 1  255 255 255 255
2.43846 -1.62338 34.5 0 0 1  255 255 255 255
6.91949 -1.6548 34.5 0 0 1  255 255 255 255
-2.32377 -1.09527 34.5 0 0 1  255 255 255 255
-10.8233 -3.56513 34.5 0 0 1  255 255 255 255
2.18635 -0.430486 34.5 0 0 1  255 255 255 255
12.9399 -1.64548 34.5 0 0 1  255 255 255 255
6.67941 -1.26507 34.5 0 0 1  255 255 255 255
-2.81727 -3.58713 34.5 0 0 1  255 255 255 255
15.9345 -1.11149 34.5 0 0 1  255 255 255 255
-15.9345 -2.88851 34.5 0 0 1  255 255 255 255
-11.7543 -0.422607 34.5 0 0 1  255 255 255 255
11.6753 -2.75586 34.5 0 0 1  255 255 255 255
-5.41487 -1.73033 34.5 0 0 1  255 255 255 255
-10.262 -2.2695 34.5 0 0 1  255 255 255 255
-5.03956 -0.984663 34.5 0 0 1  255 255 255 255
-8.07454 -3.60761 34.5 0 0 1  255 255 255 255
-7.22068 -3.06038 34.5 0 0 1  255 255 255 255
3.45145 -3.06038 34.5 0 0 1  255 255 255 255
-1.45284 -1.09919 34.5 0 0 1  255 255 255 255
13.5647 -0.370138 34.5 0 0 1  255 255 255 255
-2.97515 -2.35308 34.5 0 0 1  255 255 255 255
9.50067 -1.14684 34.5 0 0 1  255 255 255 255
-14.4095 -0.414912 34.5 0 0 1  255 255 255 255
-14.4163 -3.58636 34.5 0 0 1  255 255 255 255
17.1272 -1.8513 34.5 0 0 1  255 255 255 255
-17.1352 -1.84925 34.5 0 0 1  255 255 255 255
-8.6521 -1.55312 34.5 0 0 1  255 255 255 255
14.4149 -3.58879 34.5 0 0 1  255 255 255 255
-11.829 -3.62339 34.5 0 0 1  255 255 255 255
-6.98313 -0.375546 34.5 0 0 1  255 255 255 255
3.2139 -0.375546 34.5 0 0 1  255 255 255 255
-4.26678 -0.421683 34.5 0 0 1  255 255 255 255
2.13563 -2.49174 34.5 0 0 1  255 255 255 255
-0.051075 -1.11704 34.5 0 0 1  255 255 255 255
-3.69648 -1.1456 34.5 0 0 1  255 255 255 255
5.63422 -2.46502 34.5 0 0 1  255 255 255 255
14.9496 -1.09166 34.5 0 0 1  255 255 255 255
14.8605 -2.86917 34.5 0 0 1  255 255 255 255
-14.911 -1.1082 34.5 0 0 1  255 255 255 255
-14.8377 -2.85473 34.5 0 0 1  255 255 255 255
11.8359 -0.394331 34.5 0 0 1  255 255 255 255
-12.0093 -1.14704 34.5 0 0 1  255 255 255 255
10.9061 -1.54338 34.5 0 0 1  255 255 255 255
4.73956 -3.60114 34.5 0 0 1  255 255 255 255
6.45904 -3.61786 34.5 0 0 1  255 255 255 255
6.95931 -2.33711 34.5 0 0 1  255 255 255 255
