ply
format ascii 1.0
comment VCGLIB generated
element vertex 1171
property float x
property float y
property float z
property float nx
property float ny
property float nz
property uchar red
property uchar green
property uchar blue
property uchar alpha
element face 0
property list uchar int vertex_indices
end_header
1.53194 0 15.4465 0 1 0  255 255 255 255
125.454 0 15.5359 0 1 0  255 255 255 255
101.16 0 11.1288 0 1 0  255 255 255 255
21.6984 0 24.0702 0 1 0  255 255 255 255
105.301 0 24.0705 0 1 0  255 255 255 255
53.5516 0 24.1223 0 1 0  255 255 255 255
53.5516 0 1.27767 0 1 0  255 255 255 255
22.2447 0 12.7058 0 1 0  255 255 255 255
104.686 0 1.20406 0 1 0  255 255 255 255
17.3017 0 14.2478 0 1 0  255 255 255 255
104.808 0 12.6527 0 1 0  255 255 255 255
86.3761 0 21.4679 0 1 0  255 255 255 255
86.3761 0 3.93213 0 1 0  255 255 255 255
22.3007 0 1.20204 0 1 0  255 255 255 255
69.6545 0 21.4687 0 1 0  255 255 255 255
69.6545 0 3.9313 0 1 0  255 255 255 255
12.521 0 20.2563 0 1 0  255 255 255 255
40.5737 0 21.5283 0 1 0  255 255 255 255
40.5737 0 3.87173 0 1 0  255 255 255 255
28.2854 0 19.9983 0 1 0  255 255 255 255
52.9318 0 3.93568 0 1 0  255 255 255 255
52.9318 0 21.4643 0 1 0  255 255 255 255
70.3005 0 1.49108 0 1 0  255 255 255 255
70.3005 0 23.9089 0 1 0  255 255 255 255
17.3001 0 11.1664 0 1 0  255 255 255 255
12.4968 0 5.14629 0 1 0  255 255 255 255
39.8856 0 1.48266 0 1 0  255 255 255 255
39.8856 0 23.9173 0 1 0  255 255 255 255
91.4433 0 19.9298 0 1 0  255 255 255 255
91.4433 0 5.47022 0 1 0  255 255 255 255
20.7761 0 1.29399 0 1 0  255 255 255 255
122.661 0 11.7295 0 1 0  255 255 255 255
42.5267 0 1.73256 0 1 0  255 255 255 255
42.5267 0 23.6674 0 1 0  255 255 255 255
87.0404 0 23.8989 0 1 0  255 255 255 255
87.0404 0 1.50112 0 1 0  255 255 255 255
74.7135 0 5.50953 0 1 0  255 255 255 255
74.7135 0 19.8905 0 1 0  255 255 255 255
119.684 0 7.71871 0 1 0  255 255 255 255
119.684 0 17.6813 0 1 0  255 255 255 255
58.0066 0 5.50579 0 1 0  255 255 255 255
58.0066 0 19.8942 0 1 0  255 255 255 255
106.206 0 1.35967 0 1 0  255 255 255 255
25.7976 0 14.1253 0 1 0  255 255 255 255
125.696 0 7.00808 0 1 0  255 255 255 255
125.703 0 18.3876 0 1 0  255 255 255 255
1.42997 0 18.3474 0 1 0  255 255 255 255
1.45769 0 7.03871 0 1 0  255 255 255 255
10.2522 0 19.3126 0 1 0  255 255 255 255
35.465 0 19.9091 0 1 0  255 255 255 255
35.465 0 5.49087 0 1 0  255 255 255 255
114.37 0 20.2718 0 1 0  255 255 255 255
114.413 0 5.13459 0 1 0  255 255 255 255
119.925 0 24.0527 0 1 0  255 255 255 255
119.925 0 1.34726 0 1 0  255 255 255 255
3.79081 0 7.69164 0 1 0  255 255 255 255
3.77573 0 17.7145 0 1 0  255 255 255 255
10.2701 0 6.35335 0 1 0  255 255 255 255
7.052 0 24.051 0 1 0  255 255 255 255
7.052 0 1.34896 0 1 0  255 255 255 255
122.932 0 14.7219 0 1 0  255 255 255 255
93.6748 0 21.7073 0 1 0  255 255 255 255
93.6747 0 3.69269 0 1 0  255 255 255 255
6.96703 0 12.1815 0 1 0  255 255 255 255
25.9148 0 11.1751 0 1 0  255 255 255 255
123.643 0 1.27497 0 1 0  255 255 255 255
123.643 0 24.125 0 1 0  255 255 255 255
57.3852 0 8.38948 0 1 0  255 255 255 255
57.3852 0 17.0105 0 1 0  255 255 255 255
40.6832 0 16.9465 0 1 0  255 255 255 255
40.6832 0 8.45351 0 1 0  255 255 255 255
1.24109 0 3.34577 0 1 0  255 255 255 255
1.24109 0 22.0542 0 1 0  255 255 255 255
125.642 0 21.9318 0 1 0  255 255 255 255
125.642 0 3.46822 0 1 0  255 255 255 255
3.33395 0 1.38587 0 1 0  255 255 255 255
3.33395 0 24.0141 0 1 0  255 255 255 255
74.1061 0 8.39131 0 1 0  255 255 255 255
74.1061 0 17.0087 0 1 0  255 255 255 255
109.553 0 14.1391 0 1 0  255 255 255 255
90.8633 0 17.0187 0 1 0  255 255 255 255
90.8633 0 8.3813 0 1 0  255 255 255 255
99.601 0 12.7008 0 1 0  255 255 255 255
41.8669 0 19.7864 0 1 0  255 255 255 255
41.8669 0 5.61365 0 1 0  255 255 255 255
109.566 0 11.2566 0 1 0  255 255 255 255
120.215 0 6.60508 0 1 0  255 255 255 255
120.215 0 18.7949 0 1 0  255 255 255 255
33.343 0 3.71697 0 1 0  255 255 255 255
33.2712 0 21.624 0 1 0  255 255 255 255
10.6957 0 3.63262 0 1 0  255 255 255 255
119.089 0 21.6848 0 1 0  255 255 255 255
119.126 0 3.68159 0 1 0  255 255 255 255
15.1289 0 5.49153 0 1 0  255 255 255 255
10.7235 0 21.7884 0 1 0  255 255 255 255
7.93087 0 21.6327 0 1 0  255 255 255 255
7.93226 0 3.76918 0 1 0  255 255 255 255
65.2329 0 24.3061 0 1 0  255 255 255 255
65.2329 0 1.09393 0 1 0  255 255 255 255
68.1869 0 5.57781 0 1 0  255 255 255 255
68.1869 0 19.8222 0 1 0  255 255 255 255
84.9097 0 19.8232 0 1 0  255 255 255 255
84.9097 0 5.57679 0 1 0  255 255 255 255
48.6308 0 1.34977 0 1 0  255 255 255 255
48.6308 0 24.0502 0 1 0  255 255 255 255
51.4662 0 5.58471 0 1 0  255 255 255 255
51.4662 0 19.8153 0 1 0  255 255 255 255
111.91 0 5.5109 0 1 0  255 255 255 255
120.81 0 20.9708 0 1 0  255 255 255 255
120.816 0 4.44765 0 1 0  255 255 255 255
111.94 0 12.7028 0 1 0  255 255 255 255
95.0168 0 12.7 0 1 0  255 255 255 255
61.5777 0 12.7 0 1 0  255 255 255 255
78.2973 0 12.7 0 1 0  255 255 255 255
28.2912 0 12.6445 0 1 0  255 255 255 255
11.5604 0 12.7003 0 1 0  255 255 255 255
44.8582 0 12.7 0 1 0  255 255 255 255
83.4364 0 21.6354 0 1 0  255 255 255 255
83.4364 0 3.76463 0 1 0  255 255 255 255
3.6474 0 10.5502 0 1 0  255 255 255 255
15.9814 0 12.7004 0 1 0  255 255 255 255
123.638 0 7.86417 0 1 0  255 255 255 255
123.708 0 17.5038 0 1 0  255 255 255 255
66.7279 0 3.78708 0 1 0  255 255 255 255
66.7279 0 21.6129 0 1 0  255 255 255 255
82.2908 0 24.0889 0 1 0  255 255 255 255
82.2908 0 1.31109 0 1 0  255 255 255 255
123.457 0 10.5435 0 1 0  255 255 255 255
49.9939 0 3.77646 0 1 0  255 255 255 255
49.9939 0 21.6235 0 1 0  255 255 255 255
14.8665 0 19.8423 0 1 0  255 255 255 255
116.485 0 3.75795 0 1 0  255 255 255 255
80.9481 0 22.1872 0 1 0  255 255 255 255
80.9481 0 3.21276 0 1 0  255 255 255 255
64.1472 0 22.2364 0 1 0  255 255 255 255
64.1472 0 3.16358 0 1 0  255 255 255 255
116.417 0 21.7736 0 1 0  255 255 255 255
47.5526 0 3.25381 0 1 0  255 255 255 255
47.5526 0 22.1462 0 1 0  255 255 255 255
102.165 0 11.8081 0 1 0  255 255 255 255
4.32905 0 19.0946 0 1 0  255 255 255 255
4.3298 0 6.30574 0 1 0  255 255 255 255
118.152 0 5.32487 0 1 0  255 255 255 255
83.8571 0 7.85576 0 1 0  255 255 255 255
83.8571 0 17.5442 0 1 0  255 255 255 255
111.962 0 19.9065 0 1 0  255 255 255 255
118.153 0 20.08 0 1 0  255 255 255 255
67.1364 0 7.85922 0 1 0  255 255 255 255
67.1364 0 17.5408 0 1 0  255 255 255 255
6.14693 0 20.987 0 1 0  255 255 255 255
6.14693 0 4.413 0 1 0  255 255 255 255
24.7744 0 11.8041 0 1 0  255 255 255 255
102.179 0 13.6382 0 1 0  255 255 255 255
50.4156 0 7.86268 0 1 0  255 255 255 255
50.4156 0 17.5373 0 1 0  255 255 255 255
76.8683 0 3.81718 0 1 0  255 255 255 255
76.8683 0 21.5828 0 1 0  255 255 255 255
24.6104 0 13.7086 0 1 0  255 255 255 255
60.1503 0 21.5967 0 1 0  255 255 255 255
60.1503 0 3.80331 0 1 0  255 255 255 255
59.4093 0 7.58975 0 1 0  255 255 255 255
59.4093 0 17.8102 0 1 0  255 255 255 255
43.4284 0 21.6172 0 1 0  255 255 255 255
43.4284 0 3.78281 0 1 0  255 255 255 255
76.1293 0 7.5917 0 1 0  255 255 255 255
76.1293 0 17.8083 0 1 0  255 255 255 255
42.8297 0 17.71 0 1 0  255 255 255 255
42.8297 0 7.69001 0 1 0  255 255 255 255
50.4073 0 14.3696 0 1 0  255 255 255 255
50.411 0 11.0265 0 1 0  255 255 255 255
121.206 0 9.29319 0 1 0  255 255 255 255
121.206 0 16.1068 0 1 0  255 255 255 255
67.1304 0 11.0262 0 1 0  255 255 255 255
67.1267 0 14.3698 0 1 0  255 255 255 255
33.6909 0 14.3726 0 1 0  255 255 255 255
33.6872 0 11.0314 0 1 0  255 255 255 255
83.8459 0 14.3695 0 1 0  255 255 255 255
83.8496 0 11.0265 0 1 0  255 255 255 255
100.424 0 24.1857 0 1 0  255 255 255 255
92.9549 0 5.4783 0 1 0  255 255 255 255
92.955 0 19.9218 0 1 0  255 255 255 255
33.679 0 17.5952 0 1 0  255 255 255 255
33.6894 0 7.80552 0 1 0  255 255 255 255
125.485 0 11.4536 0 1 0  255 255 255 255
26.5788 0 24.1246 0 1 0  255 255 255 255
1.47612 0 11.4575 0 1 0  255 255 255 255
30.5115 0 24.2263 0 1 0  255 255 255 255
3.64422 0 15.0052 0 1 0  255 255 255 255
100.37 0 1.2478 0 1 0  255 255 255 255
61.5011 0 3.56366 0 1 0  255 255 255 255
61.5011 0 21.8363 0 1 0  255 255 255 255
44.7104 0 3.51608 0 1 0  255 255 255 255
44.7104 0 21.8839 0 1 0  255 255 255 255
78.2208 0 3.56908 0 1 0  255 255 255 255
78.2208 0 21.8309 0 1 0  255 255 255 255
18.4422 0 11.8125 0 1 0  255 255 255 255
18.4315 0 13.624 0 1 0  255 255 255 255
104.066 0 11.628 0 1 0  255 255 255 255
9.3441 0 5.35884 0 1 0  255 255 255 255
30.514 0 1.17755 0 1 0  255 255 255 255
4.15855 0 11.8745 0 1 0  255 255 255 255
20.3046 0 13.7604 0 1 0  255 255 255 255
20.2919 0 11.6643 0 1 0  255 255 255 255
23.737 0 16.4505 0 1 0  255 255 255 255
9.27465 0 20.0787 0 1 0  255 255 255 255
57.6654 0 24.1189 0 1 0  255 255 255 255
57.6654 0 1.28111 0 1 0  255 255 255 255
107.403 0 14.0357 0 1 0  255 255 255 255
113.325 0 12.7 0 1 0  255 0 0 255
46.4467 0 12.7 0 1 0  255 0 0 255
13.0076 0 12.7 0 1 0  255 0 0 255
29.7272 0 12.7 0 1 0  255 0 0 255
96.6054 0 12.7 0 1 0  255 0 0 255
79.8858 0 12.7 0 1 0  255 0 0 255
63.1663 0 12.7 0 1 0  255 0 0 255
26.5774 0 1.25928 0 1 0  255 255 255 255
108.47 0 11.8514 0 1 0  255 255 255 255
96.4418 0 24.268 0 1 0  255 255 255 255
117.497 0 17.8585 0 1 0  255 255 255 255
22.8501 0 11.6541 0 1 0  255 255 255 255
104.06 0 13.7418 0 1 0  255 255 255 255
103.137 0 16.2066 0 1 0  255 255 255 255
106.531 0 11.6656 0 1 0  255 255 255 255
117.495 0 7.55052 0 1 0  255 255 255 255
35.9684 0 17.2595 0 1 0  255 255 255 255
35.9684 0 8.14051 0 1 0  255 255 255 255
52.782 0 8.24996 0 1 0  255 255 255 255
52.782 0 17.15 0 1 0  255 255 255 255
96.4383 0 1.12693 0 1 0  255 255 255 255
69.5038 0 17.1481 0 1 0  255 255 255 255
69.5038 0 8.25191 0 1 0  255 255 255 255
86.2236 0 8.25483 0 1 0  255 255 255 255
86.2236 0 17.1452 0 1 0  255 255 255 255
89.089 0 22.1767 0 1 0  255 255 255 255
89.089 0 3.22326 0 1 0  255 255 255 255
9.53707 0 24.105 0 1 0  255 255 255 255
74.4424 0 24.0996 0 1 0  255 255 255 255
74.4424 0 1.3004 0 1 0  255 255 255 255
9.54662 0 1.29462 0 1 0  255 255 255 255
22.8223 0 13.7625 0 1 0  255 255 255 255
107.626 0 16.1961 0 1 0  255 255 255 255
37.821 0 22.1826 0 1 0  255 255 255 255
37.821 0 3.21744 0 1 0  255 255 255 255
72.3527 0 3.21171 0 1 0  255 255 255 255
72.3527 0 22.1883 0 1 0  255 255 255 255
117.419 0 24.1086 0 1 0  255 255 255 255
117.428 0 1.29752 0 1 0  255 255 255 255
106.201 0 13.0258 0 1 0  255 255 255 255
35.9073 0 3.63965 0 1 0  255 255 255 255
35.9073 0 21.7604 0 1 0  255 255 255 255
36.746 0 6.00746 0 1 0  255 255 255 255
36.746 0 19.3925 0 1 0  255 255 255 255
91.0542 0 3.59572 0 1 0  255 255 255 255
91.0542 0 21.8043 0 1 0  255 255 255 255
55.4981 0 3.03256 0 1 0  255 255 255 255
55.4981 0 22.3674 0 1 0  255 255 255 255
74.371 0 3.6033 0 1 0  255 255 255 255
74.371 0 21.7967 0 1 0  255 255 255 255
36.9557 0 24.2006 0 1 0  255 255 255 255
36.9557 0 1.19937 0 1 0  255 255 255 255
57.5538 0 3.63374 0 1 0  255 255 255 255
57.5538 0 21.7663 0 1 0  255 255 255 255
105.347 0 9.7872 0 1 0  255 255 255 255
89.9605 0 24.2071 0 1 0  255 255 255 255
89.9605 0 1.1929 0 1 0  255 255 255 255
21.5997 0 9.76419 0 1 0  255 255 255 255
112.747 0 3.33517 0 1 0  255 255 255 255
19.5939 0 16.1555 0 1 0  255 255 255 255
112.721 0 22.0818 0 1 0  255 255 255 255
42.4722 0 2.86432 0 1 0  255 255 255 255
42.4722 0 22.5357 0 1 0  255 255 255 255
59.7532 0 20.2967 0 1 0  255 255 255 255
59.7532 0 5.10325 0 1 0  255 255 255 255
108.495 0 13.3433 0 1 0  255 255 255 255
76.4708 0 20.291 0 1 0  255 255 255 255
76.4708 0 5.10898 0 1 0  255 255 255 255
59.8302 0 1.31323 0 1 0  255 255 255 255
59.8302 0 24.0868 0 1 0  255 255 255 255
24.208 0 9.1741 0 1 0  255 255 255 255
87.4345 0 12.6233 0 1 0  255 255 255 255
37.2767 0 12.7766 0 1 0  255 255 255 255
70.716 0 12.7766 0 1 0  255 255 255 255
53.9966 0 12.6234 0 1 0  255 255 255 255
34.0295 0 5.24429 0 1 0  255 255 255 255
34.0265 0 20.1521 0 1 0  255 255 255 255
25.808 0 15.5954 0 1 0  255 255 255 255
55.7179 0 9.49786 0 1 0  255 255 255 255
55.7179 0 15.9021 0 1 0  255 255 255 255
72.4369 0 15.9018 0 1 0  255 255 255 255
72.4369 0 9.49817 0 1 0  255 255 255 255
39 0 15.9022 0 1 0  255 255 255 255
39 0 9.49779 0 1 0  255 255 255 255
76.51 0 24.0268 0 1 0  255 255 255 255
76.51 0 1.37319 0 1 0  255 255 255 255
89.1559 0 15.9015 0 1 0  255 255 255 255
89.1559 0 9.4985 0 1 0  255 255 255 255
30.111 0 22.0454 0 1 0  255 255 255 255
101.125 0 9.89249 0 1 0  255 255 255 255
124.053 0 15.2707 0 1 0  255 255 255 255
28.9501 0 3.43472 0 1 0  255 255 255 255
25.8514 0 9.90959 0 1 0  255 255 255 255
14.256 0 3.35344 0 1 0  255 255 255 255
117.339 0 13.9079 0 1 0  255 255 255 255
117.326 0 11.5078 0 1 0  255 255 255 255
93.2077 0 11.483 0 1 0  255 255 255 255
93.1973 0 13.9488 0 1 0  255 255 255 255
43.0387 0 13.949 0 1 0  255 255 255 255
43.0492 0 11.4828 0 1 0  255 255 255 255
43.0995 0 5.0294 0 1 0  255 255 255 255
43.0995 0 20.3706 0 1 0  255 255 255 255
76.4781 0 11.4513 0 1 0  255 255 255 255
76.4886 0 13.9169 0 1 0  255 255 255 255
101.112 0 15.5167 0 1 0  255 255 255 255
59.7693 0 11.4832 0 1 0  255 255 255 255
59.7588 0 13.9487 0 1 0  255 255 255 255
14.2586 0 22.0825 0 1 0  255 255 255 255
102.845 0 9.25091 0 1 0  255 255 255 255
100.25 0 22.836 0 1 0  255 255 255 255
64.8424 0 19.8495 0 1 0  255 255 255 255
64.8424 0 5.55052 0 1 0  255 255 255 255
81.6022 0 19.8214 0 1 0  255 255 255 255
81.6022 0 5.57857 0 1 0  255 255 255 255
48.1186 0 5.55966 0 1 0  255 255 255 255
48.1186 0 19.8403 0 1 0  255 255 255 255
26.9347 0 22.8611 0 1 0  255 255 255 255
1.05609 0 19.8098 0 1 0  255 255 255 255
1.06071 0 5.58783 0 1 0  255 255 255 255
20.9123 0 12.7057 0 1 0  255 255 255 255
61.4519 0 6.14283 0 1 0  255 255 255 255
61.4519 0 19.2572 0 1 0  255 255 255 255
44.7338 0 6.1436 0 1 0  255 255 255 255
44.7338 0 19.2564 0 1 0  255 255 255 255
78.1713 0 6.14494 0 1 0  255 255 255 255
78.1713 0 19.2551 0 1 0  255 255 255 255
125.976 0 19.7909 0 1 0  255 255 255 255
125.975 0 5.60837 0 1 0  255 255 255 255
14.9304 0 24.2234 0 1 0  255 255 255 255
51.2022 0 22.5957 0 1 0  255 255 255 255
51.2022 0 2.80434 0 1 0  255 255 255 255
112.046 0 24.2346 0 1 0  255 255 255 255
17.508 0 9.94014 0 1 0  255 255 255 255
96.8299 0 22.0965 0 1 0  255 255 255 255
117.715 0 9.68917 0 1 0  255 255 255 255
117.674 0 15.742 0 1 0  255 255 255 255
84.6916 0 22.5343 0 1 0  255 255 255 255
84.6916 0 2.8657 0 1 0  255 255 255 255
107.614 0 9.48322 0 1 0  255 255 255 255
67.8835 0 2.74694 0 1 0  255 255 255 255
67.8835 0 22.6531 0 1 0  255 255 255 255
34.6303 0 3.02009 0 1 0  255 255 255 255
34.6217 0 22.3729 0 1 0  255 255 255 255
109.558 0 15.3587 0 1 0  255 255 255 255
101.7 0 1.0905 0 1 0  255 255 255 255
92.2861 0 22.3515 0 1 0  255 255 255 255
92.2861 0 3.04846 0 1 0  255 255 255 255
98.0945 0 21.9784 0 1 0  255 255 255 255
93.1431 0 7.97913 0 1 0  255 255 255 255
93.1431 0 17.4209 0 1 0  255 255 255 255
98.0619 0 3.40381 0 1 0  255 255 255 255
96.816 0 3.30846 0 1 0  255 255 255 255
21.7262 0 15.3311 0 1 0  255 255 255 255
109.493 0 9.93914 0 1 0  255 255 255 255
28.8897 0 21.9437 0 1 0  255 255 255 255
105.469 0 15.2515 0 1 0  255 255 255 255
109.567 0 24.3856 0 1 0  255 255 255 255
25.0741 0 1.24642 0 1 0  255 255 255 255
100.123 0 2.53591 0 1 0  255 255 255 255
19.3969 0 9.41595 0 1 0  255 255 255 255
48.5611 0 21.2737 0 1 0  255 255 255 255
48.5611 0 4.12632 0 1 0  255 255 255 255
17.4254 0 24.3832 0 1 0  255 255 255 255
125.865 0 14.2873 0 1 0  255 255 255 255
1.14509 0 14.2766 0 1 0  255 255 255 255
24.4245 0 22.1939 0 1 0  255 255 255 255
102.426 0 22.2561 0 1 0  255 255 255 255
18.6794 0 22.113 0 1 0  255 255 255 255
65.283 0 21.3176 0 1 0  255 255 255 255
65.283 0 4.08239 0 1 0  255 255 255 255
44.2633 0 1.24701 0 1 0  255 255 255 255
44.2633 0 24.153 0 1 0  255 255 255 255
84.9443 0 24.2056 0 1 0  255 255 255 255
84.9443 0 1.19438 0 1 0  255 255 255 255
94.1685 0 24.2322 0 1 0  255 255 255 255
94.1685 0 1.16779 0 1 0  255 255 255 255
27.0259 0 2.5385 0 1 0  255 255 255 255
121.322 0 1.0271 0 1 0  255 255 255 255
121.322 0 24.3729 0 1 0  255 255 255 255
89.6783 0 19.5155 0 1 0  255 255 255 255
89.6783 0 5.88446 0 1 0  255 255 255 255
112.079 0 1.17502 0 1 0  255 255 255 255
101.99 0 24.2544 0 1 0  255 255 255 255
108.204 0 22.3019 0 1 0  255 255 255 255
82.0098 0 21.2933 0 1 0  255 255 255 255
82.0098 0 4.10671 0 1 0  255 255 255 255
14.8843 0 1.19226 0 1 0  255 255 255 255
9.40376 0 22.6845 0 1 0  255 255 255 255
89.6617 0 12.6279 0 1 0  255 255 255 255
9.3761 0 2.73838 0 1 0  255 255 255 255
39.5033 0 12.6281 0 1 0  255 255 255 255
67.585 0 9.72846 0 1 0  255 255 255 255
67.584 0 15.6705 0 1 0  255 255 255 255
30.1822 0 3.40153 0 1 0  255 255 255 255
84.3031 0 15.6705 0 1 0  255 255 255 255
84.3041 0 9.72841 0 1 0  255 255 255 255
72.9422 0 12.6283 0 1 0  255 255 255 255
102.851 0 2.73113 0 1 0  255 255 255 255
25.0162 0 24.1711 0 1 0  255 255 255 255
50.8643 0 15.67 0 1 0  255 255 255 255
50.8653 0 9.72891 0 1 0  255 255 255 255
56.2221 0 12.7714 0 1 0  255 255 255 255
17.4772 0 15.44 0 1 0  255 255 255 255
34.1442 0 9.74091 0 1 0  255 255 255 255
34.1452 0 15.6601 0 1 0  255 255 255 255
101.227 0 5.44707 0 1 0  255 255 255 255
72.9588 0 5.88266 0 1 0  255 255 255 255
72.9588 0 19.5173 0 1 0  255 255 255 255
24.1995 0 2.63902 0 1 0  255 255 255 255
5.69186 0 1.0187 0 1 0  255 255 255 255
5.69186 0 24.3813 0 1 0  255 255 255 255
117.579 0 22.6987 0 1 0  255 255 255 255
117.557 0 2.72874 0 1 0  255 255 255 255
27.2744 0 12.5549 0 1 0  255 255 255 255
56.2579 0 5.86555 0 1 0  255 255 255 255
56.2579 0 19.5345 0 1 0  255 255 255 255
11.1507 0 24.2615 0 1 0  255 255 255 255
11.1113 0 1.11824 0 1 0  255 255 255 255
68.0066 0 1.25912 0 1 0  255 255 255 255
68.0066 0 24.1409 0 1 0  255 255 255 255
115.805 0 1.19739 0 1 0  255 255 255 255
32.8143 0 24.2254 0 1 0  255 255 255 255
32.8186 0 1.17587 0 1 0  255 255 255 255
18.9937 0 2.881 0 1 0  255 255 255 255
115.838 0 24.2607 0 1 0  255 255 255 255
16.0223 0 6.54088 0 1 0  255 255 255 255
2.73362 0 15.8086 0 1 0  255 255 255 255
8.00908 0 11.6308 0 1 0  255 255 255 255
7.97556 0 13.8267 0 1 0  255 255 255 255
99.5922 0 6.57848 0 1 0  255 255 255 255
97.8424 0 24.4049 0 1 0  255 255 255 255
107.811 0 2.85628 0 1 0  255 255 255 255
17.4069 0 0.925435 0 1 0  255 255 255 255
5.94658 0 11.5227 0 1 0  255 255 255 255
5.89905 0 13.9597 0 1 0  255 255 255 255
22.8972 0 24.3893 0 1 0  255 255 255 255
97.833 0 0.991522 0 1 0  255 255 255 255
104.097 0 24.3954 0 1 0  255 255 255 255
25.6803 0 19.2893 0 1 0  255 255 255 255
109.505 0 1.05161 0 1 0  255 255 255 255
51.5291 0 1.44538 0 1 0  255 255 255 255
51.5291 0 23.9546 0 1 0  255 255 255 255
15.912 0 18.832 0 1 0  255 255 255 255
25.5987 0 5.27619 0 1 0  255 255 255 255
101.437 0 19.413 0 1 0  255 255 255 255
99.5492 0 18.8356 0 1 0  255 255 255 255
94.985 0 19.3162 0 1 0  255 255 255 255
94.9828 0 6.08659 0 1 0  255 255 255 255
125.816 0 9.39887 0 1 0  255 255 255 255
16.5562 0 22.4993 0 1 0  255 255 255 255
54.0997 0 17.0488 0 1 0  255 255 255 255
54.0997 0 8.35115 0 1 0  255 255 255 255
70.8175 0 8.35361 0 1 0  255 255 255 255
70.8175 0 17.0464 0 1 0  255 255 255 255
7.83053 0 17.7225 0 1 0  255 255 255 255
7.83053 0 7.67746 0 1 0  255 255 255 255
37.3747 0 17.0219 0 1 0  255 255 255 255
37.3747 0 8.37813 0 1 0  255 255 255 255
87.5345 0 8.35687 0 1 0  255 255 255 255
87.5345 0 17.0431 0 1 0  255 255 255 255
20.4156 0 24.2267 0 1 0  255 255 255 255
53.9344 0 21.0797 0 1 0  255 255 255 255
53.9344 0 4.32034 0 1 0  255 255 255 255
124.388 0 9.49588 0 1 0  255 255 255 255
28.8389 0 24.2248 0 1 0  255 255 255 255
106.581 0 24.2284 0 1 0  255 255 255 255
1.18417 0 9.39852 0 1 0  255 255 255 255
59.2178 0 22.3958 0 1 0  255 255 255 255
59.2178 0 3.0042 0 1 0  255 255 255 255
77.7335 0 1.23562 0 1 0  255 255 255 255
77.7335 0 24.1644 0 1 0  255 255 255 255
28.8781 0 1.22412 0 1 0  255 255 255 255
2.60717 0 9.57952 0 1 0  255 255 255 255
70.6499 0 4.31213 0 1 0  255 255 255 255
70.6499 0 21.0879 0 1 0  255 255 255 255
75.9289 0 22.3864 0 1 0  255 255 255 255
75.9289 0 3.0136 0 1 0  255 255 255 255
9.89188 0 18.0126 0 1 0  255 255 255 255
39.5344 0 4.29692 0 1 0  255 255 255 255
39.5344 0 21.1031 0 1 0  255 255 255 255
26.8463 0 13.6563 0 1 0  255 255 255 255
61.0414 0 1.20845 0 1 0  255 255 255 255
61.0414 0 24.1915 0 1 0  255 255 255 255
7.32759 0 15.5576 0 1 0  255 255 255 255
7.32708 0 9.8453 0 1 0  255 255 255 255
57.937 0 11.7231 0 1 0  255 255 255 255
57.9107 0 13.7891 0 1 0  255 255 255 255
74.6571 0 13.6769 0 1 0  255 255 255 255
74.6308 0 11.6107 0 1 0  255 255 255 255
41.2202 0 11.7425 0 1 0  255 255 255 255
41.1797 0 13.6704 0 1 0  255 255 255 255
91.3388 0 13.6704 0 1 0  255 255 255 255
91.3793 0 11.7422 0 1 0  255 255 255 255
87.3636 0 21.0864 0 1 0  255 255 255 255
87.3636 0 4.31363 0 1 0  255 255 255 255
17.7334 0 5.19332 0 1 0  255 255 255 255
110.55 0 13.564 0 1 0  255 255 255 255
27.0431 0 6.64512 0 1 0  255 255 255 255
110.436 0 22.6125 0 1 0  255 255 255 255
16.6099 0 2.97174 0 1 0  255 255 255 255
9.85658 0 7.43855 0 1 0  255 255 255 255
88.0163 0 13.738 0 1 0  255 255 255 255
88.0163 0 11.662 0 1 0  255 255 255 255
37.858 0 13.7381 0 1 0  255 255 255 255
37.858 0 11.6619 0 1 0  255 255 255 255
71.2973 0 11.6619 0 1 0  255 255 255 255
71.2973 0 13.7381 0 1 0  255 255 255 255
53.9408 0 10.4272 0 1 0  255 255 255 255
53.953 0 14.9229 0 1 0  255 255 255 255
54.5781 0 13.7381 0 1 0  255 255 255 255
54.5781 0 11.6619 0 1 0  255 255 255 255
70.6725 0 10.4777 0 1 0  255 255 255 255
70.661 0 14.9721 0 1 0  255 255 255 255
37.2334 0 10.478 0 1 0  255 255 255 255
37.2222 0 14.9718 0 1 0  255 255 255 255
87.3921 0 14.9215 0 1 0  255 255 255 255
87.3894 0 10.4585 0 1 0  255 255 255 255
110.553 0 11.8274 0 1 0  255 255 255 255
18.0189 0 17.7765 0 1 0  255 255 255 255
122.401 0 8.40627 0 1 0  255 255 255 255
122.406 0 16.9876 0 1 0  255 255 255 255
109.228 0 5.37229 0 1 0  255 255 255 255
83.954 0 20.5126 0 1 0  255 255 255 255
83.954 0 4.88741 0 1 0  255 255 255 255
122.083 0 13.7072 0 1 0  255 255 255 255
110.45 0 2.91099 0 1 0  255 255 255 255
30.8458 0 2.41218 0 1 0  255 255 255 255
81.2187 0 12.7 0 1 0  255 0 0 255
31.06 0 12.7 0 1 0  255 0 0 255
47.7796 0 12.7 0 1 0  255 0 0 255
14.3405 0 12.7 0 1 0  255 0 0 255
114.658 0 12.7 0 1 0  255 0 0 255
97.9382 0 12.7 0 1 0  255 255 255 255
64.4991 0 12.7 0 1 0  255 0 0 255
67.2368 0 4.89487 0 1 0  255 255 255 255
67.2368 0 20.5051 0 1 0  255 255 255 255
108.949 0 17.6818 0 1 0  255 255 255 255
50.5145 0 4.89871 0 1 0  255 255 255 255
50.5145 0 20.5013 0 1 0  255 255 255 255
86.4586 0 19.0575 0 1 0  255 255 255 255
86.4586 0 6.34245 0 1 0  255 255 255 255
69.7376 0 6.34222 0 1 0  255 255 255 255
69.7376 0 19.0578 0 1 0  255 255 255 255
40.8601 0 24.4534 0 1 0  255 255 255 255
40.8601 0 0.946615 0 1 0  255 255 255 255
109.479 0 19.4837 0 1 0  255 255 255 255
53.0154 0 6.34707 0 1 0  255 255 255 255
53.0154 0 19.0529 0 1 0  255 255 255 255
120.488 0 10.5277 0 1 0  255 255 255 255
120.492 0 14.8794 0 1 0  255 255 255 255
32.4506 0 6.27925 0 1 0  255 255 255 255
32.3867 0 19.0049 0 1 0  255 255 255 255
113.616 0 24.2913 0 1 0  255 255 255 255
42.5654 0 15.7127 0 1 0  255 255 255 255
42.5738 0 9.70091 0 1 0  255 255 255 255
59.2939 0 9.70224 0 1 0  255 255 255 255
59.2855 0 15.7114 0 1 0  255 255 255 255
30.805 0 23.0146 0 1 0  255 255 255 255
13.3383 0 24.2775 0 1 0  255 255 255 255
76.014 0 15.6972 0 1 0  255 255 255 255
76.0055 0 9.68915 0 1 0  255 255 255 255
92.7213 0 15.6911 0 1 0  255 255 255 255
92.7297 0 9.72255 0 1 0  255 255 255 255
119.616 0 12.7667 0 1 0  255 255 255 255
13.263 0 1.13951 0 1 0  255 255 255 255
99.5762 0 4.48659 0 1 0  255 255 255 255
41.3731 0 9.73864 0 1 0  255 255 255 255
41.3731 0 15.6614 0 1 0  255 255 255 255
11.3936 0 19.2486 0 1 0  255 255 255 255
58.0932 0 9.74074 0 1 0  255 255 255 255
58.0932 0 15.6593 0 1 0  255 255 255 255
91.5301 0 9.73986 0 1 0  255 255 255 255
91.5301 0 15.6601 0 1 0  255 255 255 255
74.8117 0 15.6595 0 1 0  255 255 255 255
74.8117 0 9.74053 0 1 0  255 255 255 255
92.6747 0 24.3537 0 1 0  255 255 255 255
92.6747 0 1.04631 0 1 0  255 255 255 255
79.7641 0 24.3325 0 1 0  255 255 255 255
79.7641 0 1.06747 0 1 0  255 255 255 255
115.981 0 19.2733 0 1 0  255 255 255 255
113.634 0 1.10237 0 1 0  255 255 255 255
96.8625 0 19.9558 0 1 0  255 255 255 255
29.6993 0 5.63114 0 1 0  255 255 255 255
17.5178 0 20.3322 0 1 0  255 255 255 255
115.989 0 6.14001 0 1 0  255 255 255 255
89.681 0 10.6048 0 1 0  255 255 255 255
89.6874 0 14.7723 0 1 0  255 255 255 255
39.5248 0 14.7966 0 1 0  255 255 255 255
39.5232 0 10.6051 0 1 0  255 255 255 255
72.9672 0 14.7719 0 1 0  255 255 255 255
72.9608 0 10.6054 0 1 0  255 255 255 255
56.2503 0 1.06577 0 1 0  255 255 255 255
56.2503 0 24.3342 0 1 0  255 255 255 255
56.243 0 10.6041 0 1 0  255 255 255 255
56.2408 0 14.7941 0 1 0  255 255 255 255
29.6865 0 19.7592 0 1 0  255 255 255 255
96.8507 0 5.45009 0 1 0  255 255 255 255
11.3979 0 6.15888 0 1 0  255 255 255 255
27.3924 0 4.47411 0 1 0  255 255 255 255
99.6151 0 20.882 0 1 0  255 255 255 255
94.6093 0 2.58789 0 1 0  255 255 255 255
94.6093 0 22.8121 0 1 0  255 255 255 255
87.9818 0 9.46333 0 1 0  255 255 255 255
87.9818 0 15.9367 0 1 0  255 255 255 255
52.3063 0 9.64361 0 1 0  255 255 255 255
52.3063 0 15.7564 0 1 0  255 255 255 255
37.8237 0 15.9357 0 1 0  255 255 255 255
37.8237 0 9.46425 0 1 0  255 255 255 255
69.024 0 15.7549 0 1 0  255 255 255 255
69.024 0 9.64507 0 1 0  255 255 255 255
71.2632 0 9.46487 0 1 0  255 255 255 255
71.2632 0 15.9351 0 1 0  255 255 255 255
35.5847 0 9.64676 0 1 0  255 255 255 255
35.5847 0 15.7532 0 1 0  255 255 255 255
85.7415 0 9.64738 0 1 0  255 255 255 255
85.7415 0 15.7526 0 1 0  255 255 255 255
54.8136 0 7.18263 0 1 0  255 255 255 255
54.8136 0 18.2174 0 1 0  255 255 255 255
54.5445 0 9.46604 0 1 0  255 255 255 255
54.5445 0 15.934 0 1 0  255 255 255 255
71.5325 0 18.215 0 1 0  255 255 255 255
71.5325 0 7.18498 0 1 0  255 255 255 255
38.0822 0 7.25024 0 1 0  255 255 255 255
38.0822 0 18.1498 0 1 0  255 255 255 255
88.2506 0 18.2106 0 1 0  255 255 255 255
88.2506 0 7.1894 0 1 0  255 255 255 255
111.317 0 4.51298 0 1 0  255 255 255 255
52.3102 0 13.5443 0 1 0  255 255 255 255
52.3153 0 11.6976 0 1 0  255 255 255 255
69.0329 0 11.8507 0 1 0  255 255 255 255
69.0305 0 13.6969 0 1 0  255 255 255 255
35.5897 0 11.8565 0 1 0  255 255 255 255
35.5947 0 13.7016 0 1 0  255 255 255 255
85.753 0 11.6983 0 1 0  255 255 255 255
85.7479 0 13.5435 0 1 0  255 255 255 255
124.131 0 13.0393 0 1 0  255 255 255 255
15.7214 0 4.54224 0 1 0  255 255 255 255
73.1921 0 1.24577 0 1 0  255 255 255 255
73.1921 0 24.1542 0 1 0  255 255 255 255
96.0236 0 23.0258 0 1 0  255 255 255 255
15.0973 0 22.9364 0 1 0  255 255 255 255
27.396 0 20.9084 0 1 0  255 255 255 255
116.996 0 20.4419 0 1 0  255 255 255 255
32.3311 0 22.7512 0 1 0  255 255 255 255
32.3055 0 2.59115 0 1 0  255 255 255 255
110.848 0 6.50752 0 1 0  255 255 255 255
62.9894 0 1.06296 0 1 0  255 255 255 255
62.9894 0 24.337 0 1 0  255 255 255 255
82.6157 0 12.7 0 1 0  255 255 255 255
49.1766 0 12.7 0 1 0  255 255 255 255
32.4571 0 12.7 0 1 0  255 255 255 255
65.8962 0 12.7 0 1 0  255 255 255 255
86.0306 0 24.436 0 1 0  255 255 255 255
86.0306 0 0.964043 0 1 0  255 255 255 255
111.309 0 20.8587 0 1 0  255 255 255 255
27.1847 0 18.942 0 1 0  255 255 255 255
96.0178 0 2.37164 0 1 0  255 255 255 255
15.6419 0 20.8205 0 1 0  255 255 255 255
11.6338 0 22.9246 0 1 0  255 255 255 255
111.859 0 22.9588 0 1 0  255 255 255 255
116.972 0 5.01935 0 1 0  255 255 255 255
115.294 0 2.46682 0 1 0  255 255 255 255
69.2102 0 24.426 0 1 0  255 255 255 255
69.2102 0 0.97402 0 1 0  255 255 255 255
115.377 0 22.8408 0 1 0  255 255 255 255
2.74417 0 12.9942 0 1 0  255 255 255 255
17.011 0 17.2782 0 1 0  255 255 255 255
101.89 0 17.6549 0 1 0  255 255 255 255
94.9094 0 21.0883 0 1 0  255 255 255 255
94.759 0 4.23859 0 1 0  255 255 255 255
34.1937 0 24.3662 0 1 0  255 255 255 255
34.1937 0 1.03376 0 1 0  255 255 255 255
11.5905 0 2.53341 0 1 0  255 255 255 255
15.0164 0 2.49117 0 1 0  255 255 255 255
65.908 0 6.4108 0 1 0  255 255 255 255
65.908 0 18.9892 0 1 0  255 255 255 255
49.1885 0 18.9843 0 1 0  255 255 255 255
49.1885 0 6.41569 0 1 0  255 255 255 255
52.5335 0 0.987539 0 1 0  255 255 255 255
52.5335 0 24.4125 0 1 0  255 255 255 255
82.6333 0 18.9873 0 1 0  255 255 255 255
82.6333 0 6.41273 0 1 0  255 255 255 255
121.156 0 11.7013 0 1 0  255 255 255 255
124.122 0 5.36891 0 1 0  255 255 255 255
124.122 0 20.0311 0 1 0  255 255 255 255
9.64549 0 10.3691 0 1 0  255 255 255 255
9.64599 0 15.0312 0 1 0  255 255 255 255
46.2123 0 1.06592 0 1 0  255 255 255 255
46.2123 0 24.3341 0 1 0  255 255 255 255
111.926 0 2.46426 0 1 0  255 255 255 255
89.1159 0 13.72 0 1 0  255 255 255 255
89.1094 0 11.6645 0 1 0  255 255 255 255
110.858 0 19.0119 0 1 0  255 255 255 255
38.9572 0 13.724 0 1 0  255 255 255 255
38.9513 0 11.6648 0 1 0  255 255 255 255
72.3968 0 13.7199 0 1 0  255 255 255 255
72.3901 0 11.665 0 1 0  255 255 255 255
55.6702 0 13.7347 0 1 0  255 255 255 255
55.6762 0 11.676 0 1 0  255 255 255 255
7.90546 0 5.97309 0 1 0  255 255 255 255
7.89464 0 19.4343 0 1 0  255 255 255 255
100.724 0 17.1847 0 1 0  255 255 255 255
100.652 0 8.10409 0 1 0  255 255 255 255
2.85906 0 20.0083 0 1 0  255 255 255 255
2.85906 0 5.39173 0 1 0  255 255 255 255
122.085 0 20.6247 0 1 0  255 255 255 255
122.086 0 4.77834 0 1 0  255 255 255 255
54.0502 0 6.13823 0 1 0  255 255 255 255
54.0502 0 19.2618 0 1 0  255 255 255 255
40.5467 0 6.32198 0 1 0  255 255 255 255
40.5467 0 19.078 0 1 0  255 255 255 255
39.552 0 5.99589 0 1 0  255 255 255 255
39.552 0 19.4041 0 1 0  255 255 255 255
70.7538 0 6.08957 0 1 0  255 255 255 255
70.7538 0 19.3104 0 1 0  255 255 255 255
5.99013 0 15.2258 0 1 0  255 255 255 255
6.01291 0 10.1988 0 1 0  255 255 255 255
87.4869 0 19.2653 0 1 0  255 255 255 255
87.4869 0 6.13474 0 1 0  255 255 255 255
39.5725 0 8.59585 0 1 0  255 255 255 255
39.5725 0 16.8042 0 1 0  255 255 255 255
31.6746 0 4.25743 0 1 0  255 255 255 255
121.432 0 18.6324 0 1 0  255 255 255 255
121.432 0 6.76759 0 1 0  255 255 255 255
125.859 0 24.3083 0 1 0  255 255 255 255
125.859 0 1.09175 0 1 0  255 255 255 255
31.9048 0 21.0656 0 1 0  255 255 255 255
4.99267 0 20.6127 0 1 0  255 255 255 255
4.99267 0 4.7873 0 1 0  255 255 255 255
1.10418 0 1.10053 0 1 0  255 255 255 255
1.10418 0 24.2995 0 1 0  255 255 255 255
23.7491 0 14.2299 0 1 0  255 255 255 255
89.7393 0 16.8211 0 1 0  255 255 255 255
89.7393 0 8.57893 0 1 0  255 255 255 255
57.2351 0 6.27617 0 1 0  255 255 255 255
57.2351 0 19.1238 0 1 0  255 255 255 255
113.243 0 19.6886 0 1 0  255 255 255 255
73.9506 0 19.1139 0 1 0  255 255 255 255
73.9506 0 6.28613 0 1 0  255 255 255 255
6.48797 0 17.372 0 1 0  255 255 255 255
6.48797 0 8.02803 0 1 0  255 255 255 255
73.0128 0 8.57902 0 1 0  255 255 255 255
73.0128 0 16.821 0 1 0  255 255 255 255
25.2291 0 17.8523 0 1 0  255 255 255 255
49.742 0 24.3979 0 1 0  255 255 255 255
49.742 0 1.0021 0 1 0  255 255 255 255
90.6876 0 6.29215 0 1 0  255 255 255 255
90.6876 0 19.1078 0 1 0  255 255 255 255
5.70636 0 6.8089 0 1 0  255 255 255 255
5.70625 0 18.5911 0 1 0  255 255 255 255
56.2935 0 16.8229 0 1 0  255 255 255 255
56.2935 0 8.57705 0 1 0  255 255 255 255
23.8492 0 11.0995 0 1 0  255 255 255 255
8.35886 0 0.934178 0 1 0  255 255 255 255
8.35695 0 24.4657 0 1 0  255 255 255 255
12.9887 0 2.57973 0 1 0  255 255 255 255
90.8827 0 10.6755 0 1 0  255 255 255 255
90.8185 0 14.7343 0 1 0  255 255 255 255
109.048 0 7.69728 0 1 0  255 255 255 255
40.7249 0 10.6753 0 1 0  255 255 255 255
40.659 0 14.7346 0 1 0  255 255 255 255
126.144 0 17.1677 0 1 0  255 255 255 255
74.1496 0 10.6404 0 1 0  255 255 255 255
74.1698 0 14.7008 0 1 0  255 255 255 255
13.0325 0 22.8485 0 1 0  255 255 255 255
113.248 0 5.72106 0 1 0  255 255 255 255
0.850853 0 4.4984 0 1 0  255 255 255 255
0.849928 0 20.9011 0 1 0  255 255 255 255
57.4298 0 14.7594 0 1 0  255 255 255 255
57.4494 0 10.6952 0 1 0  255 255 255 255
118.623 0 24.468 0 1 0  255 255 255 255
118.625 0 0.933259 0 1 0  255 255 255 255
0.881286 0 17.1474 0 1 0  255 255 255 255
126.107 0 20.955 0 1 0  255 255 255 255
126.107 0 4.445 0 1 0  255 255 255 255
53.2809 0 2.64302 0 1 0  255 255 255 255
53.2809 0 22.757 0 1 0  255 255 255 255
113.936 0 22.8502 0 1 0  255 255 255 255
52.8414 0 10.5919 0 1 0  255 255 255 255
52.834 0 14.7678 0 1 0  255 255 255 255
69.559 0 14.8058 0 1 0  255 255 255 255
69.5532 0 10.6321 0 1 0  255 255 255 255
36.1126 0 10.6342 0 1 0  255 255 255 255
36.1207 0 14.8063 0 1 0  255 255 255 255
86.2703 0 14.7654 0 1 0  255 255 255 255
86.28 0 10.599 0 1 0  255 255 255 255
70.0104 0 2.68168 0 1 0  255 255 255 255
70.0104 0 22.7183 0 1 0  255 255 255 255
113.959 0 2.54 0 1 0  255 255 255 255
119.034 0 13.6705 0 1 0  255 255 255 255
118.972 0 11.7809 0 1 0  255 255 255 255
86.7395 0 2.68606 0 1 0  255 255 255 255
86.7395 0 22.7139 0 1 0  255 255 255 255
2.97043 0 16.9178 0 1 0  255 255 255 255
40.2066 0 22.7273 0 1 0  255 255 255 255
40.2066 0 2.67274 0 1 0  255 255 255 255
2.6888 0 7.60423 0 1 0  255 255 255 255
102.198 0 3.61384 0 1 0  255 255 255 255
11.7879 0 21.0474 0 1 0  255 255 255 255
9.36522 0 9.20862 0 1 0  255 255 255 255
9.37019 0 16.196 0 1 0  255 255 255 255
122.194 0 15.6864 0 1 0  255 255 255 255
122.341 0 9.7752 0 1 0  255 255 255 255
75.5528 0 19.231 0 1 0  255 255 255 255
75.5528 0 6.16897 0 1 0  255 255 255 255
3.06197 0 4.33036 0 1 0  255 255 255 255
3.06197 0 21.0696 0 1 0  255 255 255 255
126.105 0 8.25406 0 1 0  255 255 255 255
37.6856 0 5.33956 0 1 0  255 255 255 255
37.6856 0 20.0604 0 1 0  255 255 255 255
11.7541 0 4.37001 0 1 0  255 255 255 255
0.924767 0 8.2622 0 1 0  255 255 255 255
17.0506 0 8.28658 0 1 0  255 255 255 255
66.4927 0 24.383 0 1 0  255 255 255 255
66.4927 0 1.01702 0 1 0  255 255 255 255
58.8798 0 6.15278 0 1 0  255 255 255 255
58.8798 0 19.2472 0 1 0  255 255 255 255
4.73293 0 13.5024 0 1 0  255 255 255 255
100.222 0 13.8117 0 1 0  255 255 255 255
26.2028 0 8.1014 0 1 0  255 255 255 255
4.65784 0 8.44114 0 1 0  255 255 255 255
4.64767 0 16.9651 0 1 0  255 255 255 255
115.139 0 21.1079 0 1 0  255 255 255 255
118.81 0 9.74918 0 1 0  255 255 255 255
118.814 0 15.6958 0 1 0  255 255 255 255
43.0753 0 16.6626 0 1 0  255 255 255 255
43.0753 0 8.73744 0 1 0  255 255 255 255
59.755 0 16.6313 0 1 0  255 255 255 255
59.7562 0 8.77063 0 1 0  255 255 255 255
107.519 0 11.054 0 1 0  255 255 255 255
76.4765 0 16.6286 0 1 0  255 255 255 255
76.4753 0 8.76942 0 1 0  255 255 255 255
6.66555 0 19.6973 0 1 0  255 255 255 255
6.66555 0 5.70272 0 1 0  255 255 255 255
10.0708 0 20.7066 0 1 0  255 255 255 255
115.162 0 4.30993 0 1 0  255 255 255 255
28.3837 0 4.25067 0 1 0  255 255 255 255
124.178 0 21.278 0 1 0  255 255 255 255
124.178 0 4.12203 0 1 0  255 255 255 255
108.535 0 24.239 0 1 0  255 255 255 255
98.6396 0 4.25784 0 1 0  255 255 255 255
103.094 0 11.1541 0 1 0  255 255 255 255
122.44 0 0.843436 0 1 0  255 255 255 255
122.44 0 24.5566 0 1 0  255 255 255 255
10.0381 0 4.50699 0 1 0  255 255 255 255
18.4553 0 24.2342 0 1 0  255 255 255 255
25.3007 0 7.68665 0 1 0  255 255 255 255
25.4813 0 20.4431 0 1 0  255 255 255 255
103.14 0 14.2441 0 1 0  255 255 255 255
98.6694 0 21.1223 0 1 0  255 255 255 255
24.8083 0 3.63211 0 1 0  255 255 255 255
69.0198 0 4.89963 0 1 0  255 255 255 255
69.0198 0 20.5004 0 1 0  255 255 255 255
85.7414 0 4.89873 0 1 0  255 255 255 255
85.7414 0 20.5013 0 1 0  255 255 255 255
4.53571 0 24.5367 0 1 0  255 255 255 255
4.53571 0 0.863274 0 1 0  255 255 255 255
52.2983 0 4.90618 0 1 0  255 255 255 255
52.2983 0 20.4938 0 1 0  255 255 255 255
109.884 0 17.2155 0 1 0  255 255 255 255
16.6138 0 13.44 0 1 0  255 255 255 255
35.6372 0 1.33722 0 1 0  255 255 255 255
35.6372 0 24.0628 0 1 0  255 255 255 255
100.219 0 11.5934 0 1 0  255 255 255 255
113.739 0 21.58 0 1 0  255 255 255 255
115.887 0 12.7 0 1 0  255 255 255 255
119.407 0 10.7117 0 1 0  255 255 255 255
119.433 0 14.7201 0 1 0  255 255 255 255
46.7979 0 5.47544 0 1 0  255 255 255 255
46.7979 0 19.9246 0 1 0  255 255 255 255
4.7206 0 9.78205 0 1 0  255 255 255 255
4.74005 0 15.6762 0 1 0  255 255 255 255
63.5162 0 19.9281 0 1 0  255 255 255 255
63.5162 0 5.47192 0 1 0  255 255 255 255
101.553 0 20.43 0 1 0  255 255 255 255
119.704 0 22.6954 0 1 0  255 255 255 255
119.709 0 2.69983 0 1 0  255 255 255 255
80.2426 0 19.9216 0 1 0  255 255 255 255
80.2426 0 5.4784 0 1 0  255 255 255 255
41.2007 0 20.6909 0 1 0  255 255 255 255
41.2007 0 4.70907 0 1 0  255 255 255 255
101.746 0 7.68868 0 1 0  255 255 255 255
46.3088 0 2.28247 0 1 0  255 255 255 255
46.3088 0 23.1175 0 1 0  255 255 255 255
10.0924 0 11.6065 0 1 0  255 255 255 255
10.0942 0 13.7948 0 1 0  255 255 255 255
60.5301 0 7.04182 0 1 0  255 255 255 255
60.5301 0 18.3582 0 1 0  255 255 255 255
77.2498 0 7.04451 0 1 0  255 255 255 255
77.2498 0 18.3555 0 1 0  255 255 255 255
57.923 0 22.891 0 1 0  255 255 255 255
57.923 0 2.50897 0 1 0  255 255 255 255
62.9676 0 2.27044 0 1 0  255 255 255 255
62.9676 0 23.1296 0 1 0  255 255 255 255
113.919 0 3.86634 0 1 0  255 255 255 255
43.8249 0 7.05177 0 1 0  255 255 255 255
43.8249 0 18.3482 0 1 0  255 255 255 255
8.21376 0 16.4795 0 1 0  255 255 255 255
8.20795 0 8.92636 0 1 0  255 255 255 255
16.6134 0 11.9638 0 1 0  255 255 255 255
7.31961 0 22.7329 0 1 0  255 255 255 255
7.31965 0 2.66727 0 1 0  255 255 255 255
92.294 0 19.0186 0 1 0  255 255 255 255
92.294 0 6.38137 0 1 0  255 255 255 255
106.277 0 14.2258 0 1 0  255 255 255 255
124.63 0 2.91654 0 1 0  255 255 255 255
124.63 0 22.4835 0 1 0  255 255 255 255
34.5707 0 19.2618 0 1 0  255 255 255 255
34.5707 0 6.13817 0 1 0  255 255 255 255
2.59247 0 17.7883 0 1 0  255 255 255 255
74.6807 0 2.5183 0 1 0  255 255 255 255
74.6807 0 22.8817 0 1 0  255 255 255 255
13.4863 0 19.8805 0 1 0  255 255 255 255
28.4443 0 22.9022 0 1 0  255 255 255 255
79.7638 0 2.28544 0 1 0  255 255 255 255
79.7638 0 23.1146 0 1 0  255 255 255 255
4.12387 0 2.76492 0 1 0  255 255 255 255
4.12387 0 22.6351 0 1 0  255 255 255 255
13.4421 0 5.61004 0 1 0  255 255 255 255
5.28373 0 2.68782 0 1 0  255 255 255 255
5.28373 0 22.7122 0 1 0  255 255 255 255
2.96346 0 22.8629 0 1 0  255 255 255 255
2.96346 0 2.53707 0 1 0  255 255 255 255
122.63 0 22.4099 0 1 0  255 255 255 255
122.63 0 2.99007 0 1 0  255 255 255 255
108.452 0 0.975024 0 1 0  255 255 255 255
124.286 0 16.3188 0 1 0  255 255 255 255
121.675 0 2.73915 0 1 0  255 255 255 255
121.675 0 22.6608 0 1 0  255 255 255 255
18.312 0 4.02364 0 1 0  255 255 255 255
107.222 0 1.06382 0 1 0  255 255 255 255
17.7771 0 19.2723 0 1 0  255 255 255 255
19.777 0 1.04158 0 1 0  255 255 255 255
121.066 0 13.8849 0 1 0  255 255 255 255
109.909 0 8.08382 0 1 0  255 255 255 255
13.0793 0 21.5463 0 1 0  255 255 255 255
41.4094 0 22.2662 0 1 0  255 255 255 255
41.4094 0 3.1338 0 1 0  255 255 255 255
83.4745 0 24.3097 0 1 0  255 255 255 255
83.4745 0 1.09027 0 1 0  255 255 255 255
109.163 0 20.4449 0 1 0  255 255 255 255
23.045 0 9.36987 0 1 0  255 255 255 255
18.5416 0 0.971506 0 1 0  255 255 255 255
58.8598 0 24.4974 0 1 0  255 255 255 255
58.8598 0 0.902621 0 1 0  255 255 255 255
122.344 0 19.5288 0 1 0  255 255 255 255
122.344 0 5.87172 0 1 0  255 255 255 255
8.35398 0 4.73853 0 1 0  255 255 255 255
124.664 0 7.31613 0 1 0  255 255 255 255
124.672 0 18.0829 0 1 0  255 255 255 255
22.9669 0 23.2359 0 1 0  255 255 255 255
104.024 0 23.2453 0 1 0  255 255 255 255
8.34029 0 20.671 0 1 0  255 255 255 255
91.2798 0 24.0743 0 1 0  255 255 255 255
91.2798 0 1.32574 0 1 0  255 255 255 255
119.267 0 5.98748 0 1 0  255 255 255 255
119.268 0 19.4166 0 1 0  255 255 255 255
28.2321 0 2.62915 0 1 0  255 255 255 255
81.0345 0 24.4608 0 1 0  255 255 255 255
81.0345 0 0.93922 0 1 0  255 255 255 255
57.3152 0 12.8217 0 1 0  255 255 255 255
6.99126 0 13.3838 0 1 0  255 255 255 255
74.0352 0 12.5778 0 1 0  255 255 255 255
40.5988 0 12.6674 0 1 0  255 255 255 255
90.7577 0 12.6672 0 1 0  255 255 255 255
108.535 0 3.64617 0 1 0  255 255 255 255
120.292 0 19.8446 0 1 0  255 255 255 255
120.31 0 5.56984 0 1 0  255 255 255 255
13.0565 0 3.89286 0 1 0  255 255 255 255
35.5171 0 2.49682 0 1 0  255 255 255 255
35.5154 0 22.9018 0 1 0  255 255 255 255
91.3887 0 2.47676 0 1 0  255 255 255 255
91.3887 0 22.9232 0 1 0  255 255 255 255
19.3971 0 11.1501 0 1 0  255 255 255 255
63.2387 0 21.1443 0 1 0  255 255 255 255
63.2387 0 4.25573 0 1 0  255 255 255 255
28.3673 0 21.1313 0 1 0  255 255 255 255
46.5273 0 4.30111 0 1 0  255 255 255 255
46.5273 0 21.0989 0 1 0  255 255 255 255
79.9578 0 4.29978 0 1 0  255 255 255 255
79.9578 0 21.1002 0 1 0  255 255 255 255
103.897 0 9.24013 0 1 0  255 255 255 255
19.8257 0 23.0509 0 1 0  255 255 255 255
56.3521 0 21.7901 0 1 0  255 255 255 255
56.3521 0 3.60989 0 1 0  255 255 255 255
107.155 0 23.0771 0 1 0  255 255 255 255
51.0827 0 13.3538 0 1 0  255 255 255 255
67.8021 0 13.3942 0 1 0  255 255 255 255
34.3626 0 12.0468 0 1 0  255 255 255 255
84.521 0 13.3533 0 1 0  255 255 255 255
126.089 0 10.5766 0 1 0  255 255 255 255
83.3742 0 2.48239 0 1 0  255 255 255 255
83.3742 0 22.9176 0 1 0  255 255 255 255
66.6423 0 22.7126 0 1 0  255 255 255 255
66.6423 0 2.68743 0 1 0  255 255 255 255
0.908206 0 10.5828 0 1 0  255 255 255 255
49.9608 0 2.65474 0 1 0  255 255 255 255
49.9608 0 22.7453 0 1 0  255 255 255 255
124.69 0 24.4364 0 1 0  255 255 255 255
124.69 0 0.963636 0 1 0  255 255 255 255
2.05567 0 0.903153 0 1 0  255 255 255 255
2.05567 0 24.4968 0 1 0  255 255 255 255
51.0767 0 12.0236 0 1 0  255 255 255 255
67.7957 0 12.07 0 1 0  255 255 255 255
34.3564 0 13.3759 0 1 0  255 255 255 255
84.5149 0 12.024 0 1 0  255 255 255 255
112.153 0 4.2086 0 1 0  255 255 255 255
73.1973 0 21.7418 0 1 0  255 255 255 255
73.1973 0 3.65821 0 1 0  255 255 255 255
75.587 0 24.4637 0 1 0  255 255 255 255
75.587 0 0.936313 0 1 0  255 255 255 255
64.148 0 0.799931 0 1 0  255 255 255 255
64.148 0 24.6001 0 1 0  255 255 255 255
108.213 0 8.46264 0 1 0  255 255 255 255
125.828 0 2.1926 0 1 0  255 255 255 255
125.828 0 23.2074 0 1 0  255 255 255 255
21.5469 0 0.901071 0 1 0  255 255 255 255
36.9858 0 3.67949 0 1 0  255 255 255 255
36.9858 0 21.7205 0 1 0  255 255 255 255
98.785 0 2.61679 0 1 0  255 255 255 255
0.966889 0 2.3218 0 1 0  255 255 255 255
0.966889 0 23.0782 0 1 0  255 255 255 255
78.2773 0 22.8446 0 1 0  255 255 255 255
78.2773 0 2.5554 0 1 0  255 255 255 255
18.019 0 7.84138 0 1 0  255 255 255 255
26.3393 0 17.3609 0 1 0  255 255 255 255
17.3457 0 6.21138 0 1 0  255 255 255 255
14.8519 0 4.22537 0 1 0  255 255 255 255
93.2388 0 8.86651 0 1 0  255 255 255 255
93.2371 0 16.5362 0 1 0  255 255 255 255
30.7676 0 21.2879 0 1 0  255 255 255 255
44.9082 0 22.8791 0 1 0  255 255 255 255
44.9082 0 2.52085 0 1 0  255 255 255 255
43.2533 0 24.4465 0 1 0  255 255 255 255
43.2533 0 0.95346 0 1 0  255 255 255 255
61.5575 0 22.8446 0 1 0  255 255 255 255
61.5575 0 2.55542 0 1 0  255 255 255 255
98.8267 0 22.8055 0 1 0  255 255 255 255
105.436 0 0.906594 0 1 0  255 255 255 255
115.074 0 19.4586 0 1 0  255 255 255 255
19.3898 0 14.2851 0 1 0  255 255 255 255
122.905 0 21.4253 0 1 0  255 255 255 255
122.906 0 3.97517 0 1 0  255 255 255 255
105.721 0 12.1412 0 1 0  255 255 255 255
118.654 0 4.49094 0 1 0  255 255 255 255
118.657 0 20.9323 0 1 0  255 255 255 255
16.2112 0 0.841674 0 1 0  255 255 255 255
89.9205 0 21.7466 0 1 0  255 255 255 255
89.9205 0 3.65341 0 1 0  255 255 255 255
24.9535 0 12.7468 0 1 0  255 255 255 255
4.0632 0 3.99306 0 1 0  255 255 255 255
4.0632 0 21.4069 0 1 0  255 255 255 255
31.5794 0 19.3952 0 1 0  255 255 255 255
96.1701 0 4.17648 0 1 0  255 255 255 255
115.087 0 5.94811 0 1 0  255 255 255 255
3.03681 0 8.48132 0 1 0  255 255 255 255
18.4218 0 12.7146 0 1 0  255 255 255 255
59.0729 0 12.2252 0 1 0  255 255 255 255
75.7925 0 13.1747 0 1 0  255 255 255 255
42.3535 0 12.2264 0 1 0  255 255 255 255
92.5122 0 12.2265 0 1 0  255 255 255 255
58.9622 0 13.3307 0 1 0  255 255 255 255
75.6818 0 12.0692 0 1 0  255 255 255 255
42.2406 0 13.3114 0 1 0  255 255 255 255
92.3994 0 13.3112 0 1 0  255 255 255 255
27.8512 0 6.30484 0 1 0  255 255 255 255
52.8959 0 12.6272 0 1 0  255 255 255 255
69.6151 0 12.7697 0 1 0  255 255 255 255
36.1757 0 12.7729 0 1 0  255 255 255 255
47.3413 0 0.820949 0 1 0  255 255 255 255
47.3413 0 24.5791 0 1 0  255 255 255 255
86.334 0 12.6271 0 1 0  255 255 255 255
2.55961 0 10.7947 0 1 0  255 255 255 255
31.6035 0 5.97462 0 1 0  255 255 255 255
103.755 0 0.991271 0 1 0  255 255 255 255
14.8448 0 21.0707 0 1 0  255 255 255 255
16.2195 0 24.5831 0 1 0  255 255 255 255
110.776 0 0.834959 0 1 0  255 255 255 255
23.2299 0 0.988402 0 1 0  255 255 255 255
102.63 0 8.28968 0 1 0  255 255 255 255
96.1895 0 21.1901 0 1 0  255 255 255 255
24.7731 0 16.033 0 1 0  255 255 255 255
124.951 0 6.10626 0 1 0  255 255 255 255
124.954 0 19.2927 0 1 0  255 255 255 255
102.167 0 12.7163 0 1 0  255 255 255 255
58.2701 0 17.45 0 1 0  255 255 255 255
58.2701 0 7.94996 0 1 0  255 255 255 255
93.9083 0 7.27503 0 1 0  255 255 255 255
93.9083 0 18.125 0 1 0  255 255 255 255
62.2199 0 4.22847 0 1 0  255 255 255 255
62.2199 0 21.1715 0 1 0  255 255 255 255
45.49 0 4.22897 0 1 0  255 255 255 255
45.49 0 21.171 0 1 0  255 255 255 255
106.44 0 15.9089 0 1 0  255 255 255 255
112.153 0 21.1641 0 1 0  255 255 255 255
74.9915 0 17.4462 0 1 0  255 255 255 255
74.9915 0 7.9538 0 1 0  255 255 255 255
92.0207 0 7.59707 0 1 0  255 255 255 255
92.0207 0 17.8029 0 1 0  255 255 255 255
24.4807 0 8.25024 0 1 0  255 255 255 255
124.451 0 10.8309 0 1 0  255 255 255 255
0.743347 0 13.335 0 1 0  255 255 255 255
78.9394 0 4.24097 0 1 0  255 255 255 255
78.9394 0 21.159 0 1 0  255 255 255 255
41.6268 0 7.74423 0 1 0  255 255 255 255
41.6268 0 17.6558 0 1 0  255 255 255 255
30.7943 0 4.12929 0 1 0  255 255 255 255
126.258 0 13.335 0 1 0  255 255 255 255
54.985 0 24.328 0 1 0  255 255 255 255
54.985 0 1.07197 0 1 0  255 255 255 255
110.778 0 24.5947 0 1 0  255 255 255 255
104.193 0 2.07343 0 1 0  255 255 255 255
2.05303 0 5.92001 0 1 0  255 255 255 255
2.04363 0 19.5026 0 1 0  255 255 255 255
41.8745 0 24.4629 0 1 0  255 255 255 255
41.8745 0 0.937058 0 1 0  255 255 255 255
22.8138 0 2.04774 0 1 0  255 255 255 255
28.1644 0 18.9432 0 1 0  255 255 255 255
7.95428 0 10.7005 0 1 0  255 255 255 255
7.949 0 14.7161 0 1 0  255 255 255 255
88.004 0 24.4224 0 1 0  255 255 255 255
88.004 0 0.97757 0 1 0  255 255 255 255
54.5514 0 20.1993 0 1 0  255 255 255 255
54.5514 0 5.20068 0 1 0  255 255 255 255
34.7604 0 17.5412 0 1 0  255 255 255 255
34.761 0 7.85886 0 1 0  255 255 255 255
18.7842 0 8.54041 0 1 0  255 255 255 255
81.6155 0 23.3434 0 1 0  255 255 255 255
81.6155 0 2.05664 0 1 0  255 255 255 255
36.1683 0 18.5813 0 1 0  255 255 255 255
36.1683 0 6.81866 0 1 0  255 255 255 255
120.324 0 8.45602 0 1 0  255 255 255 255
120.324 0 16.944 0 1 0  255 255 255 255
22.5605 0 15.9255 0 1 0  255 255 255 255
71.2785 0 24.4596 0 1 0  255 255 255 255
71.2785 0 0.940368 0 1 0  255 255 255 255
68.2781 0 7.81562 0 1 0  255 255 255 255
68.2781 0 17.5844 0 1 0  255 255 255 255
85.0003 0 17.5837 0 1 0  255 255 255 255
85.0003 0 7.81631 0 1 0  255 255 255 255
23.9745 0 24.6636 0 1 0  255 255 255 255
103.026 0 24.6636 0 1 0  255 255 255 255
38.8824 0 24.4187 0 1 0  255 255 255 255
38.8824 0 0.981312 0 1 0  255 255 255 255
51.5549 0 7.81906 0 1 0  255 255 255 255
51.5549 0 17.5809 0 1 0  255 255 255 255
94.0805 0 13.5077 0 1 0  255 255 255 255
94.0816 0 11.8956 0 1 0  255 255 255 255
43.922 0 13.5075 0 1 0  255 255 255 255
43.9231 0 11.8957 0 1 0  255 255 255 255
77.3623 0 13.5042 0 1 0  255 255 255 255
77.3612 0 11.8926 0 1 0  255 255 255 255
27.8188 0 24.6138 0 1 0  255 255 255 255
60.6418 0 13.5072 0 1 0  255 255 255 255
60.6428 0 11.896 0 1 0  255 255 255 255
37.5815 0 6.38772 0 1 0  255 255 255 255
37.5815 0 19.0123 0 1 0  255 255 255 255
97.7611 0 5.76364 0 1 0  255 255 255 255
20.7856 0 15.9845 0 1 0  255 255 255 255
99.0903 0 24.5393 0 1 0  255 255 255 255
122.559 0 10.7777 0 1 0  255 255 255 255
38.9682 0 5.18076 0 1 0  255 255 255 255
38.9682 0 20.2192 0 1 0  255 255 255 255
