ply
format ascii 1.0
comment VCGLIB generated
element vertex 969
property float x
property float y
property float z
property float nx
property float ny
property float nz
property uchar red
property uchar green
property uchar blue
property uchar alpha
element face 0
property list uchar int vertex_indices
end_header
28.4618 -69.7814 0.407117 0.43847 -0.773781 -0.457174  255 255 255 255
28.4989 -69.2689 0.040185 0.164575 -0.277858 -0.94642  255 255 255 255
29.7347 -68.1489 0 0 0 -1  255 255 255 255
30.8832 -67.1851 0 0 0 -1  255 255 255 255
31.9269 -66.1088 0 0 0 -1  255 255 255 255
32.8547 -64.9311 0 0 0 -1  255 255 255 255
33.657 -63.6646 0 0 0 -1  255 255 255 255
34.3253 -62.3225 0 0 0 -1  255 255 255 255
34.8525 -60.919 0 0 0 -1  255 255 255 255
35.2331 -59.4688 0 0 0 -1  255 255 255 255
35.4631 -57.9873 0 0 0 -1  255 255 255 255
28.4808 -69.5815 11.8304 0.335071 -0.580885 0.741822  255 255 255 255
29.7042 -69.0973 11.274 0.571236 -0.820786 0  255 255 255 255
30.8755 -68.1954 11.274 0.647492 -0.762072 0  255 255 255 255
31.9547 -67.1852 11.274 0.717752 -0.696299 0  255 255 255 255
32.9317 -66.0758 11.274 0.781363 -0.624077 0  255 255 255 255
33.7976 -64.8777 11.274 0.837736 -0.546075 0  255 255 255 255
34.5443 -63.6019 11.274 0.886351 -0.463014 0  255 255 255 255
35.165 -62.2602 11.274 0.926756 -0.375665 0  255 255 255 255
35.6537 -60.8651 11.274 0.958576 -0.284836 0  255 255 255 255
36.0061 -59.4294 11.274 0.981518 -0.191369 0  255 255 255 255
36.2189 -57.9666 11.274 0.995369 -0.09613 0  255 255 255 255
28.0039 -69.8784 11.274 -0.50513 -0.863043 6e-06  255 255 255 255
-28.4618 -69.7814 0.407117 -0.43847 -0.773781 -0.457174  255 255 255 255
-35.4631 -57.9873 0 0 0 -1  255 255 255 255
-35.2331 -59.4688 0 0 0 -1  255 255 255 255
-34.8525 -60.919 0 0 0 -1  255 255 255 255
-34.3253 -62.3225 0 0 0 -1  255 255 255 255
-33.657 -63.6646 0 0 0 -1  255 255 255 255
-32.8547 -64.9311 0 0 0 -1  255 255 255 255
-31.9269 -66.1088 0 0 0 -1  255 255 255 255
-30.8832 -67.1851 0 0 0 -1  255 255 255 255
-29.7347 -68.1489 0 0 0 -1  255 255 255 255
-28.4989 -69.2689 0.040185 -0.164575 -0.277858 -0.94642  255 255 255 255
36.0703 44.0697 2.25 0.707107 -0.707107 0  255 255 255 255
35.54 43.6303 1.71967 0 -0.707107 0.707107  255 255 255 255
36.0703 23.6303 2.25 0.707107 0.707107 0  255 255 255 255
36.29 23.5393 1.18934 1 0 0  255 255 255 255
35.54 24.0697 1.71967 0 0.707107 0.707107  255 255 255 255
36.29 23.1 3.754 1 0 0  255 255 255 255
36.29 23.1 5.258 1 0 0  255 255 255 255
36.29 23.1 6.762 1 0 0  255 255 255 255
36.29 23.1 8.266 1 0 0  255 255 255 255
36.29 23.1 9.77 1 0 0  255 255 255 255
20.93 71.85 9.77057 0 1 0  255 255 255 255
20.93 71.85 8.26714 0 1 0  255 255 255 255
20.93 71.85 6.76371 0 1 0  255 255 255 255
20.93 71.85 5.26029 0 1 0  255 255 255 255
20.93 71.85 3.75686 0 1 0  255 255 255 255
20.93 71.85 2.25343 0 1 0  255 255 255 255
-20.93 71.85 9.77057 0 1 0  255 255 255 255
-20.93 71.85 8.26714 0 1 0  255 255 255 255
-20.93 71.85 6.76371 0 1 0  255 255 255 255
-20.93 71.85 5.26029 0 1 0  255 255 255 255
-20.93 71.85 3.75686 0 1 0  255 255 255 255
-20.93 71.85 2.25343 0 1 0  255 255 255 255
-27.7812 -69.49 9.77057 1 0 0  255 255 255 255
-27.7812 -69.49 8.26714 1 0 0  255 255 255 255
-27.7812 -69.49 6.76371 1 0 0  255 255 255 255
-27.7812 -69.49 5.26029 1 0 0  255 255 255 255
-27.7812 -69.49 3.75686 1 0 0  255 255 255 255
-27.7812 -69.49 2.25343 1 0 0  255 0 0 255
-28.0039 -69.8784 0.75 0.50513 -0.863043 -7.33333e-06  255 0 0 255
28.0039 -69.8784 0.75 -0.50513 -0.863043 -7.33333e-06  255 0 0 255
28.4516 -69.8823 9.77057 0.489688 -0.871898 0  255 255 255 255
28.4516 -69.8823 8.26714 0.489688 -0.871898 0  255 255 255 255
28.4516 -69.8823 6.76371 0.489688 -0.871898 0  255 255 255 255
28.4516 -69.8823 5.26029 0.489688 -0.871898 0  255 255 255 255
28.4516 -69.8823 3.75686 0.489688 -0.871898 0  255 255 255 255
28.4516 -69.8823 2.25343 0.489688 -0.871898 0  255 255 255 255
-27.7812 -68.8175 1.26138 0.717343 -0.302214 0.389625  255 255 255 255
-27.7812 -66.8932 1.5 0.5 0 0.5  255 255 255 255
-27.7812 -65.6104 1.5 0.4 0 0.6  255 255 255 255
36.29 -56.49 9.77057 1 0 0  255 255 255 255
36.29 -56.49 8.26714 1 0 0  255 255 255 255
36.29 -56.49 6.76371 1 0 0  255 255 255 255
36.29 -56.49 5.26029 1 0 0  255 255 255 255
36.29 -56.49 3.75686 1 0 0  255 255 255 255
36.29 -56.49 2.25343 1 0 0  255 255 255 255
32.4454 43.5896 1.68187 -0.160196 -0.326412 0.852397  255 255 255 255
34.14 43.1 1.5 0 0 1  255 255 255 255
32.74 43.1 1.5 0 0 1  255 255 255 255
32.4454 24.1104 1.68187 -0.160196 0.326412 0.852397  255 255 255 255
34.14 24.6 1.5 0 0 1  255 255 255 255
32.74 24.6 1.5 0 0 1  255 255 255 255
34.79 -54.9147 4.95 -1 0 0  255 255 255 255
34.79 -53.3394 4.95 -1 0 0  255 255 255 255
34.79 -51.7641 4.95 -1 0 0  255 255 255 255
34.79 -50.1888 4.95 -1 0 0  255 255 255 255
34.79 -48.6135 4.95 -1 0 0  255 255 255 255
34.79 -47.0382 4.95 -1 0 0  255 255 255 255
34.79 -45.4629 4.95 -1 0 0  255 255 255 255
34.79 -43.8876 4.95 -1 0 0  255 255 255 255
34.79 -42.3124 4.95 -1 0 0  255 255 255 255
34.79 -40.7371 4.95 -1 0 0  255 255 255 255
34.79 -39.1618 4.95 -1 0 0  255 255 255 255
34.79 -37.5865 4.95 -1 0 0  255 255 255 255
34.79 -36.0112 4.95 -1 0 0  255 255 255 255
34.79 -34.4359 4.95 -1 0 0  255 255 255 255
34.79 -32.8606 4.95 -1 0 0  255 255 255 255
34.79 -31.2853 4.95 -1 0 0  255 255 255 255
34.79 -29.71 4.95 -1 0 0  255 255 255 255
34.79 -28.1347 4.95 -1 0 0  255 255 255 255
34.79 -26.5594 4.95 -1 0 0  255 255 255 255
34.79 -24.9841 4.95 -1 0 0  255 255 255 255
34.79 -23.4088 4.95 -1 0 0  255 255 255 255
34.79 -21.8335 4.95 -1 0 0  255 255 255 255
34.79 -20.2582 4.95 -1 0 0  255 255 255 255
34.79 -18.6829 4.95 -1 0 0  255 255 255 255
34.79 -17.1076 4.95 -1 0 0  255 255 255 255
34.79 -15.5324 4.95 -1 0 0  255 255 255 255
34.79 -13.9571 4.95 -1 0 0  255 255 255 255
34.79 -12.3818 4.95 -1 0 0  255 255 255 255
34.79 -10.8065 4.95 -1 0 0  255 255 255 255
34.79 -9.23118 4.95 -1 0 0  255 255 255 255
34.79 -7.65588 4.95 -1 0 0  255 255 255 255
34.79 -6.08059 4.95 -1 0 0  255 255 255 255
34.79 -4.50529 4.95 -1 0 0  255 255 255 255
34.79 -2.93 4.95 -1 0 0  255 255 255 255
34.79 -1.35471 4.95 -1 0 0  255 255 255 255
34.79 0.220588 4.95 -1 0 0  255 255 255 255
34.79 1.79588 4.95 -1 0 0  255 255 255 255
34.79 3.37118 4.95 -1 0 0  255 255 255 255
34.79 4.94647 4.95 -1 0 0  255 255 255 255
34.79 6.52177 4.95 -1 0 0  255 255 255 255
34.79 8.09706 4.95 -1 0 0  255 255 255 255
34.79 9.67235 4.95 -1 0 0  255 255 255 255
34.79 11.2476 4.95 -1 0 0  255 255 255 255
34.79 12.8229 4.95 -1 0 0  255 255 255 255
34.79 14.3982 4.95 -1 0 0  255 255 255 255
34.79 15.9735 4.95 -1 0 0  255 255 255 255
34.79 17.5488 4.95 -1 0 0  255 255 255 255
34.79 19.1241 4.95 -1 0 0  255 255 255 255
34.79 20.6994 4.95 -1 0 0  255 255 255 255
34.79 22.2747 4.95 -1 0 0  255 255 255 255
34.5274 -56.49 3.62974 -0.92388 0 0.382683  255 255 255 255
33.7795 -56.49 2.51048 -0.707107 0 0.707107  255 255 255 255
32.6603 -56.49 1.76262 -0.382683 0 0.92388  255 255 255 255
31.34 -54.9 1.5 0 0 1  255 255 255 255
31.34 -53.31 1.5 0 0 1  255 255 255 255
31.34 -51.72 1.5 0 0 1  255 255 255 255
31.34 -50.13 1.5 0 0 1  255 255 255 255
31.34 -48.54 1.5 0 0 1  255 255 255 255
31.34 -46.95 1.5 0 0 1  255 255 255 255
31.34 -45.36 1.5 0 0 1  255 255 255 255
31.34 -43.77 1.5 0 0 1  255 255 255 255
31.34 -42.18 1.5 0 0 1  255 255 255 255
31.34 -40.59 1.5 0 0 1  255 255 255 255
31.34 -39 1.5 0 0 1  255 255 255 255
31.34 -37.41 1.5 0 0 1  255 255 255 255
31.34 -35.82 1.5 0 0 1  255 255 255 255
31.34 -34.23 1.5 0 0 1  255 255 255 255
31.34 -32.64 1.5 0 0 1  255 255 255 255
31.34 -31.05 1.5 0 0 1  255 255 255 255
31.34 -29.46 1.5 0 0 1  255 255 255 255
31.34 -27.87 1.5 0 0 1  255 255 255 255
31.34 -26.28 1.5 0 0 1  255 255 255 255
31.34 -24.69 1.5 0 0 1  255 255 255 255
31.34 -23.1 1.5 0 0 1  255 255 255 255
31.34 -21.51 1.5 0 0 1  255 255 255 255
31.34 -19.92 1.5 0 0 1  255 255 255 255
31.34 -18.33 1.5 0 0 1  255 255 255 255
31.34 -16.74 1.5 0 0 1  255 255 255 255
31.34 -15.15 1.5 0 0 1  255 255 255 255
31.34 -13.56 1.5 0 0 1  255 255 255 255
31.34 -11.97 1.5 0 0 1  255 255 255 255
31.34 -10.38 1.5 0 0 1  255 255 255 255
31.34 -8.79 1.5 0 0 1  255 255 255 255
31.34 -7.2 1.5 0 0 1  255 255 255 255
31.34 -5.61 1.5 0 0 1  255 255 255 255
31.34 -4.02 1.5 0 0 1  255 255 255 255
31.34 -2.43 1.5 0 0 1  255 255 255 255
31.34 -0.84 1.5 0 0 1  255 255 255 255
31.34 0.75 1.5 0 0 1  255 255 255 255
31.34 2.34 1.5 0 0 1  255 255 255 255
31.34 3.93 1.5 0 0 1  255 255 255 255
31.34 5.52 1.5 0 0 1  255 255 255 255
31.34 7.11 1.5 0 0 1  255 255 255 255
31.34 8.7 1.5 0 0 1  255 255 255 255
31.34 10.29 1.5 0 0 1  255 255 255 255
31.34 11.88 1.5 0 0 1  255 255 255 255
31.34 13.47 1.5 0 0 1  255 255 255 255
31.34 15.06 1.5 0 0 1  255 255 255 255
31.34 16.65 1.5 0 0 1  255 255 255 255
31.34 18.24 1.5 0 0 1  255 255 255 255
31.34 19.83 1.5 0 0 1  255 255 255 255
31.34 21.42 1.5 0 0 1  255 255 255 255
31.34 23.01 1.5 0 0 1  255 255 255 255
28.822 -63.2785 1.5 0 0 1  255 255 255 255
29.7037 -62.0927 1.5 0 0 1  255 255 255 255
30.4086 -60.7939 1.5 0 0 1  255 255 255 255
30.9226 -59.4084 1.5 0 0 1  255 255 255 255
31.2351 -57.964 1.5 0 0 1  255 255 255 255
29.0105 -67.7508 4.95 -0.583007 0.812467 0  255 255 255 255
30.1501 -66.8384 4.95 -0.665228 0.74664 0  255 255 255 255
31.1874 -65.8113 4.95 -0.74007 0.67253 0  255 255 255 255
32.1109 -64.6807 4.95 -0.806701 0.590959 0  255 255 255 255
32.9104 -63.4593 4.95 -0.864384 0.502833 0  255 255 255 255
33.5769 -62.1605 4.95 -0.912477 0.409128 0  255 255 255 255
34.1032 -60.7989 4.95 -0.950448 0.310885 0  255 255 255 255
34.4833 -59.3894 4.95 -0.977874 0.209193 0  255 255 255 255
34.7131 -57.9478 4.95 -0.994453 0.10518 0  255 255 255 255
34.79 -56.49 7.15 -1 0 0  255 255 255 255
34.79 -56.49 6.05 -1 0 0  255 255 255 255
-34.79 -54.9141 8.25 1 0 0  255 255 255 255
-34.79 -53.3382 8.25 1 0 0  255 255 255 255
-34.79 -51.7623 8.25 1 0 0  255 255 255 255
-34.79 -50.1864 8.25 1 0 0  255 255 255 255
-34.79 -48.6105 8.25 1 0 0  255 255 255 255
-34.79 -47.0345 8.25 1 0 0  255 255 255 255
-34.79 -45.4586 8.25 1 0 0  255 255 255 255
-34.79 -43.8827 8.25 1 0 0  255 255 255 255
-34.79 -42.3068 8.25 1 0 0  255 255 255 255
-34.79 -40.7309 8.25 1 0 0  255 255 255 255
-34.79 -39.155 8.25 1 0 0  255 255 255 255
-34.79 -37.5791 8.25 1 0 0  255 255 255 255
-34.79 -36.0032 8.25 1 0 0  255 255 255 255
-34.79 -34.4273 8.25 1 0 0  255 255 255 255
-34.79 -32.8514 8.25 1 0 0  255 255 255 255
-34.79 -31.2755 8.25 1 0 0  255 255 255 255
-34.79 -29.6995 8.25 1 0 0  255 255 255 255
-34.79 -28.1236 8.25 1 0 0  255 255 255 255
-34.79 -26.5477 8.25 1 0 0  255 255 255 255
-34.79 -24.9718 8.25 1 0 0  255 255 255 255
-34.79 -23.3959 8.25 1 0 0  255 255 255 255
-34.79 -21.82 8.25 1 0 0  255 255 255 255
-34.79 -20.2441 8.25 1 0 0  255 255 255 255
-34.79 -18.6682 8.25 1 0 0  255 255 255 255
-34.79 -17.0923 8.25 1 0 0  255 255 255 255
-34.79 -15.5164 8.25 1 0 0  255 255 255 255
-34.79 -13.9405 8.25 1 0 0  255 255 255 255
-34.79 -12.3645 8.25 1 0 0  255 255 255 255
-34.79 -10.7886 8.25 1 0 0  255 255 255 255
-34.79 -9.21273 8.25 1 0 0  255 255 255 255
-34.79 -7.63682 8.25 1 0 0  255 255 255 255
-34.79 -6.06091 8.25 1 0 0  255 255 255 255
-34.79 -4.485 8.25 1 0 0  255 255 255 255
-34.79 -2.90909 8.25 1 0 0  255 255 255 255
-34.79 -1.33318 8.25 1 0 0  255 255 255 255
-34.79 0.242727 8.25 1 0 0  255 255 255 255
-34.79 1.81864 8.25 1 0 0  255 255 255 255
-34.79 3.39455 8.25 1 0 0  255 255 255 255
-34.79 4.97046 8.25 1 0 0  255 255 255 255
-34.79 6.54636 8.25 1 0 0  255 255 255 255
-34.79 8.12227 8.25 1 0 0  255 255 255 255
-34.79 9.69818 8.25 1 0 0  255 255 255 255
-34.79 11.2741 8.25 1 0 0  255 0 0 255
-34.79 56.49 7.15 1 0 0  255 255 255 255
-34.79 56.49 6.05 1 0 0  255 255 255 255
-34.79 55.67 4.95 1 0 0  255 255 255 255
34.7029 58.0418 4.95 -0.993712 -0.111964 0  255 255 255 255
34.4425 59.5741 4.95 -0.974928 -0.222521 0  255 255 255 255
34.0122 61.0677 4.95 -0.943883 -0.330279 0  255 255 255 255
33.4174 62.5036 4.95 -0.900969 -0.433884 0  255 255 255 255
32.6656 63.864 4.95 -0.846724 -0.532032 0  255 255 255 255
31.7662 65.1316 4.95 -0.781831 -0.62349 0  255 255 255 255
30.7305 66.2905 4.95 -0.707107 -0.707107 0  255 255 255 255
29.5716 67.3262 4.95 -0.62349 -0.781831 0  255 255 255 255
28.304 68.2256 4.95 -0.532032 -0.846724 0  255 255 255 255
26.9436 68.9774 4.95 -0.433884 -0.900969 0  255 255 255 255
25.5077 69.5722 4.95 -0.330279 -0.943883 0  255 255 255 255
24.0141 70.0025 4.95 -0.222521 -0.974928 0  255 255 255 255
22.4818 70.2628 4.95 -0.111964 -0.993712 0  255 255 255 255
20.93 70.35 7.15 0 -1 0  255 255 255 255
20.93 70.35 6.05 0 -1 0  255 255 255 255
-20.93 70.35 7.15 0 -1 0  255 255 255 255
-20.93 70.35 6.05 0 -1 0  255 255 255 255
19.3796 70.35 4.95 0 -1 0  255 255 255 255
17.8293 70.35 4.95 0 -1 0  255 255 255 255
16.2789 70.35 4.95 0 -1 0  255 255 255 255
14.7285 70.35 4.95 0 -1 0  255 255 255 255
13.1781 70.35 4.95 0 -1 0  255 255 255 255
11.6278 70.35 4.95 0 -1 0  255 255 255 255
10.0774 70.35 4.95 0 -1 0  255 255 255 255
8.52704 70.35 4.95 0 -1 0  255 255 255 255
6.97667 70.35 4.95 0 -1 0  255 255 255 255
5.4263 70.35 4.95 0 -1 0  255 255 255 255
3.87593 70.35 4.95 0 -1 0  255 255 255 255
2.32556 70.35 4.95 0 -1 0  255 255 255 255
0.775185 70.35 4.95 0 -1 0  255 255 255 255
-0.775185 70.35 4.95 0 -1 0  255 255 255 255
-2.32556 70.35 4.95 0 -1 0  255 255 255 255
-3.87593 70.35 4.95 0 -1 0  255 255 255 255
-5.4263 70.35 4.95 0 -1 0  255 255 255 255
-6.97667 70.35 4.95 0 -1 0  255 255 255 255
-8.52704 70.35 4.95 0 -1 0  255 255 255 255
-10.0774 70.35 4.95 0 -1 0  255 255 255 255
-11.6278 70.35 4.95 0 -1 0  255 255 255 255
-13.1781 70.35 4.95 0 -1 0  255 255 255 255
-14.7285 70.35 4.95 0 -1 0  255 255 255 255
-16.2789 70.35 4.95 0 -1 0  255 255 255 255
-17.8293 70.35 4.95 0 -1 0  255 255 255 255
-19.3796 70.35 4.95 0 -1 0  255 255 255 255
-22.4818 70.2628 4.95 0.111964 -0.993712 0  255 255 255 255
-24.0141 70.0025 4.95 0.222521 -0.974928 0  255 255 255 255
-25.5077 69.5722 4.95 0.330279 -0.943883 0  255 255 255 255
-26.9436 68.9774 4.95 0.433884 -0.900969 0  255 255 255 255
-28.304 68.2256 4.95 0.532032 -0.846724 0  255 255 255 255
-29.5716 67.3262 4.95 0.62349 -0.781831 0  255 255 255 255
-30.7305 66.2905 4.95 0.707107 -0.707107 0  255 255 255 255
-31.7662 65.1316 4.95 0.781831 -0.62349 0  255 255 255 255
-32.6656 63.864 4.95 0.846724 -0.532032 0  255 255 255 255
-33.4174 62.5036 4.95 0.900969 -0.433884 0  255 255 255 255
-34.0122 61.0677 4.95 0.943883 -0.330279 0  255 255 255 255
-34.4425 59.5741 4.95 0.974928 -0.222521 0  255 255 255 255
-34.7029 58.0418 4.95 0.993712 -0.111964 0  255 255 255 255
-27.2836 -68.0894 1.5 0 0 1  255 255 255 255
31.34 44.5878 1.5 0 0 1  255 255 255 255
31.34 46.0756 1.5 0 0 1  255 255 255 255
31.34 47.5633 1.5 0 0 1  255 255 255 255
31.34 49.0511 1.5 0 0 1  255 255 255 255
31.34 50.5389 1.5 0 0 1  255 255 255 255
31.34 52.0267 1.5 0 0 1  255 255 255 255
31.34 53.5144 1.5 0 0 1  255 255 255 255
31.34 55.0022 1.5 0 0 1  255 255 255 255
31.234 57.9715 1.5 0 0 1  255 255 255 255
30.9183 59.4228 1.5 0 0 1  255 255 255 255
30.3993 60.8145 1.5 0 0 1  255 255 255 255
29.6874 62.1181 1.5 0 0 1  255 255 255 255
28.7974 63.3071 1.5 0 0 1  255 255 255 255
27.7471 64.3574 1.5 0 0 1  255 255 255 255
26.5581 65.2475 1.5 0 0 1  255 255 255 255
25.2545 65.9593 1.5 0 0 1  255 255 255 255
23.8628 66.4783 1.5 0 0 1  255 255 255 255
22.4115 66.794 1.5 0 0 1  255 255 255 255
19.3796 66.9 1.5 0 0 1  255 255 255 255
17.8293 66.9 1.5 0 0 1  255 255 255 255
16.2789 66.9 1.5 0 0 1  255 255 255 255
14.7285 66.9 1.5 0 0 1  255 255 255 255
13.1781 66.9 1.5 0 0 1  255 255 255 255
11.6278 66.9 1.5 0 0 1  255 255 255 255
10.0774 66.9 1.5 0 0 1  255 255 255 255
8.52704 66.9 1.5 0 0 1  255 255 255 255
6.97667 66.9 1.5 0 0 1  255 255 255 255
5.4263 66.9 1.5 0 0 1  255 255 255 255
3.87593 66.9 1.5 0 0 1  255 255 255 255
2.32556 66.9 1.5 0 0 1  255 255 255 255
0.775185 66.9 1.5 0 0 1  255 255 255 255
-0.775185 66.9 1.5 0 0 1  255 255 255 255
-2.32556 66.9 1.5 0 0 1  255 255 255 255
-3.87593 66.9 1.5 0 0 1  255 255 255 255
-5.4263 66.9 1.5 0 0 1  255 255 255 255
-6.97667 66.9 1.5 0 0 1  255 255 255 255
-8.52704 66.9 1.5 0 0 1  255 255 255 255
-10.0774 66.9 1.5 0 0 1  255 255 255 255
-11.6278 66.9 1.5 0 0 1  255 255 255 255
-13.1781 66.9 1.5 0 0 1  255 255 255 255
-14.7285 66.9 1.5 0 0 1  255 255 255 255
-16.2789 66.9 1.5 0 0 1  255 255 255 255
-17.8293 66.9 1.5 0 0 1  255 255 255 255
-19.3796 66.9 1.5 0 0 1  255 255 255 255
-22.4115 66.794 1.5 0 0 1  255 255 255 255
-23.8628 66.4783 1.5 0 0 1  255 255 255 255
-25.2545 65.9593 1.5 0 0 1  255 255 255 255
-26.5581 65.2475 1.5 0 0 1  255 255 255 255
-27.7471 64.3574 1.5 0 0 1  255 255 255 255
-28.7974 63.3071 1.5 0 0 1  255 255 255 255
-29.6874 62.1181 1.5 0 0 1  255 255 255 255
-30.3993 60.8145 1.5 0 0 1  255 255 255 255
-30.9183 59.4228 1.5 0 0 1  255 255 255 255
-31.234 57.9715 1.5 0 0 1  255 255 255 255
-31.34 55.295 1.5 0 0 1  255 255 255 255
-27.8291 -68.1966 0 0 0 -1  255 255 255 255
33.6918 -51.0829 11.6758 -0.835301 -0.234072 0.282843  255 0 0 255
-28.2677 -69.4283 0.09217 0.179037 -0.310711 -0.93349  255 255 255 255
-28.2843 -69.1604 0.038898 0.315041 -0.0423412 -0.948133  255 255 255 255
-27.864 -69.4333 0.407542 0.889669 -2.5e-06 -0.456607  255 255 255 255
34.5274 56.49 3.62974 -0.92388 0 0.382683  255 255 255 255
33.7795 56.49 2.51048 -0.707107 0 0.707107  255 255 255 255
32.6603 56.49 1.76262 -0.382683 0 0.92388  255 255 255 255
-34.5274 56.49 3.62974 0.92388 0 0.382683  255 255 255 255
-33.7795 56.49 2.51048 0.707107 0 0.707107  255 255 255 255
-32.6603 56.49 1.76262 0.382683 0 0.92388  255 255 255 255
-20.93 70.0874 3.62974 0 -0.92388 0.382683  255 255 255 255
-20.93 69.3395 2.51048 0 -0.707107 0.707107  255 255 255 255
-20.93 68.2203 1.76262 0 -0.382683 0.92388  255 255 255 255
20.93 70.0874 3.62974 0 -0.92388 0.382683  255 255 255 255
20.93 69.3395 2.51048 0 -0.707107 0.707107  255 255 255 255
20.93 68.2203 1.76262 0 -0.382683 0.92388  255 255 255 255
27.864 -69.4333 0.407542 -0.889669 -2.5e-06 -0.456607  255 255 255 255
28.2677 -69.4283 0.09217 -0.179037 -0.310711 -0.93349  255 255 255 255
-27.8584 -69.2884 0.418735 0.897169 0 -0.441686  255 255 255 255
-31.0119 -64.6463 2.63508 0.576445 0.466349 0.670992  255 255 255 255
-33.6314 -59.2172 2.66055 0.731411 0.157047 0.663607  255 255 255 255
-32.0191 -63.4935 2.80925 0.663038 0.418751 0.620506  255 255 255 255
-33.2437 -60.5502 2.63257 0.703548 0.23198 0.671718  255 255 255 255
-30.1179 -65.5103 2.5369 0.509986 0.500685 0.699449  255 255 255 255
-32.7076 -61.9473 2.64892 0.676027 0.313248 0.666981  255 255 255 255
-30.1303 -66.4184 3.48988 0.615826 0.664559 0.423225  255 255 255 255
-32.8214 -58.3367 1.90612 0.465141 0.072235 0.882285  255 255 255 255
-34.3882 -58.6803 3.72523 0.922725 0.150169 0.355004  255 255 255 255
-29.2214 -67.2458 3.59006 0.561094 0.727867 0.394187  255 255 255 255
-32.6058 -57.2274 1.74986 0.372888 0.023551 0.927578  255 255 255 255
-34.5225 -57.3492 3.68478 0.928474 0.05869 0.36673  255 255 255 255
-28.4118 -67.9255 3.80811 0.516635 0.789645 0.330981  255 255 255 255
-29.0125 -65.0216 1.77181 0.267568 0.282436 0.921215  255 255 255 255
-32.517 -59.5465 1.87964 0.440955 0.116318 0.88996  255 255 255 255
-30.9165 -65.6667 3.54841 0.672828 0.618269 0.406259  255 255 255 255
-30.587 -63.4334 1.83551 0.34926 0.251116 0.90275  255 255 255 255
-31.3593 -62.1533 1.82312 0.371331 0.201639 0.906341  255 255 255 255
-33.0391 -62.8203 3.80346 0.835841 0.436951 0.332331  255 255 255 255
-31.98 -60.772 1.8152 0.389371 0.150886 0.908638  255 255 255 255
-33.63 -61.4571 3.72933 0.871062 0.34068 0.353818  255 255 255 255
-29.9846 -64.4398 1.91434 0.357063 0.313493 0.879902  255 255 255 255
-31.7589 -64.8031 3.76984 0.745366 0.572201 0.342075  255 255 255 255
-33.8703 -57.9461 2.69612 0.752351 0.084659 0.6533  255 255 255 255
-29.1038 -66.3257 2.4512 0.440685 0.530283 0.72429  255 255 255 255
-34.0869 -60.063 3.72028 0.901662 0.244862 0.356439  255 255 255 255
-30.6612 -66.2486 4.21786 0.690027 0.691974 0.212213  255 255 255 255
-32.4793 -63.9216 4.02493 0.810151 0.521305 0.268136  255 255 255 255
-33.3285 -57.5127 2.16092 0.586603 0.048386 0.808428  255 255 255 255
-31.9174 -58.8267 1.59963 0.233368 0.049631 0.971121  255 255 255 255
-33.5076 -52.6288 2.26601 0.628304 0 0.777968  255 255 255 255
-33.7328 -50.0783 2.46466 0.693571 0 0.720389  255 255 255 255
-33.7607 -48.5386 2.49178 0.701643 0 0.712529  255 255 255 255
-33.7764 -45.3942 2.50741 0.706215 0 0.707997  255 255 255 255
-33.779 -42.2293 2.50998 0.706961 0 0.707253  255 255 255 255
-33.7793 -40.6454 2.51028 0.707048 0 0.707166  255 255 255 255
-33.7795 -37.4768 2.51045 0.707097 0 0.707116  255 255 255 255
-33.7795 -34.308 2.51048 0.707105 0 0.707108  255 255 255 255
-33.7795 -32.7235 2.51048 0.707106 0 0.707107  255 255 255 255
-33.7795 -31.1391 2.51048 0.707107 0 0.707107  255 255 255 255
-33.7795 -29.5547 2.51048 0.707107 0 0.707107  255 255 255 255
-33.7795 -26.3858 2.51048 0.707107 0 0.707107  255 255 255 255
-33.7795 -24.8014 2.51048 0.707107 0 0.707107  255 255 255 255
-33.7795 -23.2169 2.51048 0.707107 0 0.707107  255 255 255 255
-33.7795 -21.6325 2.51048 0.707107 0 0.707107  255 255 255 255
-33.7795 -18.4636 2.51048 0.707107 0 0.707107  255 255 255 255
-33.7795 -15.2948 2.51048 0.707107 0 0.707107  255 255 255 255
-33.7795 -13.7103 2.51048 0.707107 0 0.707107  255 255 255 255
-33.7795 -12.1259 2.51048 0.707107 0 0.707107  255 255 255 255
-33.7795 -10.5415 2.51048 0.707107 0 0.707106  255 255 255 255
-33.7795 -8.95706 2.51049 0.707108 0 0.707105  255 255 255 255
-33.7795 -7.37263 2.51049 0.70711 0 0.707103  255 255 255 255
-33.7795 -5.78821 2.51051 0.707116 0 0.707098  255 255 255 255
-33.7796 -4.20381 2.51056 0.70713 0 0.707084  255 255 255 255
-33.7797 -2.61946 2.51068 0.707163 0 0.70705  255 255 255 255
-33.78 -1.03522 2.51096 0.707246 0 0.706967  255 255 255 255
-33.7807 0.548731 2.51167 0.707452 0 0.706762  255 255 255 255
-33.7825 2.13197 2.51343 0.707959 0 0.706253  255 255 255 255
-33.7868 3.71344 2.51777 0.709212 0 0.704995  255 255 255 255
-33.7974 5.29042 2.52852 0.712297 0 0.701878  255 255 255 255
-33.8234 6.85504 2.55516 0.719824 0 0.694157  255 255 255 255
-33.8848 8.37512 2.62054 0.737629 0 0.675206  255 255 255 255
-34.0135 9.63106 2.76941 0.774925 0 0.632054  255 255 255 255
-33.6719 10.7793 2.40745 0.675923 0 0.736972  255 255 255 255
-33.7795 -16.8792 2.51048 0.707107 0 0.707107  255 255 255 255
-33.7795 -20.0481 2.51048 0.707107 0 0.707107  255 255 255 255
-33.7795 -27.9702 2.51048 0.707107 0 0.707107  255 255 255 255
-33.7795 -35.8924 2.51047 0.707103 0 0.707111  255 255 255 255
-33.7794 -39.0611 2.5104 0.707083 0 0.707131  255 255 255 255
-33.7783 -43.8126 2.50924 0.706746 0 0.707467  255 255 255 255
-33.7719 -46.9716 2.50289 0.7049 0 0.709306  255 255 255 255
-33.6644 -51.5359 2.40052 0.673729 0 0.738979  255 255 255 255
-33.7059 -53.6316 2.43906 0.68578 0 0.727809  255 255 255 255
-32.6639 -54.2655 1.76413 0.383744 0 0.92344  255 255 255 255
-34.4972 -54.1653 3.55899 0.915116 0 0.403191  255 255 255 255
-34.2947 11.5867 3.16898 0.856445 0 0.516238  255 255 255 255
-32.7491 11.6711 1.8009 0.408446 0 0.912783  255 255 255 255
-34.5203 -55.5842 3.61281 0.921832 0 0.38759  255 255 255 255
-32.6558 -55.5981 1.76076 0.381381 0 0.924418  255 255 255 255
-34.66 11.8196 4.01191 0.962323 0 0.27191  255 255 255 255
-34.5374 10.5372 3.65428 0.926794 0 0.37557  255 255 255 255
-34.5634 8.97122 3.72024 0.934313 0 0.356453  255 255 255 255
-34.5485 7.46352 3.682 0.930009 0 0.367536  255 255 255 255
-34.5372 5.91108 3.65371 0.926727 0 0.375735  255 255 255 255
-34.5316 4.34067 3.63994 0.925098 0 0.379728  255 255 255 255
-34.5291 2.7641 3.63395 0.924384 0 0.381463  255 255 255 255
-32.8105 -53.2064 1.82907 0.426227 0 0.904616  255 255 255 255
-34.5281 1.18531 3.63146 0.924086 0 0.382185  255 255 255 255
-34.5277 -0.394318 3.63044 0.923963 0 0.382481  255 255 255 255
-34.5275 -1.97427 3.63002 0.923913 0 0.382602  255 255 255 255
-34.5274 -3.55435 3.62986 0.923893 0 0.38265  255 255 255 255
-34.5274 -5.13449 3.62979 0.923885 0 0.38267  255 255 255 255
-34.5274 -6.71464 3.62976 0.923882 0 0.382678  255 255 255 255
-34.5274 -8.29481 3.62975 0.92388 0 0.382681  255 255 255 255
-34.5274 -9.87498 3.62975 0.92388 0 0.382683  255 255 255 255
-34.5274 -11.4551 3.62974 0.92388 0 0.382683  255 255 255 255
-34.5274 -13.0353 3.62974 0.92388 0 0.382683  255 255 255 255
-34.5274 -14.6155 3.62974 0.92388 0 0.382683  255 255 255 255
-34.5274 -16.1957 3.62974 0.92388 0 0.382683  255 255 255 255
-34.5274 -17.7758 3.62974 0.92388 0 0.382683  255 255 255 255
-34.5274 -19.356 3.62974 0.92388 0 0.382683  255 255 255 255
-34.5274 -20.9362 3.62974 0.92388 0 0.382683  255 255 255 255
-34.5274 -22.5163 3.62974 0.92388 0 0.382683  255 255 255 255
-34.5274 -24.0965 3.62974 0.92388 0 0.382683  255 255 255 255
-34.5274 -25.6767 3.62974 0.92388 0 0.382683  255 255 255 255
-34.5274 -27.2568 3.62974 0.92388 0 0.382683  255 255 255 255
-34.5274 -28.837 3.62974 0.92388 0 0.382683  255 255 255 255
-34.5274 -30.4172 3.62974 0.923879 0 0.382684  255 255 255 255
-34.5274 -31.9974 3.62974 0.923879 0 0.382684  255 255 255 255
-34.5274 -33.5775 3.62974 0.923879 0 0.382684  255 255 255 255
-34.5274 -35.1577 3.62973 0.923879 0 0.382686  255 255 255 255
-34.5274 -36.7379 3.62972 0.923877 0 0.382689  255 255 255 255
-34.5274 -38.318 3.62969 0.923874 0 0.382697  255 255 255 255
-34.5273 -39.8981 3.62962 0.923865 0 0.382718  255 255 255 255
-34.5273 -41.478 3.62945 0.923844 0 0.382769  255 255 255 255
-34.5271 -43.0577 3.62901 0.923791 0 0.382896  255 255 255 255
-34.5266 -44.6366 3.62792 0.923661 0 0.383212  255 255 255 255
-34.5255 -46.2138 3.62518 0.923331 0 0.384006  255 255 255 255
-34.5226 -47.7869 3.61814 0.92248 0 0.386045  255 255 255 255
-34.5146 -49.3524 3.59919 0.920162 0 0.391538  255 255 255 255
-34.4901 -50.9139 3.54318 0.913083 0 0.407774  255 255 255 255
-34.3971 -52.568 3.35113 0.886128 0 0.46344  255 255 255 255
-32.5962 -52.2019 1.73685 0.364129 0 0.931349  255 255 255 255
-32.6109 -50.8249 1.7426 0.368366 0 0.929681  255 255 255 255
-32.6361 -49.3039 1.75272 0.375682 0 0.926749  255 255 255 255
-32.6498 -47.7383 1.75829 0.37964 0 0.925134  255 255 255 255
-32.6559 -46.1581 1.76081 0.381416 0 0.924404  255 255 255 255
-32.6585 -44.5726 1.76188 0.382164 0 0.924094  255 255 255 255
-32.6595 -42.9852 1.76231 0.382472 0 0.923967  255 255 255 255
-32.66 -41.3971 1.76249 0.382598 0 0.923915  255 255 255 255
-32.6601 -39.8086 1.76257 0.382649 0 0.923894  255 255 255 255
-32.6602 -38.22 1.7626 0.382669 0 0.923885  255 255 255 255
-32.6602 -36.6313 1.76261 0.382678 0 0.923882  255 255 255 255
-32.6603 -35.0426 1.76261 0.382681 0 0.92388  255 255 255 255
-32.6603 -33.4539 1.76261 0.382683 0 0.92388  255 255 255 255
-32.6603 -31.8653 1.76261 0.382683 0 0.92388  255 255 255 255
-32.6603 -30.2766 1.76261 0.382683 0 0.92388  255 255 255 255
-32.6603 -28.6879 1.76262 0.382683 0 0.92388  255 255 255 255
-32.6603 -27.0992 1.76262 0.382683 0 0.92388  255 255 255 255
-32.6603 -25.5105 1.76262 0.382683 0 0.92388  255 255 255 255
-32.6603 -23.9218 1.76262 0.382683 0 0.92388  255 255 255 255
-32.6603 -22.3331 1.76262 0.382683 0 0.92388  255 255 255 255
-32.6603 -20.7444 1.76262 0.382683 0 0.92388  255 255 255 255
-32.6603 -19.1557 1.76262 0.382683 0 0.92388  255 255 255 255
-32.6603 -17.567 1.76262 0.382683 0 0.92388  255 255 255 255
-32.6603 -15.9783 1.76262 0.382683 0 0.92388  255 255 255 255
-32.6603 -14.3896 1.76262 0.382683 0 0.92388  255 255 255 255
-32.6603 -12.8009 1.76262 0.382684 0 0.923879  255 255 255 255
-32.6603 -11.2122 1.76262 0.382684 0 0.923879  255 255 255 255
-32.6603 -9.62356 1.76262 0.382684 0 0.923879  255 255 255 255
-32.6603 -8.03487 1.76262 0.382686 0 0.923879  255 255 255 255
-32.6603 -6.44618 1.76262 0.382689 0 0.923877  255 255 255 255
-32.6603 -4.8575 1.76263 0.382697 0 0.923874  255 255 255 255
-32.6604 -3.26884 1.76266 0.382717 0 0.923866  255 255 255 255
-32.6605 -1.68024 1.76273 0.382765 0 0.923846  255 255 255 255
-32.661 -0.091757 1.76291 0.382887 0 0.923795  255 255 255 255
-32.662 1.49641 1.76334 0.383188 0 0.92367  255 255 255 255
-32.6646 3.08384 1.76442 0.383942 0 0.923357  255 255 255 255
-32.6712 4.66964 1.76718 0.385859 0 0.922558  255 255 255 255
-32.6887 6.25266 1.77453 0.390916 0 0.920427  255 255 255 255
-32.7383 7.83744 1.79606 0.405297 0 0.914185  255 255 255 255
-32.8997 9.49248 1.87268 0.452082 0 0.891977  255 255 255 255
-32.7089 10.5892 1.78321 0.396789 0 0.91791  255 255 255 255
-33.756 -54.9558 2.48717 0.700286 0 0.713863  255 255 255 255
-33.8075 11.9474 2.53877 0.715212 0 0.698908  255 255 255 255
-35.0548 13.0697 1.71967 0 0.707107 0.707107  255 255 255 255
-35.0548 54.6303 1.71967 0 -0.707107 0.707107  255 255 255 255
27.7082 -68.9531 0.469238 -0.692887 -0.616255 -0.374349  255 255 255 255
28.0848 -68.9911 0.109286 -0.483524 -0.190794 -0.854285  255 255 255 255
27.362 -68.4342 1.41585 -0.016548 -0.45994 0.887796  255 255 255 255
27.7812 -68.1675 2.49839 -1 0 0  255 255 255 255
27.7812 -69.2276 1.37849 -1 0 0  255 255 255 255
27.7812 -68.8037 1.98154 -1 0 0  255 255 255 255
27.7812 -69.0141 10.5029 -1 0 0  255 255 255 255
27.7812 -69.0141 8.96068 -1 0 0  255 255 255 255
27.7812 -69.0141 7.41846 -1 0 0  255 255 255 255
27.7812 -69.0141 5.87625 -1 0 0  255 255 255 255
27.7812 -67.6037 1.96597 -1 0 0  255 255 255 255
27.7812 -68.9439 2.99755 -1 0 0  255 255 255 255
27.7812 -69.0035 4.40673 -1 0 0  255 255 255 255
34.7766 23.85 9.96717 0 1 0  255 255 255 255
34.2371 23.85 10.776 0 1 0  255 255 255 255
35.165 23.85 5.62036 0 1 0  255 255 255 255
35.1607 23.85 4.30773 0 1 0  255 255 255 255
35.1101 23.85 8.52423 0 1 0  255 255 255 255
34.0187 23.85 9.69814 0 1 0  255 255 255 255
34.9154 23.85 2.88259 0 1 0  255 255 255 255
34.5891 23.85 9.33541 0 1 0  255 255 255 255
34.3411 23.85 2.70844 0 1 0  255 255 255 255
34.8393 23.85 11.3629 0 1 0  255 255 255 255
34.7766 43.85 9.96717 0 -1 0  255 255 255 255
34.2371 43.85 10.776 0 -1 0  255 255 255 255
35.165 43.85 5.62036 0 -1 0  255 255 255 255
35.1607 43.85 4.30773 0 -1 0  255 255 255 255
35.1101 43.85 8.52423 0 -1 0  255 255 255 255
34.0187 43.85 9.69814 0 -1 0  255 255 255 255
34.9154 43.85 2.88259 0 -1 0  255 255 255 255
34.5891 43.85 9.33541 0 -1 0  255 255 255 255
34.3411 43.85 2.70844 0 -1 0  255 255 255 255
34.8393 43.85 11.3629 0 -1 0  255 255 255 255
-34.7766 54.85 9.96717 0 -1 0  255 255 255 255
-34.2371 54.85 10.776 0 -1 0  255 255 255 255
-35.165 54.85 5.62036 0 -1 0  255 255 255 255
-35.1607 54.85 4.30773 0 -1 0  255 255 255 255
-35.1101 54.85 8.52423 0 -1 0  255 255 255 255
-34.0187 54.85 9.69814 0 -1 0  255 255 255 255
-34.9154 54.85 2.88259 0 -1 0  255 255 255 255
-34.5891 54.85 9.33541 0 -1 0  255 255 255 255
-34.3411 54.85 2.70844 0 -1 0  255 255 255 255
-34.8393 54.85 11.3629 0 -1 0  255 255 255 255
-34.7766 12.85 9.96717 0 1 0  255 255 255 255
-34.2371 12.85 10.776 0 1 0  255 255 255 255
-35.165 12.85 5.62036 0 1 0  255 255 255 255
-35.1607 12.85 4.30773 0 1 0  255 255 255 255
-35.1101 12.85 8.52423 0 1 0  255 255 255 255
-34.0187 12.85 9.69814 0 1 0  255 255 255 255
-34.9154 12.85 2.88259 0 1 0  255 255 255 255
-34.5891 12.85 9.33541 0 1 0  255 255 255 255
-34.3411 12.85 2.70844 0 1 0  255 255 255 255
-34.8393 12.85 11.3629 0 1 0  255 255 255 255
-33.665 12.0604 9 0 0 -1  255 255 255 255
-33.6636 10.4823 9 0 0 -1  255 255 255 255
-33.665 8.9022 9 0 0 -1  255 255 255 255
-33.665 7.32308 9 0 0 -1  255 255 255 255
-33.665 5.74396 9 0 0 -1  255 255 255 255
-33.665 4.16484 9 0 0 -1  255 255 255 255
-33.665 2.58572 9 0 0 -1  255 255 255 255
-33.665 1.0066 9 0 0 -1  255 255 255 255
-33.665 -0.572521 9 0 0 -1  255 255 255 255
-33.665 -2.15164 9 0 0 -1  255 255 255 255
-33.665 -3.73076 9 0 0 -1  255 255 255 255
-33.665 -5.30988 9 0 0 -1  255 255 255 255
-33.665 -6.889 9 0 0 -1  255 255 255 255
-33.665 -8.46812 9 0 0 -1  255 255 255 255
-33.665 -10.0472 9 0 0 -1  255 255 255 255
-33.665 -11.6264 9 0 0 -1  255 255 255 255
-33.665 -13.2055 9 0 0 -1  255 255 255 255
-33.665 -14.7846 9 0 0 -1  255 255 255 255
-33.665 -16.3637 9 0 0 -1  255 255 255 255
-33.665 -17.9428 9 0 0 -1  255 255 255 255
-33.665 -19.522 9 0 0 -1  255 255 255 255
-33.665 -21.1011 9 0 0 -1  255 255 255 255
-33.665 -22.6802 9 0 0 -1  255 255 255 255
-33.665 -24.2593 9 0 0 -1  255 255 255 255
-33.665 -25.8384 9 0 0 -1  255 255 255 255
-33.665 -27.4176 9 0 0 -1  255 255 255 255
-33.665 -28.9967 9 0 0 -1  255 255 255 255
-33.665 -30.5758 9 0 0 -1  255 255 255 255
-33.665 -32.1549 9 0 0 -1  255 255 255 255
-33.665 -33.734 9 0 0 -1  255 255 255 255
-33.665 -35.3132 9 0 0 -1  255 255 255 255
-33.665 -36.8923 9 0 0 -1  255 255 255 255
-33.665 -38.4714 9 0 0 -1  255 255 255 255
-33.665 -40.0505 9 0 0 -1  255 255 255 255
-33.665 -41.6296 9 0 0 -1  255 255 255 255
-33.665 -43.2088 9 0 0 -1  255 255 255 255
-33.665 -44.7879 9 0 0 -1  255 255 255 255
-33.665 -46.367 9 0 0 -1  255 255 255 255
-33.7348 -48.0672 9 0 0 -1  255 255 255 255
-33.734 -49.6476 9 0 0 -1  255 255 255 255
-33.5885 -49.3344 9 0 0 -1  255 255 255 255
-33.5887 -47.7556 9 0 0 -1  255 255 255 255
-33.29 -30.5097 10.137 1 0 0  255 255 255 255
-33.29 -6.85895 10.137 1 0 0  255 255 255 255
-33.29 5.75478 10.137 1 0 0  255 255 255 255
-33.29 10.4678 10.1361 1 0 0  255 255 255 255
-33.29 -47.8365 10.1361 1 0 0  255 255 255 255
-33.29 -46.2768 10.137 1 0 0  255 255 255 255
-33.29 -44.7001 10.137 1 0 0  255 255 255 255
-33.29 -41.5467 10.137 1 0 0  255 255 255 255
-33.29 -39.97 10.137 1 0 0  255 255 255 255
-33.29 -38.3933 10.137 1 0 0  255 255 255 255
-33.29 -36.8166 10.137 1 0 0  255 255 255 255
-33.29 -35.2398 10.137 1 0 0  255 255 255 255
-33.29 -33.6631 10.137 1 0 0  255 255 255 255
-33.29 -27.3563 10.137 1 0 0  255 255 255 255
-33.29 -25.7795 10.137 1 0 0  255 255 255 255
-33.29 -24.2028 10.137 1 0 0  255 255 255 255
-33.29 -21.0494 10.137 1 0 0  255 255 255 255
-33.29 -16.3192 10.137 1 0 0  255 255 255 255
-33.29 -14.7425 10.137 1 0 0  255 255 255 255
-33.29 -11.5891 10.137 1 0 0  255 255 255 255
-33.29 -10.0124 10.137 1 0 0  255 255 255 255
-33.29 -8.43566 10.137 1 0 0  255 255 255 255
-33.29 -5.28223 10.137 1 0 0  255 255 255 255
-33.29 -3.70552 10.137 1 0 0  255 255 255 255
-33.29 -2.1288 10.137 1 0 0  255 255 255 255
-33.29 -0.552085 10.137 1 0 0  255 255 255 255
-33.29 1.02463 10.137 1 0 0  255 255 255 255
-33.29 2.60135 10.137 1 0 0  255 255 255 255
-33.29 4.17806 10.137 1 0 0  255 255 255 255
-33.29 8.90821 10.137 1 0 0  255 255 255 255
-33.29 -43.1234 10.137 1 0 0  255 255 255 255
-33.29 -32.0864 10.137 1 0 0  255 255 255 255
-33.29 -28.933 10.137 1 0 0  255 255 255 255
-33.29 -22.6261 10.137 1 0 0  255 255 255 255
-33.29 -19.4727 10.137 1 0 0  255 255 255 255
-33.29 -17.896 10.137 1 0 0  255 255 255 255
-33.29 -13.1658 10.137 1 0 0  255 255 255 255
-33.29 7.33149 10.137 1 0 0  255 255 255 255
-33.29 11.7351 10.1208 1 0 0  255 255 255 255
-33.29 -49.1038 10.1208 1 0 0  255 255 255 255
33.665 23.061 9 0 0 -1  255 255 255 255
33.6638 21.4839 9 0 0 -1  255 255 255 255
33.665 19.905 9 0 0 -1  255 255 255 255
33.665 18.327 9 0 0 -1  255 255 255 255
33.665 16.749 9 0 0 -1  255 255 255 255
33.665 15.1711 9 0 0 -1  255 255 255 255
33.665 13.5931 9 0 0 -1  255 255 255 255
33.665 12.0151 9 0 0 -1  255 255 255 255
33.665 10.4371 9 0 0 -1  255 255 255 255
33.665 8.85909 9 0 0 -1  255 255 255 255
33.665 7.2811 9 0 0 -1  255 255 255 255
33.665 5.70311 9 0 0 -1  255 255 255 255
33.665 4.12512 9 0 0 -1  255 255 255 255
33.665 2.54713 9 0 0 -1  255 255 255 255
33.665 0.969141 9 0 0 -1  255 255 255 255
33.665 -0.608849 9 0 0 -1  255 255 255 255
33.665 -2.18684 9 0 0 -1  255 255 255 255
33.665 -3.76483 9 0 0 -1  255 255 255 255
33.665 -5.34282 9 0 0 -1  255 255 255 255
33.665 -6.92081 9 0 0 -1  255 255 255 255
33.665 -8.4988 9 0 0 -1  255 255 255 255
33.665 -10.0768 9 0 0 -1  255 255 255 255
33.665 -11.6548 9 0 0 -1  255 255 255 255
33.665 -13.2328 9 0 0 -1  255 255 255 255
33.665 -14.8108 9 0 0 -1  255 255 255 255
33.665 -16.3888 9 0 0 -1  255 255 255 255
33.665 -17.9667 9 0 0 -1  255 255 255 255
33.665 -19.5447 9 0 0 -1  255 255 255 255
33.665 -21.1227 9 0 0 -1  255 255 255 255
33.665 -22.7007 9 0 0 -1  255 255 255 255
33.665 -24.2787 9 0 0 -1  255 255 255 255
33.665 -25.8567 9 0 0 -1  255 255 255 255
33.665 -27.4347 9 0 0 -1  255 255 255 255
33.665 -29.0127 9 0 0 -1  255 255 255 255
33.665 -30.5907 9 0 0 -1  255 255 255 255
33.665 -32.1687 9 0 0 -1  255 255 255 255
33.665 -33.7466 9 0 0 -1  255 255 255 255
33.665 -35.3246 9 0 0 -1  255 255 255 255
33.665 -36.9026 9 0 0 -1  255 255 255 255
33.665 -38.4806 9 0 0 -1  255 255 255 255
33.665 -40.0586 9 0 0 -1  255 255 255 255
33.665 -41.6366 9 0 0 -1  255 255 255 255
33.665 -43.2146 9 0 0 -1  255 255 255 255
33.665 -44.7926 9 0 0 -1  255 255 255 255
33.665 -46.3706 9 0 0 -1  255 255 255 255
33.7344 -48.0702 9 0 0 -1  255 255 255 255
33.7337 -49.6493 9 0 0 -1  255 255 255 255
33.5884 -49.3358 9 0 0 -1  255 255 255 255
33.5886 -47.758 9 0 0 -1  255 255 255 255
33.29 -6.88061 10.137 -1 0 0  255 255 255 255
33.29 -0.57689 10.137 -1 0 0  255 255 255 255
33.29 -46.2788 10.137 -1 0 0  255 255 255 255
33.29 5.72682 10.137 -1 0 0  255 255 255 255
33.29 12.0305 10.137 -1 0 0  255 255 255 255
33.29 -39.9751 10.137 -1 0 0  255 255 255 255
33.29 -33.6714 10.137 -1 0 0  255 255 255 255
33.29 -27.3677 10.137 -1 0 0  255 255 255 255
33.29 -21.064 10.137 -1 0 0  255 255 255 255
33.29 -13.1843 10.137 -1 0 0  255 255 255 255
33.29 -8.45653 10.137 -1 0 0  255 255 255 255
33.29 -19.488 10.137 -1 0 0  255 255 255 255
33.29 -2.15282 10.137 -1 0 0  255 255 255 255
33.29 -25.7917 10.137 -1 0 0  255 255 255 255
33.29 4.1509 10.137 -1 0 0  255 255 255 255
33.29 19.9102 10.137 -1 0 0  255 255 255 255
33.29 13.6065 10.137 -1 0 0  255 255 255 255
33.29 16.7583 10.137 -1 0 0  255 255 255 255
33.29 7.30275 10.137 -1 0 0  255 255 255 255
33.29 -44.7029 10.137 -1 0 0  255 255 255 255
33.29 -28.9436 10.137 -1 0 0  255 255 255 255
33.29 0.999038 10.137 -1 0 0  255 255 255 255
33.29 -22.6399 10.137 -1 0 0  255 255 255 255
33.29 -5.30468 10.137 -1 0 0  255 255 255 255
33.29 -16.3362 10.137 -1 0 0  255 255 255 255
33.29 -10.0325 10.137 -1 0 0  255 255 255 255
33.29 -3.72875 10.137 -1 0 0  255 255 255 255
33.29 -30.5195 10.137 -1 0 0  255 255 255 255
33.29 -43.127 10.137 -1 0 0  255 255 255 255
33.29 8.87868 10.137 -1 0 0  255 255 255 255
33.29 -36.8232 10.137 -1 0 0  255 255 255 255
33.29 15.1824 10.137 -1 0 0  255 255 255 255
33.29 21.469 10.136 -1 0 0  255 255 255 255
33.29 2.57497 10.137 -1 0 0  255 255 255 255
33.29 -24.2158 10.137 -1 0 0  255 255 255 255
33.29 -17.9121 10.137 -1 0 0  255 255 255 255
33.29 -11.6084 10.137 -1 0 0  255 255 255 255
33.29 -35.2473 10.137 -1 0 0  255 255 255 255
33.29 -38.3992 10.137 -1 0 0  255 255 255 255
33.29 10.4546 10.137 -1 0 0  255 255 255 255
33.29 -41.551 10.137 -1 0 0  255 255 255 255
33.29 -32.0955 10.137 -1 0 0  255 255 255 255
33.29 -47.8376 10.136 -1 0 0  255 255 255 255
33.29 -14.7602 10.137 -1 0 0  255 255 255 255
33.29 18.3343 10.137 -1 0 0  255 255 255 255
33.29 -49.1043 10.1204 -1 0 0  255 255 255 255
33.29 22.7357 10.1204 -1 0 0  255 255 255 255
31.8085 63.0663 9 0 0 -1  255 255 255 255
-30.9365 64.3296 9 0 0 -1  255 255 255 255
-33.0662 60.2718 9 0 0 -1  255 255 255 255
-31.8085 63.0663 9 0 0 -1  255 255 255 255
24.7118 68.6262 9 0 0 -1  255 255 255 255
-29.9186 65.4786 9 0 0 -1  255 255 255 255
-32.5219 61.7071 9 0 0 -1  255 255 255 255
-33.4335 58.7814 9 0 0 -1  255 255 255 255
32.5219 61.7071 9 0 0 -1  255 255 255 255
33.4335 58.7814 9 0 0 -1  255 255 255 255
-24.7118 68.6262 9 0 0 -1  255 255 255 255
-23.2214 68.9935 9 0 0 -1  255 255 255 255
-27.5063 67.3685 9 0 0 -1  255 255 255 255
28.7696 66.4965 9 0 0 -1  255 255 255 255
-33.6186 57.2575 9 0 0 -1  255 255 255 255
-26.1471 68.0819 9 0 0 -1  255 255 255 255
33.0662 60.2718 9 0 0 -1  255 255 255 255
23.2214 68.9935 9 0 0 -1  255 255 255 255
-28.7696 66.4965 9 0 0 -1  255 255 255 255
29.9186 65.4786 9 0 0 -1  255 255 255 255
27.5063 67.3685 9 0 0 -1  255 255 255 255
30.9365 64.3296 9 0 0 -1  255 255 255 255
26.1471 68.0819 9 0 0 -1  255 255 255 255
1.55037 69.225 9 0 0 -1  255 255 255 255
4.65111 69.225 9 0 0 -1  255 255 255 255
6.20148 69.225 9 0 0 -1  255 255 255 255
-4.65111 69.225 9 0 0 -1  255 255 255 255
-3.10074 69.225 9 0 0 -1  255 255 255 255
-6.20148 69.225 9 0 0 -1  255 255 255 255
7.75185 69.225 9 0 0 -1  255 255 255 255
9.30222 69.225 9 0 0 -1  255 255 255 255
-7.75185 69.225 9 0 0 -1  255 255 255 255
12.403 69.225 9 0 0 -1  255 255 255 255
-9.30222 69.225 9 0 0 -1  255 255 255 255
-12.403 69.225 9 0 0 -1  255 255 255 255
15.5037 69.225 9 0 0 -1  255 255 255 255
-17.0541 69.225 9 0 0 -1  255 255 255 255
17.0541 69.225 9 0 0 -1  255 255 255 255
18.6044 69.225 9 0 0 -1  255 255 255 255
-18.6044 69.225 9 0 0 -1  255 255 255 255
20.1548 69.225 9 0 0 -1  255 255 255 255
-20.1548 69.225 9 0 0 -1  255 255 255 255
-13.9533 69.225 9 0 0 -1  255 255 255 255
-15.5037 69.225 9 0 0 -1  255 255 255 255
-10.8526 69.225 9 0 0 -1  255 255 255 255
13.9533 69.225 9 0 0 -1  255 255 255 255
10.8526 69.225 9 0 0 -1  255 255 255 255
-1.55037 69.225 9 0 0 -1  255 255 255 255
-0 69.225 9 0 0 -1  255 255 255 255
3.10074 69.225 9 0 0 -1  255 255 255 255
-21.6975 69.1786 9 0 0 -1  255 255 255 255
21.6975 69.1786 9 0 0 -1  255 255 255 255
33.665 52.54 9 0 0 -1  255 255 255 255
33.665 47.8 9 0 0 -1  255 255 255 255
33.665 44.64 9 0 0 -1  255 255 255 255
33.665 54.12 9 0 0 -1  255 255 255 255
33.665 50.96 9 0 0 -1  255 255 255 255
33.665 49.38 9 0 0 -1  255 255 255 255
33.665 46.22 9 0 0 -1  255 255 255 255
33.665 55.7 9 0 0 -1  255 255 255 255
33.6186 57.2575 9 0 0 -1  255 255 255 255
-33.665 55.26 9 0 0 -1  255 0 0 255
-33.665 56.08 9 0 0 -1  255 255 255 255
33.29 47.8 10.137 -1 0 0  255 255 255 255
33.29 54.1029 10.1362 -1 0 0  255 255 255 255
33.29 50.96 10.137 -1 0 0  255 255 255 255
33.29 52.54 10.137 -1 0 0  255 255 255 255
33.29 49.38 10.137 -1 0 0  255 255 255 255
33.29 46.2371 10.1378 -1 0 0  255 255 255 255
33.29 44.9672 10.1515 -1 0 0  255 255 255 255
33.29 55.3728 10.1225 -1 0 0  255 255 255 255
22.9836 68.6782 10.137 -0.166152 -0.9861 0  255 255 255 255
24.5781 68.2993 10.137 -0.295156 -0.955449 0  255 255 255 255
25.998 67.7632 10.137 -0.410028 -0.912073 0  255 255 255 255
27.3235 67.0679 10.137 -0.517276 -0.855819 0  255 255 255 255
28.5525 66.2197 10.137 -0.616709 -0.787191 0  255 255 255 255
29.6698 65.2299 10.137 -0.707105 -0.707108 0  255 255 255 255
30.6596 64.1127 10.137 -0.787182 -0.61672 0  255 255 255 255
31.5074 62.8844 10.137 -0.855777 -0.517346 0  255 255 255 255
32.2008 61.5633 10.137 -0.911878 -0.410461 0  255 255 255 255
32.7292 60.1707 10.137 -0.95463 -0.297794 0  255 255 255 255
33.0836 58.7396 10.137 -0.983298 -0.182004 0  255 255 255 255
33.2591 57.3641 10.137 -0.997496 -0.070722 0  255 255 255 255
21.8184 68.818 9.758 -0.071877 -0.997414 0  255 255 255 255
21.8184 68.818 10.516 -0.071877 -0.997414 0  255 255 255 255
10.8526 68.85 10.137 0 -1 0  255 255 255 255
7.75185 68.85 10.137 0 -1 0  255 255 255 255
-6.20148 68.85 10.137 0 -1 0  255 255 255 255
-9.30222 68.85 10.137 0 -1 0  255 255 255 255
-10.8526 68.85 10.137 0 -1 0  255 255 255 255
15.5037 68.85 10.137 0 -1 0  255 255 255 255
6.20148 68.85 10.137 0 -1 0  255 255 255 255
-4.65111 68.85 10.137 0 -1 0  255 255 255 255
0 68.85 10.137 0 -1 0  255 255 255 255
4.65111 68.85 10.137 0 -1 0  255 255 255 255
-12.403 68.85 10.137 0 -1 0  255 255 255 255
3.10074 68.85 10.137 0 -1 0  255 255 255 255
-17.0541 68.85 10.137 0 -1 0  255 255 255 255
-15.5037 68.85 10.137 0 -1 0  255 255 255 255
17.0541 68.85 10.137 0 -1 0  255 255 255 255
12.403 68.85 10.137 0 -1 0  255 255 255 255
1.55037 68.85 10.137 0 -1 0  255 255 255 255
13.9533 68.85 10.137 0 -1 0  255 255 255 255
-18.5876 68.85 10.1353 0 -1 0  255 255 255 255
9.30222 68.85 10.137 0 -1 0  255 255 255 255
18.5876 68.85 10.1353 0 -1 0  255 255 255 255
-3.10074 68.85 10.137 0 -1 0  255 255 255 255
-1.55037 68.85 10.137 0 -1 0  255 255 255 255
-13.9533 68.85 10.137 0 -1 0  255 255 255 255
-7.75185 68.85 10.137 0 -1 0  255 255 255 255
-19.7672 68.85 10.097 0 -1 0  255 255 255 255
19.7672 68.85 10.097 0 -1 0  255 255 255 255
-30.6464 64.1294 10.137 0.78612 -0.618074 0  255 255 255 255
-31.4408 62.9933 10.137 0.850388 -0.526157 0  255 255 255 255
-29.6698 65.2298 10.137 0.707107 -0.707106 0  255 255 255 255
-28.5694 66.2064 10.137 0.618077 -0.786117 0  255 255 255 255
-27.4335 67.0006 10.137 0.526175 -0.850376 0  255 255 255 255
-24.5897 68.2958 10.137 0.296096 -0.955158 0  255 255 255 255
-25.8862 67.8128 10.137 0.400987 -0.916084 0  255 255 255 255
-23.1759 68.6442 10.137 0.181704 -0.983353 0  255 255 255 255
-33.1188 58.5403 10.137 0.986146 -0.165882 0  255 255 255 255
-32.7458 60.1172 10.137 0.955971 -0.293461 0  255 255 255 255
-32.2552 61.4408 10.137 0.916276 -0.400547 0  255 255 255 255
-31.8749 62.2327 10.137 0.885509 -0.464622 0  255 255 255 255
-26.6741 67.4342 10.137 0.464733 -0.885451 0  255 255 255 255
-21.8035 68.8191 10.137 0.070671 -0.9975 0  255 255 255 255
-33.2581 57.3776 9.758 0.997418 -0.071809 0  255 255 255 255
-33.2581 57.3776 10.516 0.997418 -0.071809 0  255 255 255 255
-33.29 55.67 10.4364 1 0 0  255 255 255 255
-33.29 55.424 9.62837 1 0 0  255 255 255 255
-33.29 56.0131 9.60516 1 0 0  255 255 255 255
-34.79 56.08 12.024 0 0 1  255 255 255 255
-34.7549 57.0295 12.024 0 0 1  255 255 255 255
-34.79 55.424 12.024 0 0 1  255 255 255 255
34.79 52.54 12.024 0 0 1  255 255 255 255
34.79 49.38 12.024 0 0 1  255 255 255 255
34.79 47.8 12.024 0 0 1  255 255 255 255
34.79 46.22 12.024 0 0 1  255 255 255 255
34.79 44.64 12.024 0 0 1  255 255 255 255
34.79 55.7 12.024 0 0 1  255 255 255 255
34.79 54.12 12.024 0 0 1  255 255 255 255
34.79 50.96 12.024 0 0 1  255 255 255 255
-30.715 66.275 12.024 0 0 1  255 255 255 255
30.715 66.275 12.024 0 0 1  255 255 255 255
-6.20148 70.35 12.024 0 0 1  255 255 255 255
-10.8526 70.35 12.024 0 0 1  255 255 255 255
-3.10074 70.35 12.024 0 0 1  255 255 255 255
-4.65111 70.35 12.024 0 0 1  255 255 255 255
-9.30222 70.35 12.024 0 0 1  255 255 255 255
-1.55037 70.35 12.024 0 0 1  255 255 255 255
13.9533 70.35 12.024 0 0 1  255 255 255 255
3.10074 70.35 12.024 0 0 1  255 255 255 255
15.5037 70.35 12.024 0 0 1  255 255 255 255
12.403 70.35 12.024 0 0 1  255 255 255 255
4.65111 70.35 12.024 0 0 1  255 255 255 255
20.1548 70.35 12.024 0 0 1  255 255 255 255
-20.1548 70.35 12.024 0 0 1  255 255 255 255
9.30222 70.35 12.024 0 0 1  255 255 255 255
-18.6044 70.35 12.024 0 0 1  255 255 255 255
7.75185 70.35 12.024 0 0 1  255 255 255 255
6.20148 70.35 12.024 0 0 1  255 255 255 255
10.8526 70.35 12.024 0 0 1  255 255 255 255
18.6044 70.35 12.024 0 0 1  255 255 255 255
-17.0541 70.35 12.024 0 0 1  255 255 255 255
-13.9533 70.35 12.024 0 0 1  255 255 255 255
17.0541 70.35 12.024 0 0 1  255 255 255 255
1.55037 70.35 12.024 0 0 1  255 255 255 255
-15.5037 70.35 12.024 0 0 1  255 255 255 255
0 70.35 12.024 0 0 1  255 255 255 255
-12.403 70.35 12.024 0 0 1  255 255 255 255
-7.75185 70.35 12.024 0 0 1  255 255 255 255
-35.1439 -55.7135 12.024 0 0 1  255 255 255 255
-35.125 -57.2419 12.024 0 0 1  255 255 255 255
-34.9653 -58.7411 12.024 0 0 1  255 255 255 255
-35.0747 -54.1292 12.024 0 0 1  255 255 255 255
-34.7394 -60.0958 12.024 0 0 1  255 255 255 255
-34.2694 -61.4991 12.024 0 0 1  255 255 255 255
-34.9023 -52.5502 12.024 0 0 1  255 255 255 255
-34.0285 -61.7947 12.024 0 0 1  255 255 255 255
-34.5237 -60.3737 12.024 0 0 1  255 255 255 255
-34.79 12.0606 12.024 0 0 1  255 255 255 255
-34.79 10.4819 12.024 0 0 1  255 255 255 255
-34.79 8.90321 12.024 0 0 1  255 255 255 255
-34.79 7.32449 12.024 0 0 1  255 255 255 255
-34.79 5.74578 12.024 0 0 1  255 255 255 255
-34.79 4.16706 12.024 0 0 1  255 255 255 255
-34.79 2.58834 12.024 0 0 1  255 255 255 255
-34.79 1.00962 12.024 0 0 1  255 255 255 255
-34.79 -0.569092 12.024 0 0 1  255 255 255 255
