ply
format ascii 1.0
comment VCGLIB generated
element vertex 1087
property float x
property float y
property float z
property float nx
property float ny
property float nz
property uchar red
property uchar green
property uchar blue
property uchar alpha
element face 0
property list uchar int vertex_indices
end_header
-67.0714 8 -3.47281 0 -1 0  255 255 255 255
-4.8522 8 -4.40903 0 -1 0  255 255 255 255
-78.5192 8 -7.62077 0 -1 0  255 255 255 255
-8.68937 8 -9.66542 0 -1 0  255 255 255 255
-129.482 8 -11.8406 0 -1 0  255 255 255 255
-127.126 8 -15.186 0 -1 0  255 255 255 255
-130.997 8 -2.01241 0 -1 0  255 255 255 255
-130.927 8 -15.519 0 -1 0  255 255 255 255
-94.1203 8 -12.129 0 -1 0  255 255 255 255
-34.5098 8 -9.00167 0 -1 0  255 255 255 255
-89.325 8 -3.76951 0 -1 0  255 255 255 255
-110.982 8 -8.76681 0 -1 0  255 255 255 255
-118.453 8 -15.6989 0 -1 0  255 255 255 255
-41.8 8 -16.9468 0 -1 0  255 255 255 255
-18.1917 8 -9.77457 0 -1 0  255 255 255 255
-68.6776 8 -2.27185 0 -1 0  255 255 255 255
-37.8368 8 -5.32564 0 -1 0  255 255 255 255
-70.621 8 -2.08759 0 -1 0  255 255 255 255
-44.9232 8 -10.5815 0 -1 0  255 255 255 255
-86.8941 8 -9.44063 0 -1 0  255 255 255 255
-101.733 8 -11.175 0 -1 0  255 255 255 255
-10.7496 8 -0.535667 0 -1 0  255 255 255 255
-2.98402 8 -13.4885 0 -1 0  255 255 255 255
-46.6978 8 -16.9184 0 -1 0  255 255 255 255
-30.2999 8 -2.32656 0 -1 0  255 255 255 255
-118.635 8 -1.8113 0 -1 0  255 255 255 255
-81.2129 8 -5.07163 0 -1 0  255 255 255 255
-125.998 8 -11.584 0 -1 0  255 255 255 255
-2.42859 8 -0.580464 0 -1 0  255 255 255 255
-11.0853 8 -4.2118 0 -1 0  255 255 255 255
-51.7847 8 -13.7262 0 -1 0  255 255 255 255
-41.7208 8 -3.99375 0 -1 0  255 255 255 255
-75.6885 8 -15.3469 0 -1 0  255 255 255 255
-62.9783 8 -5.77128 0 -1 0  255 255 255 255
-103.342 8 -4.33243 0 -1 0  255 255 255 255
-114.799 8 -0.576689 0 -1 0  255 255 255 255
-50.5698 8 -12.3688 0 -1 0  255 255 255 255
-16.1062 8 -3.61936 0 -1 0  255 255 255 255
-15.7963 8 -15.2844 0 -1 0  255 255 255 255
-116.611 8 -3.72974 0 -1 0  255 255 255 255
-5.09996 8 -0.479284 0 -1 0  255 255 255 255
-105.196 8 -0.568901 0 -1 0  255 255 255 255
-108.93 8 -2.65497 0 -1 0  255 255 255 255
-86.0062 8 -17.0715 0 -1 0  255 255 255 255
-62.6835 8 -3.61774 0 -1 0  255 255 255 255
-68.6465 8 -4.24212 0 -1 0  255 255 255 255
-105.329 8 -5.8936 0 -1 0  255 255 255 255
-75.8238 8 -11.7383 0 -1 0  255 255 255 255
-108.124 8 -15.1635 0 -1 0  255 255 255 255
-29.9059 8 -16.9949 0 -1 0  255 255 255 255
-127.19 8 -11.8209 0 -1 0  255 255 255 255
-68.9176 8 -7.93402 0 -1 0  255 255 255 255
-78.095 8 -2.29015 0 -1 0  255 255 255 255
-143.955 8 -7.3782 0 -1 0  255 255 255 255
-90.6673 8 -13.3961 0 -1 0  255 255 255 255
-92.5245 8 -12.6041 0 -1 0  255 255 255 255
-129.475 8 -5.653 0 -1 0  255 255 255 255
-50.4155 8 -1.78698 0 -1 0  255 255 255 255
-143.935 8 -1.86629 0 -1 0  255 255 255 255
-143.935 8 -15.6337 0 -1 0  255 255 255 255
-50.3619 8 -8.27299 0 -1 0  255 255 255 255
-129.428 8 -9.93929 0 -1 0  255 255 255 255
-98.6298 8 -1.74538 0 -1 0  255 255 255 255
-29.2594 8 -0.520945 0 -1 0  255 255 255 255
-25.4748 8 -3.6377 0 -1 0  255 255 255 255
-26.0439 8 -4.53483 0 -1 0  255 255 255 255
-99.3081 8 -11.6137 0 -1 0  255 255 255 255
-91.1614 8 -12.3253 0 -1 0  255 255 255 255
-76.0819 8 -10.1536 0 -1 0  255 255 255 255
-80.3124 8 -13.4775 0 -1 0  255 255 255 255
-16.8019 8 -4.51126 0 -1 0  255 255 255 255
-87.9945 8 -15.6533 0 -1 0  255 255 255 255
-70.3677 8 -16.9487 0 -1 0  255 255 255 255
-130.599 8 -9.97021 0 -1 0  255 255 255 255
-120.793 8 -4.43008 0 -1 0  255 255 255 255
-99.7164 8 -16.944 0 -1 0  255 255 255 255
-81.7342 8 -8.00948 0 -1 0  255 255 255 255
-143.938 8 -12.7059 0 -1 0  255 255 255 255
-64.681 8 -6.18702 0 -1 0  255 255 255 255
-68.3906 8 -10.8427 0 -1 0  255 255 255 255
-54.8987 8 -3.20406 0 -1 0  255 255 255 255
-61.3672 8 -12.959 0 -1 0  255 255 255 255
-62.0504 8 -13.87 0 -1 0  255 255 255 255
-75.9624 8 -2.26106 0 -1 0  255 255 255 255
-82.0844 8 -2.34969 0 -1 0  255 255 255 255
-67.2364 8 -16.94 0 -1 0  255 255 255 255
-14.4404 8 -17.0511 0 -1 0  255 255 255 255
-25.1127 8 -16.9378 0 -1 0  255 255 255 255
-86.297 8 -15.3419 0 -1 0  255 255 255 255
-71.0932 8 -12.6289 0 -1 0  255 255 255 255
-93.1709 8 -1.79238 0 -1 0  255 255 255 255
-73.6405 8 -3.01431 0 -1 0  255 255 255 255
-29.1425 8 -15.0775 0 -1 0  255 255 255 255
-105.671 8 -2.10718 0 -1 0  255 255 255 255
-109.241 8 -13.3748 0 -1 0  255 255 255 255
-57.6146 8 -0.478297 0 -1 0  255 255 255 255
-46.0946 8 -4.25154 0 -1 0  255 255 255 255
-18.4242 8 -12.8897 0 -1 0  255 255 255 255
-69.1023 8 -16.9693 0 -1 0  255 255 255 255
-126.833 8 -16.9951 0 -1 0  255 255 255 255
-110.119 8 -10.7483 0 -1 0  255 255 255 255
-117.123 8 -4.85942 0 -1 0  255 255 255 255
-69.6732 8 -6.02965 0 -1 0  255 255 255 255
-34.8073 8 -3.73726 0 -1 0  255 255 255 255
-53.0529 8 -3.50648 0 -1 0  255 255 255 255
-72.3469 8 -15.1546 0 -1 0  255 255 255 255
-17.6626 8 -6.3301 0 -1 0  255 255 255 255
-139.6 8 -12.6809 0 -1 0  255 255 255 255
-19.7491 8 -1.69335 0 -1 0  255 255 255 255
-13.9628 8 -13.5052 0 -1 0  255 255 255 255
-135.813 8 -4.35452 0 -1 0  255 255 255 255
-135.813 8 -13.1455 0 -1 0  255 255 255 255
-50.9359 8 -16.9229 0 -1 0  255 255 255 255
-17.6404 8 -11.1321 0 -1 0  255 255 255 255
-19.729 8 -5.70963 0 -1 0  255 255 255 255
-116.539 8 -1.77056 0 -1 0  255 255 255 255
-32.6411 8 -6.42845 0 -1 0  255 255 255 255
-72.1471 8 -4.70542 0 -1 0  255 255 255 255
-62.3213 8 -16.9797 0 -1 0  255 255 255 255
-13.3237 8 -3.34789 0 -1 0  255 255 255 255
-43.1949 8 -13.8583 0 -1 0  255 255 255 255
-122.005 8 -6.09262 0 -1 0  255 255 255 255
-104.516 8 -4.28158 0 -1 0  255 255 255 255
-130.657 8 -5.83814 0 -1 0  255 255 255 255
-116.123 8 -9.72356 0 -1 0  255 255 255 255
-57.9396 8 -16.9773 0 -1 0  255 255 255 255
-109.313 8 -16.955 0 -1 0  255 255 255 255
-66.3278 8 -10.6909 0 -1 0  255 255 255 255
-99.6266 8 -4.56673 0 -1 0  255 255 255 255
-12.1655 8 -12.9984 0 -1 0  255 255 255 255
-119.05 8 -5.92819 0 -1 0  255 255 255 255
-96.5579 8 -15.648 0 -1 0  255 255 255 255
-141.044 8 -5.80404 0 -1 0  255 255 255 255
-25.1808 8 -1.68354 0 -1 0  255 255 255 255
-64.3679 8 -10.7235 0 -1 0  255 255 255 255
-55.6718 8 -5.94303 0 -1 0  255 255 255 255
-45.5353 8 -0.527041 0 -1 0  255 255 255 255
-58.404 8 -13.5106 0 -1 0  255 255 255 255
-97.5696 8 -12.1326 0 -1 0  255 255 255 255
-62.0095 8 -0.563723 0 -1 0  255 255 255 255
-126.907 8 -0.488545 0 -1 0  255 255 255 255
-141.005 8 -11.3918 0 -1 0  255 255 255 255
-128.875 8 -10.92 0 -1 0  255 255 255 255
-3.30118 8 -15.5009 0 -1 0  255 255 255 255
-31.3998 8 -6.93322 0 -1 0  255 255 255 255
-79.2052 8 -9.64528 0 -1 0  255 255 255 255
-81.0556 8 -3.60512 0 -1 0  255 255 255 255
-83.5691 8 -12.8296 0 -1 0  255 255 255 255
-41.1868 8 -8.10438 0 -1 0  255 255 255 255
-36.5609 8 -15.7044 0 -1 0  255 255 255 255
-109.407 8 -15.2018 0 -1 0  255 255 255 255
-36.3594 8 -1.97253 0 -1 0  255 255 255 255
-86.2917 8 -7.49935 0 -1 0  255 255 255 255
-8.36387 8 -13.6246 0 -1 0  255 255 255 255
-111.15 8 -16.9772 0 -1 0  255 255 255 255
-94.5765 8 -6.88262 0 -1 0  255 255 255 255
-40.0157 8 -5.81107 0 -1 0  255 255 255 255
-134.483 8 -6.18011 0 -1 0  255 255 255 255
-117.75 8 -12.8399 0 -1 0  255 255 255 255
-10.4912 8 -2.28233 0 -1 0  255 255 255 255
-43.0139 8 -5.48585 0 -1 0  255 255 255 255
-140.533 8 -3.72176 0 -1 0  255 255 255 255
-138.662 8 -8.83601 0 -1 0  255 255 255 255
-56.8789 8 -8.91619 0 -1 0  255 255 255 255
-57.9813 8 -9.15066 0 -1 0  255 255 255 255
-131.34 8 -3.83212 0 -1 0  255 255 255 255
-112.558 8 -15.46 0 -1 0  255 255 255 255
-46.6203 8 -9.1049 0 -1 0  255 255 255 255
-49.4301 8 -4.55641 0 -1 0  255 255 255 255
-10.1196 8 -12.9027 0 -1 0  255 255 255 255
-124.254 8 -15.4163 0 -1 0  255 255 255 255
-115.032 8 -2.20044 0 -1 0  255 255 255 255
-75.9026 8 -0.490694 0 -1 0  255 255 255 255
-49.2684 8 -13.8802 0 -1 0  255 255 255 255
-83.544 8 -5.45142 0 -1 0  255 255 255 255
-103.695 8 -14.5528 0 -1 0  255 255 255 255
-21.0171 8 -4.07349 0 -1 0  255 255 255 255
-108.447 8 -0.453767 0 -1 0  255 255 255 255
-31.1514 8 -4.0905 0 -1 0  255 255 255 255
-35.1204 8 -15.7921 0 -1 0  255 255 255 255
-81.1279 8 -17.0283 0 -1 0  255 255 255 255
-124.737 8 -13.5213 0 -1 0  255 255 255 255
-114.367 8 -13.2351 0 -1 0  255 255 255 255
-35.7536 8 -6.42431 0 -1 0  255 255 255 255
-84.6563 8 -15.5725 0 -1 0  255 255 255 255
-44.4503 8 -14.366 0 -1 0  255 255 255 255
-72.2539 8 -17.0238 0 -1 0  255 255 255 255
-52.8332 8 -4.70562 0 -1 0  255 255 255 255
-97.5336 8 -3.36145 0 -1 0  255 255 255 255
-79.3255 8 -4.35161 0 -1 0  255 255 255 255
-85.8785 8 -5.75013 0 -1 0  255 255 255 255
-71.8508 8 -6.6648 0 -1 0  255 255 255 255
-79.5653 8 -14.6225 0 -1 0  255 255 255 255
-51.042 8 -15.5832 0 -1 0  255 255 255 255
-138.917 8 -4.66324 0 -1 0  255 255 255 255
-27.1459 8 -4.33841 0 -1 0  255 255 255 255
-30.4319 8 -13.5379 0 -1 0  255 255 255 255
-72.9603 8 -8.05903 0 -1 0  255 255 255 255
-108.133 8 -4.54153 0 -1 0  255 255 255 255
-113.283 8 -1.89439 0 -1 0  255 255 255 255
-93.3312 8 -3.40781 0 -1 0  255 255 255 255
-83.0734 8 -0.568444 0 -1 0  255 255 255 255
-82.8513 8 -4.1433 0 -1 0  255 255 255 255
-8.92184 8 -0.531525 0 -1 0  255 255 255 255
-67.6477 8 -14.0761 0 -1 0  255 255 255 255
-83.6051 8 -2.02463 0 -1 0  255 255 255 255
-131.141 8 -8.89959 0 -1 0  255 255 255 255
-8.49119 8 -4.56726 0 -1 0  255 255 255 255
-33.9164 8 -2.00555 0 -1 0  255 255 255 255
-88.4354 8 -8.5326 0 -1 0  255 255 255 255
-15.6307 8 -1.7806 0 -1 0  255 255 255 255
-94.324 8 -0.456095 0 -1 0  255 255 255 255
-143.886 8 -3.91242 0 -1 0  255 255 255 255
-48.2339 8 -3.52415 0 -1 0  255 255 255 255
-106.049 8 -15.3181 0 -1 0  255 255 255 255
-7.26754 8 -13.7618 0 -1 0  255 255 255 255
-142.613 8 -6.90689 0 -1 0  255 255 255 255
-24.1665 8 -14.1124 0 -1 0  255 255 255 255
-10.0601 8 -14.4189 0 -1 0  255 255 255 255
-12.1933 8 -1.85716 0 -1 0  255 255 255 255
-0.981197 8 -3.65126 0 -1 0  255 255 255 255
-87.3198 8 -5.79548 0 -1 0  255 255 255 255
-142.901 8 -5.25706 0 -1 0  255 255 255 255
-67.1546 8 -15.1509 0 -1 0  255 255 255 255
-10.2069 8 -3.49797 0 -1 0  255 255 255 255
-125.937 8 -13.5893 0 -1 0  255 255 255 255
-126.278 8 -3.97032 0 -1 0  255 255 255 255
-19.853 8 -15.7043 0 -1 0  255 255 255 255
-62.6282 8 -11.8868 0 -1 0  255 255 255 255
-132.434 8 -10.6013 0 -1 0  255 255 255 255
-7.58511 8 -11.8219 0 -1 0  255 255 255 255
-100.227 8 -0.53922 0 -1 0  255 255 255 255
-65.947 8 -15.568 0 -1 0  255 255 255 255
-66.8839 8 -5.25583 0 -1 0  255 255 255 255
-128.031 8 -14.0926 0 -1 0  255 255 255 255
-63.5758 8 -4.23904 0 -1 0  255 255 255 255
-117.265 8 -17.0648 0 -1 0  255 255 255 255
-33.1337 8 -15.6521 0 -1 0  255 255 255 255
-28.6846 8 -1.96567 0 -1 0  255 255 255 255
-39.402 8 -8.88091 0 -1 0  255 255 255 255
-26.1928 8 -12.9249 0 -1 0  255 255 255 255
-79.6902 8 -10.6103 0 -1 0  255 255 255 255
-106.046 8 -17.1303 0 -1 0  255 255 255 255
-21.6457 8 -1.89459 0 -1 0  255 255 255 255
-66.4577 8 -13.4436 0 -1 0  255 255 255 255
-86.2746 8 -0.44194 0 -1 0  255 255 255 255
-87.2986 8 -12.7229 0 -1 0  255 255 255 255
-109.566 8 -5.90037 0 -1 0  255 255 255 255
-102.971 8 -10.125 0 -1 0  255 255 255 255
-3.90629 8 -11.6415 0 -1 0  255 255 255 255
-16.5368 8 -9.43512 0 -1 0  255 255 255 255
-102.618 8 -8.14472 0 -1 0  255 255 255 255
-13.3425 8 -7.81534 0 -1 0  255 255 255 255
-13.8956 8 -6.92783 0 -1 0  255 255 255 255
-94.4591 8 -4.04708 0 -1 0  255 255 255 255
-67.1726 8 -12.077 0 -1 0  255 255 255 255
-24.7838 8 -5.60412 0 -1 0  255 255 255 255
-70.0202 8 -9.50451 0 -1 0  255 255 255 255
-101.803 8 -13.8846 0 -1 0  255 255 255 255
-142.844 8 -12.2826 0 -1 0  255 255 255 255
-67.1457 8 -1.63903 0 -1 0  255 255 255 255
-117.906 8 -14.5993 0 -1 0  255 255 255 255
-27.3347 8 -14.4474 0 -1 0  255 255 255 255
-65.7523 8 -9.75096 0 -1 0  255 255 255 255
-41.1675 8 -12.9121 0 -1 0  255 255 255 255
-90.052 8 -7.2668 0 -1 0  255 255 255 255
-90.6994 8 -6.39154 0 -1 0  255 255 255 255
-98.5455 8 -6.21401 0 -1 0  255 255 255 255
-88.7026 8 -10.0932 0 -1 0  255 255 255 255
-116.269 8 -15.767 0 -1 0  255 255 255 255
-131.369 8 -7.2402 0 -1 0  255 255 255 255
-97.7095 8 -5.34092 0 -1 0  255 255 255 255
-85.2171 8 -8.13622 0 -1 0  255 255 255 255
-128.815 8 -15.7637 0 -1 0  255 255 255 255
-84.7259 8 -4.82981 0 -1 0  255 255 255 255
-65.3416 8 -1.89572 0 -1 0  255 255 255 255
-71.0399 8 -7.82797 0 -1 0  255 255 255 255
-124.237 8 -2.15787 0 -1 0  255 255 255 255
-50.2169 8 -3.50211 0 -1 0  255 255 255 255
-101.339 8 -17.0036 0 -1 0  255 255 255 255
-27.4071 8 -3.24395 0 -1 0  255 255 255 255
-93.7728 8 -5.37398 0 -1 0  255 255 255 255
-3.51534 8 -6.14398 0 -1 0  255 255 255 255
-60.341 8 -11.1711 0 -1 0  255 255 255 255
-94.9972 8 -1.80732 0 -1 0  255 255 255 255
-110.538 8 -4.96113 0 -1 0  255 255 255 255
-43.9106 8 -12.3736 0 -1 0  255 255 255 255
-33.7955 8 -17.0293 0 -1 0  255 255 255 255
-83.5989 8 -10.8893 0 -1 0  255 255 255 255
-109.896 8 -14.1682 0 -1 0  255 255 255 255
-41.3543 8 -0.501948 0 -1 0  255 255 255 255
-44.7841 8 -6.54189 0 -1 0  255 255 255 255
-7.3695 8 -8.44521 0 -1 0  255 255 255 255
-21.6729 8 -15.6122 0 -1 0  255 255 255 255
-126.062 8 -8.03077 0 -1 0  255 255 255 255
-42.6165 8 -7.00434 0 -1 0  255 255 255 255
-61.4985 8 -9.6654 0 -1 0  255 255 255 255
-144.02 8 -13.6385 0 -1 0  255 255 255 255
-132.928 8 -8.14489 0 -1 0  255 255 255 255
-24.2241 8 -12.2952 0 -1 0  255 255 255 255
-61.6546 8 -3.4816 0 -1 0  255 255 255 255
-132.439 8 -2.15074 0 -1 0  255 255 255 255
-35.1312 8 -4.85921 0 -1 0  255 255 255 255
-114.685 8 -8.8576 0 -1 0  255 255 255 255
-109.151 8 -3.78889 0 -1 0  255 255 255 255
-21.0884 8 -16.8354 0 -1 0  255 255 255 255
-20.9998 8 -0.459577 0 -1 0  255 255 255 255
-39.8775 8 -12.3409 0 -1 0  255 255 255 255
-31.7371 8 -4.92342 0 -1 0  255 255 255 255
-129.64 8 -7.54781 0 -1 0  255 255 255 255
-70.0691 8 -4.21854 0 -1 0  255 255 255 255
-76.7816 8 -5.99734 0 -1 0  255 255 255 255
-68.1058 8 -3.36725 0 -1 0  255 255 255 255
-58.1172 8 -5.41692 0 -1 0  255 255 255 255
-59.826 8 -9.64041 0 -1 0  255 255 255 255
-122.452 8 -11.0058 0 -1 0  255 255 255 255
-13.9843 8 -10.5494 0 -1 0  255 255 255 255
-90.114 8 -2.84329 0 -1 0  255 255 255 255
-78.4593 8 -13.019 0 -1 0  255 255 255 255
-23.1133 8 -12.9761 0 -1 0  255 255 255 255
-57.3418 8 -7.06171 0 -1 0  255 255 255 255
-16.5169 8 -8.03635 0 -1 0  255 255 255 255
-13.2924 8 -9.64405 0 -1 0  255 255 255 255
-62.4842 8 -15.7406 0 -1 0  255 255 255 255
-39.3392 8 -2.86604 0 -1 0  255 255 255 255
-74.5411 8 -9.03879 0 -1 0  255 255 255 255
-129.057 8 -1.51577 0 -1 0  255 255 255 255
-140.571 8 -9.4161 0 -1 0  255 255 255 255
-71.7064 8 -3.43681 0 -1 0  255 255 255 255
-77.0635 8 -12.9618 0 -1 0  255 255 255 255
-82.9173 8 -11.6068 0 -1 0  255 255 255 255
-125.756 8 -10.6067 0 -1 0  255 255 255 255
-62.167 8 -7.7358 0 -1 0  255 255 255 255
-62.7376 8 -6.88605 0 -1 0  255 255 255 255
-124.647 8 -7.17419 0 -1 0  255 255 255 255
-99.7795 8 -8.04595 0 -1 0  255 255 255 255
-104.391 8 -7.62808 0 -1 0  255 255 255 255
-57.8693 8 -15.3601 0 -1 0  255 255 255 255
-86.2204 8 -12.3947 0 -1 0  255 255 255 255
-85.5506 8 -10.7736 0 -1 0  255 255 255 255
-28.9603 8 -11.9102 0 -1 0  255 255 255 255
-81.0408 8 -9.02959 0 -1 0  255 255 255 255
-132.469 8 -12.2984 0 -1 0  255 255 255 255
-141.627 8 -2.0956 0 -1 0  255 255 255 255
-141.624 8 -15.422 0 -1 0  255 255 255 255
-91.0776 8 -8.78806 0 -1 0  255 255 255 255
-142.261 8 -13.7798 0 -1 0  255 255 255 255
-120.921 8 -14.4177 0 -1 0  255 255 255 255
-69.1592 8 -15.2803 0 -1 0  255 255 255 255
-33.8919 8 -5.45469 0 -1 0  255 255 255 255
-101.846 8 -1.56243 0 -1 0  255 255 255 255
-128.934 8 -6.59494 0 -1 0  255 255 255 255
-25.0441 8 -11.1494 0 -1 0  255 255 255 255
-26.056 8 -11.588 0 -1 0  255 255 255 255
-35.839 8 -8.87335 0 -1 0  255 255 255 255
-76.6646 8 -8.193 0 -1 0  255 255 255 255
-47.3315 8 -13.7089 0 -1 0  255 255 255 255
-9.21858 8 -1.80197 0 -1 0  255 255 255 255
-32.1748 8 -3.06252 0 -1 0  255 255 255 255
-56.8198 8 -3.93977 0 -1 0  255 255 255 255
-14.9805 8 -13.4386 0 -1 0  255 255 255 255
-90.8284 8 -4.50758 0 -1 0  255 255 255 255
-29.2922 8 -13.3365 0 -1 0  255 255 255 255
-137.052 8 -9.73575 0 -1 0  255 255 255 255
-98.4584 8 -12.5197 0 -1 0  255 255 255 255
-91.7565 8 -7.84426 0 -1 0  255 255 255 255
-96.7546 8 -16.9096 0 -1 0  255 255 255 255
-60.1792 8 -14.4839 0 -1 0  255 255 255 255
-15.1452 8 -3.89491 0 -1 0  255 255 255 255
-96.1266 8 -7.858 0 -1 0  255 255 255 255
-97.837 8 -15.5605 0 -1 0  255 255 255 255
-118.035 8 -10.8467 0 -1 0  255 255 255 255
-24.9896 8 -15.8232 0 -1 0  255 255 255 255
-30.7408 8 -9.41314 0 -1 0  255 255 255 255
-79.8992 8 -8.81255 0 -1 0  255 255 255 255
-142.898 8 -10.8712 0 -1 0  255 255 255 255
-108.913 8 -9.80112 0 -1 0  255 255 255 255
-42.8273 8 -2.08293 0 -1 0  255 255 255 255
-120.385 8 -12.8024 0 -1 0  255 255 255 255
-23.0803 8 -9.2197 0 -1 0  255 255 255 255
-13.9028 8 -8.7426 0 -1 0  255 255 255 255
-111.371 8 -1.87063 0 -1 0  255 255 255 255
-43.2629 8 -8.33908 0 -1 0  255 255 255 255
-96.3494 8 -12.4009 0 -1 0  255 255 255 255
-74.7256 8 -11.8063 0 -1 0  255 255 255 255
-76.94 8 -17.0748 0 -1 0  255 255 255 255
-45.6252 8 -16.974 0 -1 0  255 255 255 255
-58.1513 8 -3.74622 0 -1 0  255 255 255 255
-27.7934 8 -12.2931 0 -1 0  255 255 255 255
-122.966 8 -12.8877 0 -1 0  255 255 255 255
-104.757 8 -2.52582 0 -1 0  255 255 255 255
-84.3027 8 -7.37342 0 -1 0  255 255 255 255
-74.6868 8 -14.7785 0 -1 0  255 255 255 255
-49.9173 8 -17.1375 0 -1 0  255 255 255 255
-111.106 8 -10.3627 0 -1 0  255 255 255 255
-96.5714 8 -4.51869 0 -1 0  255 255 255 255
-15.3051 8 -11.9396 0 -1 0  255 255 255 255
-12.0623 8 -10.9397 0 -1 0  255 255 255 255
-133.477 8 -13.0499 0 -1 0  255 255 255 255
-32.9158 8 -10.4819 0 -1 0  255 255 255 255
-24.8322 8 -8.75359 0 -1 0  255 255 255 255
-26.5585 8 -6.21927 0 -1 0  255 255 255 255
-124.307 8 -10.5494 0 -1 0  255 255 255 255
-56.4429 8 -0.454077 0 -1 0  255 255 255 255
-43.5065 8 -10.9378 0 -1 0  255 255 255 255
-124.158 8 -8.67541 0 -1 0  255 255 255 255
-59.8798 8 -3.01722 0 -1 0  255 255 255 255
-8.05461 8 -17.0573 0 -1 0  255 255 255 255
-81.3081 8 -7.16957 0 -1 0  255 255 255 255
-36.9716 8 -0.450167 0 -1 0  255 255 255 255
-26.5641 8 -8.23549 0 -1 0  255 255 255 255
-16.692 8 -12.126 0 -1 0  255 255 255 255
-53.8866 8 -1.75424 0 -1 0  255 255 255 255
-110.901 8 -12.3586 0 -1 0  255 255 255 255
-23.2054 8 -6.82236 0 -1 0  255 255 255 255
-7.17665 8 -15.1415 0 -1 0  255 255 255 255
-1.04814 8 -1.76552 0 -1 0  255 255 255 255
-139.424 8 -6.43513 0 -1 0  255 255 255 255
-78.6216 8 -5.89953 0 -1 0  255 255 255 255
-41.594 8 -10.9553 0 -1 0  255 255 255 255
-82.4782 8 -15.5999 0 -1 0  255 255 255 255
-81.5164 8 -14.8699 0 -1 0  255 255 255 255
-25.4614 8 -9.85774 0 -1 0  255 255 255 255
-94.4847 8 -13.3181 0 -1 0  255 255 255 255
-111.398 8 -15.3865 0 -1 0  255 255 255 255
-77.626 8 -0.498468 0 -1 0  255 255 255 255
-53.532 8 -0.588716 0 -1 0  255 255 255 255
-19.5456 8 -8.67276 0 -1 0  255 255 255 255
-44.7914 8 -1.81962 0 -1 0  255 255 255 255
-55.299 8 -13.0702 0 -1 0  255 255 255 255
-56.2621 8 -12.3544 0 -1 0  255 255 255 255
-69.292 8 -11.3422 0 -1 0  255 255 255 255
-131.394 8 -10.7066 0 -1 0  255 255 255 255
-28.8551 8 -17.0313 0 -1 0  255 255 255 255
-7.26493 8 -1.60943 0 -1 0  255 255 255 255
-30.6258 8 -8.18058 0 -1 0  255 255 255 255
-113.162 8 -10.8739 0 -1 0  255 255 255 255
-24.8526 8 -6.92199 0 -1 0  255 255 255 255
-100.868 8 -14.253 0 -1 0  255 255 255 255
-57.7785 8 -12.0887 0 -1 0  255 255 255 255
-91.7108 8 -15.5789 0 -1 0  255 255 255 255
-41.426 8 -1.83369 0 -1 0  255 255 255 255
-22.9698 8 -4.32988 0 -1 0  255 255 255 255
-100.38 8 -2.05422 0 -1 0  255 255 255 255
-62.7707 8 -8.93769 0 -1 0  255 255 255 255
-61.9577 8 -1.79631 0 -1 0  255 255 255 255
-64.5293 8 -13.0148 0 -1 0  255 255 255 255
-37.7283 8 -3.48864 0 -1 0  255 255 255 255
-134.241 8 -8.37846 0 -1 0  255 255 255 255
-51.2397 8 -3.57601 0 -1 0  255 255 255 255
-141.679 8 -9.55818 0 -1 0  255 255 255 255
-44.6404 8 -5.24334 0 -1 0  255 255 255 255
-70.5261 8 -15.7754 0 -1 0  255 255 255 255
-63.4186 8 -10.1389 0 -1 0  255 255 255 255
-56.0439 8 -1.79885 0 -1 0  255 255 255 255
-21.9988 8 -7.80389 0 -1 0  255 255 255 255
-21.2477 8 -6.98361 0 -1 0  255 255 255 255
-128.064 8 -3.26634 0 -1 0  255 255 255 255
-2.04858 8 -4.78902 0 -1 0  255 255 255 255
-93.7385 8 -7.53335 0 -1 0  255 255 255 255
-82.7504 8 -9.68298 0 -1 0  255 255 255 255
-17.039 8 -14.4761 0 -1 0  255 255 255 255
-86.4744 8 -14.2117 0 -1 0  255 255 255 255
-91.122 8 -16.9403 0 -1 0  255 255 255 255
-118.198 8 -3.13383 0 -1 0  255 255 255 255
-56.5835 8 -15.6732 0 -1 0  255 255 255 255
-56.1565 8 -9.82678 0 -1 0  255 255 255 255
-37.1392 8 -13.2592 0 -1 0  255 255 255 255
-121.45 8 -0.582493 0 -1 0  255 255 255 255
-70.2138 8 -13.2208 0 -1 0  255 255 255 255
-27.1847 8 -1.54753 0 -1 0  255 255 255 255
-21.2713 8 -10.6398 0 -1 0  255 255 255 255
-9.36962 8 -7.82985 0 -1 0  255 255 255 255
-80.5932 8 -0.476119 0 -1 0  255 255 255 255
-39.7391 8 -0.433478 0 -1 0  255 255 255 255
-92.9391 8 -8.46217 0 -1 0  255 255 255 255
-78.5371 8 -14.2856 0 -1 0  255 255 255 255
-15.4735 8 -17.0647 0 -1 0  255 255 255 255
-57.1125 8 -13.696 0 -1 0  255 255 255 255
-27.6595 8 -7.58457 0 -1 0  255 255 255 255
-132.105 8 -8.9467 0 -1 0  255 255 255 255
-111.419 8 -9.52347 0 -1 0  255 255 255 255
-51.2501 8 -7.56556 0 -1 0  255 255 255 255
-103.311 8 -2.89763 0 -1 0  255 255 255 255
-121.343 8 -16.9356 0 -1 0  255 255 255 255
-28.3092 8 -15.525 0 -1 0  255 255 255 255
-38.1224 8 -13.9136 0 -1 0  255 255 255 255
-69.6753 8 -2.68073 0 -1 0  255 255 255 255
-4.3498 8 -2.66382 0 -1 0  255 255 255 255
-46.3332 8 -14.8943 0 -1 0  255 255 255 255
-13.4366 8 -4.45522 0 -1 0  255 255 255 255
-29.8203 8 -10.2354 0 -1 0  255 255 255 255
-131.404 8 -12.1377 0 -1 0  255 255 255 255
-66.2689 8 -0.500601 0 -1 0  255 255 255 255
-89.7254 8 -10.218 0 -1 0  255 255 255 255
-108.661 8 -11.7412 0 -1 0  255 255 255 255
-17.8787 8 -4.45203 0 -1 0  255 255 255 255
-8.90971 8 -12.7611 0 -1 0  255 255 255 255
-132.28 8 -15.5223 0 -1 0  255 255 255 255
-53.4444 8 -13.3072 0 -1 0  255 255 255 255
-56.9206 8 -17.0657 0 -1 0  255 255 255 255
-15.41 8 -0.406569 0 -1 0  255 255 255 255
-21.2392 8 -8.66395 0 -1 0  255 255 255 255
-107.684 8 -15.9754 0 -1 0  255 255 255 255
-23.0316 8 -11.0908 0 -1 0  255 255 255 255
-78.8512 8 -0.418513 0 -1 0  255 255 255 255
-100.836 8 -3.13735 0 -1 0  255 255 255 255
-51.5333 8 -4.84213 0 -1 0  255 255 255 255
-103.258 8 -7.09704 0 -1 0  255 255 255 255
-95.8125 8 -13.8556 0 -1 0  255 255 255 255
-126.16 8 -14.8186 0 -1 0  255 255 255 255
-85.0048 8 -17.0551 0 -1 0  255 255 255 255
-11.4242 8 -15.5369 0 -1 0  255 255 255 255
-54.9127 8 -7.02228 0 -1 0  255 255 255 255
-26.3251 8 -0.357495 0 -1 0  255 255 255 255
-137.993 8 -2.12545 0 -1 0  255 255 255 255
-137.992 8 -15.3727 0 -1 0  255 255 255 255
-144.064 8 -9.5132 0 -1 0  255 255 255 255
-119.079 8 -9.86038 0 -1 0  255 255 255 255
-20.197 8 -10.0817 0 -1 0  255 255 255 255
-101.385 8 -15.8304 0 -1 0  255 255 255 255
-102.212 8 -6.28323 0 -1 0  255 255 255 255
-87.5585 8 -6.80246 0 -1 0  255 255 255 255
-140.429 8 -15.5462 0 -1 0  255 255 255 255
-140.427 8 -1.91997 0 -1 0  255 255 255 255
-128.999 8 -12.623 0 -1 0  255 255 255 255
-64.5371 8 -14.4182 0 -1 0  255 255 255 255
-89.9603 8 -11.5943 0 -1 0  255 255 255 255
-19.828 8 -14.0344 0 -1 0  255 255 255 255
-86.9845 8 -10.7313 0 -1 0  255 255 255 255
-110.631 8 -7.02053 0 -1 0  255 255 255 255
-66.4912 8 -8.59379 0 -1 0  255 255 255 255
-33.938 8 -13.8987 0 -1 0  255 255 255 255
-41.9996 8 -15.6703 0 -1 0  255 255 255 255
-107.394 8 -1.72474 0 -1 0  255 255 255 255
-134.458 8 -12.4336 0 -1 0  255 255 255 255
-61.0656 8 -17.0593 0 -1 0  255 255 255 255
-14.7456 8 -15.2779 0 -1 0  255 255 255 255
-18.4482 8 -11.8291 0 -1 0  255 255 255 255
-125.321 8 -5.21026 0 -1 0  255 255 255 255
-81.8266 8 -4.29341 0 -1 0  255 255 255 255
-7.58394 8 -4.47367 0 -1 0  255 255 255 255
-54.5533 8 -15.5565 0 -1 0  255 255 255 255
-78.1928 8 -4.1826 0 -1 0  255 255 255 255
-97.9819 8 -17.0058 0 -1 0  255 255 255 255
-137.302 8 -16.9726 0 -1 0  255 255 255 255
-137.302 8 -0.527379 0 -1 0  255 255 255 255
-38.51 8 -4.58575 0 -1 0  255 255 255 255
-86.5198 8 -2.64195 0 -1 0  255 255 255 255
-135.125 8 -7.63228 0 -1 0  255 255 255 255
-77.4044 8 -7.2067 0 -1 0  255 255 255 255
-81.5333 8 -10.6992 0 -1 0  255 255 255 255
-141.805 8 -5.07295 0 -1 0  255 255 255 255
-10.1656 8 -11.0276 0 -1 0  255 255 255 255
-14.8656 8 -8.67598 0 -1 0  255 255 255 255
-106.418 8 -7.67765 0 -1 0  255 255 255 255
-43.1432 8 -15.5726 0 -1 0  255 255 255 255
-36.6258 8 -3.57099 0 -1 0  255 255 255 255
-15.4624 8 -5.52988 0 -1 0  255 255 255 255
-51.9705 8 -1.9354 0 -1 0  255 255 255 255
-102.254 8 -12.9242 0 -1 0  255 255 255 255
-122.272 8 -15.7281 0 -1 0  255 255 255 255
-126.339 8 -9.84313 0 -1 0  255 255 255 255
-12.0476 8 -6.90176 0 -1 0  255 255 255 255
-106.712 8 -11.7491 0 -1 0  255 255 255 255
-49.6754 8 -15.5929 0 -1 0  255 255 255 255
-87.504 8 -8.62941 0 -1 0  255 255 255 255
-123.997 8 -6.46205 0 -1 0  255 255 255 255
-18.7916 8 -17.1021 0 -1 0  255 255 255 255
-128.923 8 -4.67658 0 -1 0  255 255 255 255
-134.108 8 -1.85673 0 -1 0  255 255 255 255
-134.108 8 -15.6466 0 -1 0  255 255 255 255
-4.05136 8 -17.2976 0 -1 0  255 255 255 255
-52.7998 8 -8.6369 0 -1 0  255 255 255 255
-140.871 8 -0.39114 0 -1 0  255 255 255 255
-140.871 8 -17.1089 0 -1 0  255 255 255 255
-2.28646 8 -7.8133 0 -1 0  255 255 255 255
-59.7487 8 -11.8962 0 -1 0  255 255 255 255
-7.53483 8 -2.82799 0 -1 0  255 255 255 255
-55.2356 8 -17.0017 0 -1 0  255 255 255 255
-53.3313 8 -6.57012 0 -1 0  255 255 255 255
-98.5512 8 -10.412 0 -1 0  255 255 255 255
-107.378 8 -3.33539 0 -1 0  255 255 255 255
-91.8249 8 -2.07257 0 -1 0  255 255 255 255
-121.447 8 -7.74794 0 -1 0  255 255 255 255
-122.26 8 -8.50821 0 -1 0  255 255 255 255
-40.1312 8 -7.64201 0 -1 0  255 255 255 255
-122.402 8 -1.88069 0 -1 0  255 255 255 255
-22.943 8 -3.02906 0 -1 0  255 255 255 255
-45.3256 8 -15.7093 0 -1 0  255 255 255 255
-105.505 8 -11.0921 0 -1 0  255 255 255 255
-11.2932 8 -7.52022 0 -1 0  255 255 255 255
-65.9962 8 -6.30379 0 -1 0  255 255 255 255
-97.9272 8 -8.62201 0 -1 0  255 255 255 255
-113.881 8 -0.428417 0 -1 0  255 255 255 255
-112.162 8 -17.2693 0 -1 0  255 255 255 255
-85.5413 8 -13.5261 0 -1 0  255 255 255 255
-10.2796 8 -8.49275 0 -1 0  255 255 255 255
-39.5972 8 -17.1869 0 -1 0  255 255 255 255
-132.02 8 -17.1097 0 -1 0  255 255 255 255
-80.5401 8 -12.0697 0 -1 0  255 255 255 255
-36.5448 8 -4.76313 0 -1 0  255 255 255 255
-131.982 8 -0.29565 0 -1 0  255 255 255 255
-1.11584 8 -10.829 0 -1 0  255 255 255 255
-103.159 8 -0.432676 0 -1 0  255 255 255 255
-43.0777 8 -12.7938 0 -1 0  255 255 255 255
-120.409 8 -8.72871 0 -1 0  255 255 255 255
-4.36982 8 -0.42273 0 -1 0  255 255 255 255
-49.0293 8 -10.9576 0 -1 0  255 255 255 255
-52.511 8 -13.1273 0 -1 0  255 255 255 255
-6.64349 8 -12.8002 0 -1 0  255 255 255 255
-119.193 8 -13.8745 0 -1 0  255 255 255 255
-134.413 8 -5.0885 0 -1 0  255 255 255 255
-59.0835 8 -0.564169 0 -1 0  255 255 255 255
-68.911 8 -14.1918 0 -1 0  255 255 255 255
-62.8371 8 -13.5763 0 -1 0  255 255 255 255
-59.7509 8 -5.50213 0 -1 0  255 255 255 255
-54.8504 8 -0.460185 0 -1 0  255 255 255 255
-53.3814 8 -14.9068 0 -1 0  255 255 255 255
-136.53 8 -10.6994 0 -1 0  255 255 255 255
-111.89 8 -11.2011 0 -1 0  255 255 255 255
-61.9195 8 -11.8729 0 -1 0  255 255 255 255
-73.4802 8 -8.84381 0 -1 0  255 255 255 255
-97.284 8 -11.1313 0 -1 0  255 255 255 255
-40.3164 8 -15.7596 0 -1 0  255 255 255 255
-99.0927 8 -14.3934 0 -1 0  255 255 255 255
-45.0826 8 -12.4699 0 -1 0  255 255 255 255
-52.0646 8 -10.2794 0 -1 0  255 255 255 255
-123.167 8 -9.66057 0 -1 0  255 255 255 255
-76.9636 8 -15.7768 0 -1 0  255 255 255 255
-42.3413 8 -0.472925 0 -1 0  255 255 255 255
-46.6962 8 -6.9313 0 -1 0  255 255 255 255
-89.064 8 -17.0817 0 -1 0  255 255 255 255
-129.825 8 -17.1758 0 -1 0  255 255 255 255
-58.2104 8 -10.1923 0 -1 0  255 255 255 255
-39.6728 8 -14.0285 0 -1 0  255 255 255 255
-84.7968 8 -0.200438 0 -1 0  255 255 255 255
-59.6134 8 -17.3229 0 -1 0  255 255 255 255
-77.1264 8 -10.0011 0 -1 0  255 255 255 255
-37.9286 8 -12.1269 0 -1 0  255 255 255 255
-103.742 8 -13.3197 0 -1 0  255 255 255 255
-4.82067 8 -15.9299 0 -1 0  255 255 255 255
-72.9521 8 -9.92463 0 -1 0  255 255 255 255
-114.152 8 -3.98357 0 -1 0  255 255 255 255
-31.545 8 -7.8651 0 -1 0  255 255 255 255
-71.4733 8 -0.322594 0 -1 0  255 255 255 255
-33.2394 8 -7.42509 0 -1 0  255 255 255 255
-140.14 8 -4.75637 0 -1 0  255 255 255 255
-110.604 8 -0.265878 0 -1 0  255 255 255 255
-77.2342 8 -1.66703 0 -1 0  255 255 255 255
-100.21 8 -12.5929 0 -1 0  255 255 255 255
-47.8914 8 -7.63434 0 -1 0  255 255 255 255
-3.74802 8 -10.1487 0 -1 0  255 255 255 255
-53.7086 8 -17.0007 0 -1 0  255 255 255 255
-78.8227 8 -11.6462 0 -1 0  255 255 255 255
-38.0708 8 -0.298603 0 -1 0  255 255 255 255
-112.09 8 -13.7071 0 -1 0  255 255 255 255
-90.8173 8 -15.2109 0 -1 0  255 255 255 255
-113.185 8 -8.46418 0 -1 0  255 255 255 255
-60.8004 8 -0.423628 0 -1 0  255 255 255 255
-73.1437 8 -5.83258 0 -1 0  255 255 255 255
-122.023 8 -5.07329 0 -1 0  255 255 255 255
-126.343 8 -2.71225 0 -1 0  255 255 255 255
-5.64867 8 -1.75623 0 -1 0  255 255 255 255
-121.192 8 -2.65741 0 -1 0  255 255 255 255
-71.6607 8 -9.95521 0 -1 0  255 255 255 255
-64.3656 8 -6.96899 0 -1 0  255 255 255 255
-71.3049 8 -5.82524 0 -1 0  255 255 255 255
-12.5111 8 -5.04132 0 -1 0  255 255 255 255
-37.3857 8 -7.11301 0 -1 0  255 255 255 255
-50.8545 8 -11.1251 0 -1 0  255 255 255 255
-16.9773 8 -0.433725 0 -1 0  255 255 255 255
-136.189 8 -8.75 0 -1 0  255 255 255 255
-86.2298 8 -3.92134 0 -1 0  255 255 255 255
-38.5264 8 -8.45545 0 -1 0  255 255 255 255
-34.2891 8 -13.1494 0 -1 0  255 255 255 255
-66.2678 8 -17.0673 0 -1 0  255 255 255 255
-75.6676 8 -6.85218 0 -1 0  255 255 255 255
-132.885 8 -11.4232 0 -1 0  255 255 255 255
-45.5822 8 -11.361 0 -1 0  255 255 255 255
-74.2403 8 -10.5359 0 -1 0  255 255 255 255
-92.7951 8 -17.2013 0 -1 0  255 255 255 255
-65.6774 8 -7.74204 0 -1 0  255 255 255 255
-8.52084 8 -8.91762 0 -1 0  255 255 255 255
-129.882 8 -0.344366 0 -1 0  255 255 255 255
-64.3425 8 -8.74082 0 -1 0  255 255 255 255
-73.6935 8 -4.19342 0 -1 0  255 255 255 255
-96.0006 8 -9.5549 0 -1 0  255 255 255 255
-14.2006 8 -1.80319 0 -1 0  255 255 255 255
-24.2677 8 -3.54189 0 -1 0  255 255 255 255
-82.0888 8 -17.0925 0 -1 0  255 255 255 255
-88.846 8 -0.398868 0 -1 0  255 255 255 255
-25.5956 8 -5.16448 0 -1 0  255 255 255 255
-102.057 8 -4.37109 0 -1 0  255 255 255 255
-115.288 8 -5.31869 0 -1 0  255 255 255 255
-55.7165 8 -7.8025 0 -1 0  255 255 255 255
-124.343 8 -17.0132 0 -1 0  255 255 255 255
-52.4301 8 -11.7106 0 -1 0  255 255 255 255
-31.437 8 -0.251941 0 -1 0  255 255 255 255
-108.361 8 -13.5628 0 -1 0  255 255 255 255
-116.501 8 -14.1478 0 -1 0  255 255 255 255
-34.5348 8 -9.89782 0 -1 0  255 255 255 255
-6.04009 8 -8.01557 0 -1 0  255 255 255 255
-5.11763 8 -3.71828 0 -1 0  255 255 255 255
-124.467 8 -0.472373 0 -1 0  255 255 255 255
-26.8196 8 -16.0759 0 -1 0  255 255 255 255
-47.2879 8 -15.8903 0 -1 0  255 255 255 255
-96.6568 8 -6.19373 0 -1 0  255 255 255 255
-6.94403 8 -17.2854 0 -1 0  255 255 255 255
-93.6525 8 -13.958 0 -1 0  255 255 255 255
-43.2839 8 -14.4054 0 -1 0  255 255 255 255
-44.5794 8 -9.76179 0 -1 0  255 255 255 255
-2.14045 8 -17.0993 0 -1 0  255 255 255 255
-18.5857 8 -1.88711 0 -1 0  255 255 255 255
-87.8876 8 -3.34051 0 -1 0  255 255 255 255
-19.5495 8 -6.80991 0 -1 0  255 255 255 255
-80.2316 8 -1.58708 0 -1 0  255 255 255 255
-97.2955 8 -13.9302 0 -1 0  255 255 255 255
-115.004 8 -10.6621 0 -1 0  255 255 255 255
-78.0167 8 -17.1732 0 -1 0  255 255 255 255
-8.97756 8 -10.9815 0 -1 0  255 255 255 255
-141.44 8 -12.3755 0 -1 0  255 255 255 255
-19.3234 8 -10.7812 0 -1 0  255 255 255 255
-14.2942 8 -0.23199 0 -1 0  255 255 255 255
-16.7954 8 -5.24727 0 -1 0  255 255 255 255
-11.4928 8 -0.296853 0 -1 0  255 255 255 255
-121.49 8 -3.49644 0 -1 0  255 255 255 255
-48.2684 8 -10.8563 0 -1 0  255 255 255 255
-25.6711 8 -14.3457 0 -1 0  255 255 255 255
-107.419 8 -8.80377 0 -1 0  255 255 255 255
-99.6951 8 -16.055 0 -1 0  255 255 255 255
-78.7492 8 -1.93554 0 -1 0  255 255 255 255
-60.7045 8 -15.9912 0 -1 0  255 255 255 255
-97.345 8 -0.299907 0 -1 0  255 255 255 255
-138.615 8 -12.7538 0 -1 0  255 255 255 255
-43.2241 8 -6.57277 0 -1 0  255 255 255 255
-22.0303 8 -12.4858 0 -1 0  255 255 255 255
-57.1153 8 -10.8663 0 -1 0  255 255 255 255
-23.736 8 -8.40826 0 -1 0  255 255 255 255
-122.892 8 -6.9865 0 -1 0  255 255 255 255
-22.073 8 -5.12427 0 -1 0  255 255 255 255
-5.90318 8 -4.72729 0 -1 0  255 255 255 255
-69.2184 8 -12.6436 0 -1 0  255 255 255 255
-74.3178 8 -1.53877 0 -1 0  255 255 255 255
-95.85 8 -11.2119 0 -1 0  255 255 255 255
-6.55893 8 -15.8726 0 -1 0  255 255 255 255
-48.4193 8 -1.6964 0 -1 0  255 255 255 255
-89.1164 8 -5.59356 0 -1 0  255 255 255 255
-89.9788 8 -5.58357 0 -1 0  255 255 255 255
-31.76 8 -1.83812 0 -1 0  255 255 255 255
-111.477 8 -5.38287 0 -1 0  255 255 255 255
-35.0908 8 -2.65583 0 -1 0  255 255 255 255
-24.0482 8 -17.3382 0 -1 0  255 255 255 255
-23.9565 8 -0.343987 0 -1 0  255 255 255 255
-14.954 8 -7.02767 0 -1 0  255 255 255 255
-106.161 8 -9.40827 0 -1 0  255 255 255 255
-0.737999 8 -7.26821 0 -1 0  255 255 255 255
-134.944 8 -14.0481 0 -1 0  255 255 255 255
-134.944 8 -3.45194 0 -1 0  255 255 255 255
-135.245 8 -14.889 0 -1 0  255 255 255 255
-135.245 8 -2.61112 0 -1 0  255 255 255 255
-105.89 8 -3.98088 0 -1 0  255 255 255 255
-65.3948 8 -11.6248 0 -1 0  255 255 255 255
-106.644 8 -13.8243 0 -1 0  255 255 255 255
-25.9394 8 -17.0041 0 -1 0  255 255 255 255
-45.5543 8 -2.48966 0 -1 0  255 255 255 255
-103.702 8 -8.81563 0 -1 0  255 255 255 255
-2.33899 8 -6.55418 0 -1 0  255 255 255 255
-121.862 8 -12.3352 0 -1 0  255 255 255 255
-55.5507 8 -11.2172 0 -1 0  255 255 255 255
-115.521 8 -17.0652 0 -1 0  255 255 255 255
-93.7224 8 -2.61155 0 -1 0  255 255 255 255
-124.664 8 -3.84491 0 -1 0  255 255 255 255
-88.3107 8 -2.15677 0 -1 0  255 255 255 255
-51.2519 8 -13.2462 0 -1 0  255 255 255 255
-34.4187 8 -0.236203 0 -1 0  255 255 255 255
-72.7381 8 -1.78071 0 -1 0  255 255 255 255
-92.9609 8 -5.89385 0 -1 0  255 255 255 255
-79.5283 8 -17.1913 0 -1 0  255 255 255 255
-37.8258 8 -15.212 0 -1 0  255 255 255 255
-2.19231 8 -2.75127 0 -1 0  255 255 255 255
-18.863 8 -15.8401 0 -1 0  255 255 255 255
-95.5443 8 -5.88244 0 -1 0  255 255 255 255
-48.1918 8 -17.0878 0 -1 0  255 255 255 255
-39.44 8 -15.3892 0 -1 0  255 255 255 255
-87.6263 8 -1.63587 0 -1 0  255 255 255 255
-20.5477 8 -2.36774 0 -1 0  255 255 255 255
-53.0561 8 -2.77981 0 -1 0  255 255 255 255
-117.231 8 -7.22827 0 -1 0  255 255 255 255
-58.6843 8 -11.647 0 -1 0  255 255 255 255
-133.669 8 -9.72662 0 -1 0  255 255 255 255
-62.8301 8 -10.9255 0 -1 0  255 255 255 255
-17.512 8 -16.0517 0 -1 0  255 255 255 255
-70.6156 8 -14.3419 0 -1 0  255 255 255 255
-30.4941 8 -1.50444 0 -1 0  255 255 255 255
-108.152 8 -7.69649 0 -1 0  255 255 255 255
-53.6565 8 -11.1009 0 -1 0  255 255 255 255
-5.90646 8 -6.41843 0 -1 0  255 255 255 255
-94.9482 8 -10.828 0 -1 0  255 255 255 255
-38.5191 8 -1.78162 0 -1 0  255 255 255 255
-37.4469 8 -2.0737 0 -1 0  255 255 255 255
-110.865 8 -3.64828 0 -1 0  255 255 255 255
-142.949 8 -0.340698 0 -1 0  255 255 255 255
-142.949 8 -17.1593 0 -1 0  255 255 255 255
-77.9214 8 -8.86935 0 -1 0  255 255 255 255
-104.308 8 -12.8933 0 -1 0  255 255 255 255
-119.479 8 -0.251866 0 -1 0  255 255 255 255
-47.8814 8 -9.60053 0 -1 0  255 255 255 255
-0.791581 8 -14.6637 0 -1 0  255 255 255 255
-84.6113 8 -11.3305 0 -1 0  255 255 255 255
-51.3898 8 -0.112552 0 -1 0  255 255 255 255
-95.596 8 -15.7461 0 -1 0  255 255 255 255
-119.47 8 -17.3433 0 -1 0  255 255 255 255
-102.679 8 -15.7824 0 -1 0  255 255 255 255
-32.1387 8 -13.1394 0 -1 0  255 255 255 255
-106.214 8 -3.36774 0 -1 0  255 255 255 255
-32.8826 8 -4.4187 0 -1 0  255 255 255 255
-31.2938 8 -15.6751 0 -1 0  255 255 255 255
-42.2634 8 -11.2401 0 -1 0  255 255 255 255
-26.974 8 -2.62686 0 -1 0  255 255 255 255
-60.426 8 -1.5739 0 -1 0  255 255 255 255
-110.397 8 -2.19441 0 -1 0  255 255 255 255
-112.463 8 -9.69612 0 -1 0  255 255 255 255
-107.087 8 -10.5486 0 -1 0  255 255 255 255
-65.4698 8 -12.5118 0 -1 0  255 255 255 255
-14.8969 8 -10.5558 0 -1 0  255 255 255 255
-81.8618 8 -1.51171 0 -1 0  255 255 255 255
-111.685 8 -12.0434 0 -1 0  255 255 255 255
-119.808 8 -3.36219 0 -1 0  255 255 255 255
-46.5994 8 -2.58473 0 -1 0  255 255 255 255
-119.379 8 -15.4515 0 -1 0  255 255 255 255
-112.513 8 -12.647 0 -1 0  255 255 255 255
-35.3986 8 -13.0141 0 -1 0  255 255 255 255
-52.1272 8 -17.204 0 -1 0  255 255 255 255
-4.58126 8 -8.89683 0 -1 0  255 255 255 255
-33.2019 8 -2.99303 0 -1 0  255 255 255 255
-74.3176 8 -4.64602 0 -1 0  255 255 255 255
-8.72466 8 -6.42272 0 -1 0  255 255 255 255
-0.725827 8 -12.4154 0 -1 0  255 255 255 255
-64.9377 8 -4.7862 0 -1 0  255 255 255 255
-133.55 8 -17.2054 0 -1 0  255 255 255 255
-11.4628 8 -2.4704 0 -1 0  255 255 255 255
-73.6211 8 -15.9118 0 -1 0  255 255 255 255
-60.2123 8 -13.4503 0 -1 0  255 255 255 255
-115.575 8 -6.81004 0 -1 0  255 255 255 255
-89.4405 8 -14.7864 0 -1 0  255 255 255 255
-69.9521 8 -0.227149 0 -1 0  255 255 255 255
-2.46938 8 -10.7706 0 -1 0  255 255 255 255
-125.437 8 -8.85451 0 -1 0  255 255 255 255
-128.849 8 -14.5807 0 -1 0  255 255 255 255
-92.5486 8 -11.0891 0 -1 0  255 255 255 255
-12.0662 8 -8.67037 0 -1 0  255 255 255 255
-142.547 8 -3.49343 0 -1 0  255 255 255 255
-71.5461 8 -1.75294 0 -1 0  255 255 255 255
-42.5375 8 -17.191 0 -1 0  255 255 255 255
-75.6984 8 -4.22302 0 -1 0  255 255 255 255
-102.41 8 -10.8192 0 -1 0  255 255 255 255
-71.3455 8 -10.6739 0 -1 0  255 255 255 255
-50.3809 8 -9.82332 0 -1 0  255 255 255 255
-47.8105 8 -12.078 0 -1 0  255 255 255 255
-106.761 8 -4.80578 0 -1 0  255 255 255 255
-118.831 8 -12.4813 0 -1 0  255 255 255 255
-20.3194 8 -8.29817 0 -1 0  255 255 255 255
-141.427 8 -6.53007 0 -1 0  255 255 255 255
-29.9984 8 -15.9339 0 -1 0  255 255 255 255
-112.311 8 -2.81695 0 -1 0  255 255 255 255
-16.4826 8 -10.5105 0 -1 0  255 255 255 255
-49.5835 8 -8.30413 0 -1 0  255 255 255 255
-77.76 8 -2.98821 0 -1 0  255 255 255 255
-53.9196 8 -5.19474 0 -1 0  255 255 255 255
-134.399 8 -10.4525 0 -1 0  255 255 255 255
-50.5141 8 -14.1637 0 -1 0  255 255 255 255
-113.494 8 -11.5675 0 -1 0  255 255 255 255
-97.2761 8 -15.0994 0 -1 0  255 255 255 255
-63.9328 8 -15.7673 0 -1 0  255 255 255 255
-36.81 8 -6.48173 0 -1 0  255 255 255 255
-79.7241 8 -12.9536 0 -1 0  255 255 255 255
-22.2528 8 -9.81701 0 -1 0  255 255 255 255
-75.1798 8 -13.3677 0 -1 0  255 255 255 255
-40.8683 8 -3.90777 0 -1 0  255 255 255 255
-73.1717 8 -17.1431 0 -1 0  255 255 255 255
-75.9428 8 -10.9159 0 -1 0  255 255 255 255
-94.1083 8 -17.1532 0 -1 0  255 255 255 255
-43.9128 8 -0.314022 0 -1 0  255 255 255 255
-106.71 8 -0.458677 0 -1 0  255 255 255 255
-139.721 8 -7.23779 0 -1 0  255 255 255 255
-23.5454 8 -1.66899 0 -1 0  255 255 255 255
-95.4594 8 -5.00604 0 -1 0  255 255 255 255
-120.394 8 -6.96887 0 -1 0  255 255 255 255
-21.2153 8 -13.692 0 -1 0  255 255 255 255
-119.383 8 -11.5139 0 -1 0  255 255 255 255
-75.1416 8 -0.251156 0 -1 0  255 255 255 255
-114 8 -2.3539 0 -1 0  255 255 255 255
-105.091 8 -17.1463 0 -1 0  255 255 255 255
-16.3959 8 -6.91799 0 -1 0  255 255 255 255
-65.8454 8 -3.65592 0 -1 0  255 255 255 255
-13.8776 8 -6.22081 0 -1 0  255 255 255 255
-45.6915 8 -7.49763 0 -1 0  255 255 255 255
-131.642 8 -13.9917 0 -1 0  255 255 255 255
-41.8465 8 -9.86413 0 -1 0  255 255 255 255
-138.149 8 -4.96241 0 -1 0  255 255 255 255
-85.9442 8 -9.27149 0 -1 0  255 255 255 255
-63.2108 8 -0.215416 0 -1 0  255 255 255 255
-59.2475 8 -1.2609 0 -1 0  255 255 255 255
-14.4143 8 -15.9639 0 -1 0  255 255 255 255
-133.582 8 -0.298697 0 -1 0  255 255 255 255
-91.8584 8 -7.14923 0 -1 0  255 255 255 255
-91.7111 8 -4.95572 0 -1 0  255 255 255 255
-137.057 8 -7.89935 0 -1 0  255 255 255 255
-38.3465 8 -7.08661 0 -1 0  255 255 255 255
-53.7877 8 -14.0404 0 -1 0  255 255 255 255
-84.6619 8 -1.3773 0 -1 0  255 255 255 255
-23.8853 8 -7.06315 0 -1 0  255 255 255 255
-66.4642 8 -2.14774 0 -1 0  255 255 255 255
-66.9806 8 -7.01704 0 -1 0  255 255 255 255
-35.8247 8 -7.46035 0 -1 0  255 255 255 255
-10.7132 8 -17.2266 0 -1 0  255 255 255 255
-81.9439 8 -5.74003 0 -1 0  255 255 255 255
-80.8174 8 -10.4107 0 -1 0  255 255 255 255
-59.681 8 -16.148 0 -1 0  255 255 255 255
-120.194 8 -15.9585 0 -1 0  255 255 255 255
-119.896 8 -13.3316 0 -1 0  255 255 255 255
-92.8704 8 -6.58572 0 -1 0  255 255 255 255
-91.2757 8 -3.54843 0 -1 0  255 255 255 255
-20.5669 8 -15.2457 0 -1 0  255 255 255 255
-92.4872 8 -0.348147 0 -1 0  255 255 255 255
-54.4836 8 -12.4047 0 -1 0  255 255 255 255
-45.1263 8 -3.5663 0 -1 0  255 255 255 255
-122.855 8 -0.40959 0 -1 0  255 255 255 255
-55.0026 8 -1.22284 0 -1 0  255 255 255 255
-40.8211 8 -11.9179 0 -1 0  255 255 255 255
-116.845 8 -6.11331 0 -1 0  255 255 255 255
-30.6579 8 -17.2239 0 -1 0  255 255 255 255
-96.8717 8 -1.43963 0 -1 0  255 255 255 255
-63.2605 8 -17.4399 0 -1 0  255 255 255 255
-44.1117 8 -16.0837 0 -1 0  255 255 255 255
-122.726 8 -17.0722 0 -1 0  255 255 255 255
-2.07746 8 -13.6787 0 -1 0  255 255 255 255
-11.247 8 -11.48 0 -1 0  255 255 255 255
-138.699 8 -1.47824 0 -1 0  255 255 255 255
-138.699 8 -16.0216 0 -1 0  255 255 255 255
-117.624 8 -0.345589 0 -1 0  255 255 255 255
-37.7141 8 -17.1546 0 -1 0  255 255 255 255
-46.4369 8 -12.8934 0 -1 0  255 255 255 255
-46.7764 8 -12.0733 0 -1 0  255 255 255 255
-53.9796 8 -6.03421 0 -1 0  255 255 255 255
-16.4689 8 -1.67598 0 -1 0  255 255 255 255
-20.2368 8 -7.41152 0 -1 0  255 255 255 255
-75.7097 8 -8.82356 0 -1 0  255 255 255 255
-11.2816 8 -12.3438 0 -1 0  255 255 255 255
-80.7332 8 -15.9513 0 -1 0  255 255 255 255
-137.539 8 -12.6748 0 -1 0  255 255 255 255
-12.7332 8 -12.0097 0 -1 0  255 255 255 255
-47.3072 8 -0.342273 0 -1 0  255 255 255 255
-24.3969 8 -1.99396 0 -1 0  255 255 255 255
-28.2047 8 -3.23869 0 -1 0  255 255 255 255
-83.5321 8 -17.1295 0 -1 0  255 255 255 255
-121.37 8 -9.49242 0 -1 0  255 255 255 255
-83.2252 8 -7.06812 0 -1 0  255 255 255 255
-116.927 8 -9.86514 0 -1 0  255 255 255 255
-36.1945 8 -10.007 0 -1 0  255 255 255 255
-121.119 8 -13.7178 0 -1 0  255 255 255 255
-68.2408 8 -4.97934 0 -1 0  255 255 255 255
-75.03 8 -3.20845 0 -1 0  255 255 255 255
-78.2778 8 -15.7573 0 -1 0  255 255 255 255
-13.1253 8 -15.7156 0 -1 0  255 255 255 255
-8.05658 8 -0.337376 0 -1 0  255 255 255 255
-136.606 8 -2.74537 0 -1 0  255 255 255 255
-136.658 8 -14.7253 0 -1 0  255 255 255 255
-1.91708 8 -9.58842 0 -1 0  255 255 255 255
-94.8785 8 -12.4999 0 -1 0  255 255 255 255
-71.9773 8 -13.5708 0 -1 0  255 255 255 255
-89.2566 8 -7.03765 0 -1 0  255 255 255 255
-98.1536 8 -4.42764 0 -1 0  255 255 255 255
-13.0861 8 -17.1992 0 -1 0  255 255 255 255
-137.221 8 -15.8255 0 -1 0  255 255 255 255
-137.221 8 -1.67423 0 -1 0  255 255 255 255
-18.6676 8 -4.51775 0 -1 0  255 255 255 255
-79.041 8 -2.69438 0 -1 0  255 255 255 255
-35.6139 8 -14.2703 0 -1 0  255 255 255 255
-93.2745 8 -10.8607 0 -1 0  255 255 255 255
-23.4408 8 -16.0094 0 -1 0  255 255 255 255
-98.8595 8 -9.31305 0 -1 0  255 255 255 255
-9.27847 8 -15.8384 0 -1 0  255 255 255 255
-90.6757 8 -11.4307 0 -1 0  255 255 255 255
-15.4068 8 -6.48897 0 -1 0  255 255 255 255
-114.44 8 -5.49997 0 -1 0  255 255 255 255
-107.686 8 -3.98532 0 -1 0  255 255 255 255
-67.2831 8 -10.1889 0 -1 0  255 255 255 255
-42.2994 8 -12.4011 0 -1 0  255 255 255 255
-7.24547 8 -7.06799 0 -1 0  255 255 255 255
-11.6654 8 -3.79816 0 -1 0  255 255 255 255
-131.503 8 -15.0112 0 -1 0  255 255 255 255
-141.793 8 -8.22554 0 -1 0  255 255 255 255
-18.8514 8 -0.230188 0 -1 0  255 255 255 255
-117.888 8 -2.25456 0 -1 0  255 255 255 255
-75.8298 8 -17.2493 0 -1 0  255 255 255 255
-92.0374 8 -3.27958 0 -1 0  255 255 255 255
-84.5958 8 -12.2699 0 -1 0  255 255 255 255
-68.4107 8 -0.259819 0 -1 0  255 255 255 255
-138.007 8 -14.2575 0 -1 0  255 255 255 255
-137.891 8 -3.2913 0 -1 0  255 255 255 255
-71.9953 8 -15.9789 0 -1 0  255 255 255 255
-14.8055 8 -2.17717 0 -1 0  255 255 255 255
-6.24152 8 -2.99766 0 -1 0  255 255 255 255
-71.8428 8 -14.2412 0 -1 0  255 255 255 255
-121.696 8 -11.4571 0 -1 0  255 255 255 255
-31.4642 8 -9.68866 0 -1 0  255 255 255 255
-101.09 8 -9.18875 0 -1 0  255 255 255 255
-86.7997 8 -7.92205 0 -1 0  255 255 255 255
-95.0132 8 -8.64651 0 -1 0  255 255 255 255
-88.4414 8 -7.51803 0 -1 0  255 255 255 255
-124.878 8 -14.8939 0 -1 0  255 255 255 255
-115.138 8 -14.3298 0 -1 0  255 255 255 255
-140.105 8 -10.3248 0 -1 0  255 255 255 255
-35.7733 8 -5.47396 0 -1 0  255 255 255 255
-28.6268 8 -4.62995 0 -1 0  255 255 255 255
-144.192 8 -5.81671 0 -1 0  255 255 255 255
-48.3867 8 -15.9897 0 -1 0  255 255 255 255
-42.0564 8 -13.99 0 -1 0  255 255 255 255
-103.232 8 -5.55124 0 -1 0  255 255 255 255
-57.793 8 -1.52831 0 -1 0  255 255 255 255
-103.848 8 -6.00721 0 -1 0  255 255 255 255
-115.501 8 -15.6252 0 -1 0  255 255 255 255
-3.18788 8 -5.23318 0 -1 0  255 255 255 255
-10.8736 8 -5.82249 0 -1 0  255 255 255 255
-0.786176 8 -4.2759 0 -1 0  255 255 255 255
-12.7658 8 -13.5085 0 -1 0  255 255 255 255
-111.043 8 -16.2457 0 -1 0  255 255 255 255
-80.2958 8 -14.3346 0 -1 0  255 255 255 255
-55.4285 8 -16.2523 0 -1 0  255 255 255 255
-73.9738 8 -7.18015 0 -1 0  255 255 255 255
-52.1658 8 -14.4525 0 -1 0  255 255 255 255
-72.3529 8 -0.36278 0 -1 0  255 255 255 255
-99.284 8 -10.7946 0 -1 0  255 255 255 255
-48.3211 8 -6.35349 0 -1 0  255 255 255 255
-55.7988 8 -2.53937 0 -1 0  255 255 255 255
-102.386 8 -17.2222 0 -1 0  255 255 255 255
-45.5392 8 -13.956 0 -1 0  255 255 255 255
-7.16573 8 -5.72665 0 -1 0  255 255 255 255
-37.0495 8 -5.15375 0 -1 0  255 255 255 255
-114.288 8 -16.1057 0 -1 0  255 255 255 255
-58.637 8 -14.3456 0 -1 0  255 255 255 255
-40.2968 8 -9.67611 0 -1 0  255 255 255 255
-20.324 8 -4.53065 0 -1 0  255 255 255 255
-67.5411 8 -9.19168 0 -1 0  255 255 255 255
-9.7157 8 -9.51305 0 -1 0  255 255 255 255
-8.17167 8 -12.183 0 -1 0  255 255 255 255
-34.3811 8 -11.6706 0 -1 0  255 255 255 255
-3.90232 8 -6.98541 0 -1 0  255 255 255 255
-32.9476 8 -1.40212 0 -1 0  255 255 255 255
-84.1974 8 -13.7486 0 -1 0  255 255 255 255
-137.921 8 -8.66957 0 -1 0  255 255 255 255
-41.8074 8 -14.8543 0 -1 0  255 255 255 255
-81.3043 8 -0.382277 0 -1 0  255 255 255 255
-10.573 8 -13.5222 0 -1 0  255 255 255 255
-54.6877 8 -6.30555 0 -1 0  255 255 255 255
-92.6486 8 -4.09213 0 -1 0  255 255 255 255
-33.1862 8 -0.343957 0 -1 0  255 255 255 255
-68.4332 8 -15.662 0 -1 0  255 255 255 255
-128.351 8 -0.253854 0 -1 0  255 255 255 255
-125.019 8 -2.59226 0 -1 0  255 255 255 255
-80.2418 8 -2.81803 0 -1 0  255 255 255 255
-101.685 8 -3.197 0 -1 0  255 255 255 255
-76.5094 8 -1.82406 0 -1 0  255 255 255 255
-59.8637 8 -10.4727 0 -1 0  255 255 255 255
-126.948 8 -13.2285 0 -1 0  255 255 255 255
-73.3283 8 -14.2891 0 -1 0  255 255 255 255
-104.295 8 -15.9889 0 -1 0  255 255 255 255
-50.769 8 -5.22858 0 -1 0  255 255 255 255
-85.2905 8 -4.08387 0 -1 0  255 255 255 255
-27.4745 8 -5.79322 0 -1 0  255 255 255 255
-103.034 8 -11.9186 0 -1 0  255 255 255 255
-118.397 8 -6.0891 0 -1 0  255 255 255 255
-52.4096 8 -5.90422 0 -1 0  255 255 255 255
-122.736 8 -14.5949 0 -1 0  255 255 255 255
-61.1011 8 -11.4497 0 -1 0  255 255 255 255
-44.1085 8 -7.87718 0 -1 0  255 255 255 255
-128.329 8 -17.2267 0 -1 0  255 255 255 255
-36.4796 8 -11.6152 0 -1 0  255 255 255 255
-0.821633 8 -0.414075 0 -1 0  255 255 255 255
-54.2434 8 -3.56591 0 -1 0  255 255 255 255
-49.4663 8 -0.318778 0 -1 0  255 255 255 255
-15.4476 8 -10.9901 0 -1 0  255 255 255 255
-39.4771 8 -11.2512 0 -1 0  255 255 255 255
-58.8413 8 -2.45628 0 -1 0  255 255 255 255
-109.831 8 -10.0795 0 -1 0  255 255 255 255
