ply
format ascii 1.0
comment VCGLIB generated
element vertex 1041
property float x
property float y
property float z
property float nx
property float ny
property float nz
property uchar red
property uchar green
property uchar blue
property uchar alpha
element face 0
property list uchar int vertex_indices
end_header
-16.0745 0.5 1.67566 0 1 0  255 255 255 255
-26.2941 0.5 5.33735 0 1 0  255 255 255 255
-28.7433 0.5 2.85464 0 1 0  255 255 255 255
-27.8509 0.5 0.709374 0 1 0  255 255 255 255
-8.68459 0.5 0.684823 0 1 0  255 255 255 255
-8.5706 0.5 2.98916 0 1 0  255 255 255 255
-8.70615 0.5 5.31126 0 1 0  255 255 255 255
-24.0954 0.5 3.36306 0 1 0  255 255 255 255
-16.2061 0.5 3.67846 0 1 0  255 255 255 255
-17.6398 0.5 5.35338 0 1 0  255 255 255 255
-22.1236 0.5 5.43237 0 1 0  255 255 255 255
-27.2908 0.5 4.42506 0 1 0  255 255 255 255
-19.3778 0.5 2.25197 0 1 0  255 255 255 255
-17.7927 0.5 3.35516 0 1 0  255 255 255 255
-22.4461 0.5 1.8061 0 1 0  255 255 255 255
-17.338 0.5 1.97243 0 1 0  255 255 255 255
-10.7189 0.5 1.53979 0 1 0  255 255 255 255
-21.75 0.5 1.74596 0 1 0  255 255 255 255
-12.7235 0.5 3.67769 0 1 0  255 255 255 255
-9.48288 0.5 1.78812 0 1 0  255 255 255 255
-9.50438 0.5 3.54901 0 1 0  255 255 255 255
-28.7435 0.5 0.677224 0 1 0  255 255 255 255
-22.1235 0.5 0.54004 0 1 0  255 255 255 255
-9.80131 0.5 4.59361 0 1 0  255 255 255 255
-23.2128 0.5 3.61754 0 1 0  255 255 255 255
-27.7522 0.5 1.52119 0 1 0  255 255 255 255
-20.6112 0.5 5.37676 0 1 0  255 255 255 255
-9.48583 0.5 0.618272 0 1 0  255 255 255 255
-8.52715 0.5 1.30192 0 1 0  255 255 255 255
-17.9345 0.5 2.52904 0 1 0  255 255 255 255
-8.53078 0.5 4.67825 0 1 0  255 255 255 255
-20.4299 0.5 1.81226 0 1 0  255 255 255 255
-24.0568 0.5 1.63256 0 1 0  255 255 255 255
-25.3195 0.5 1.60991 0 1 0  255 255 255 255
-26.148 0.5 2.5202 0 1 0  255 255 255 255
-26.5611 0.5 3.13813 0 1 0  255 255 255 255
-13.564 0.5 0.488408 0 1 0  255 255 255 255
-20.9912 0.5 3.70426 0 1 0  255 255 255 255
-19.5138 0.5 5.44854 0 1 0  255 255 255 255
-20.7557 0.5 2.48096 0 1 0  255 255 255 255
-10.2066 0.5 3.37241 0 1 0  255 255 255 255
-28.9195 0.5 1.28571 0 1 0  255 255 255 255
-18.9814 0.5 2.77142 0 1 0  255 255 255 255
-15.0729 0.5 4.28776 0 1 0  255 255 255 255
-10.6124 0.5 2.20883 0 1 0  255 255 255 255
-23.4504 0.5 2.4551 0 1 0  255 255 255 255
-24.692 0.5 5.52684 0 1 0  255 255 255 255
-13.5851 0.5 5.50861 0 1 0  255 255 255 255
-13.7326 0.5 2.73065 0 1 0  255 255 255 255
-16.988 0.5 5.52979 0 1 0  255 255 255 255
-18.7 0.5 0.470215 0 1 0  255 255 255 255
-28.8452 0.5 4.62139 0 1 0  255 255 255 255
-24.9775 0.5 4.39723 0 1 0  255 255 255 255
-25.4305 0.5 2.89102 0 1 0  255 255 255 255
-28.0234 0.5 5.44712 0 1 0  255 255 255 255
-11.7606 0.5 5.4647 0 1 0  255 255 255 255
-21.5581 0.5 3.15309 0 1 0  255 255 255 255
-26.5733 0.5 1.35518 0 1 0  255 255 255 255
-18.2514 0.5 3.65754 0 1 0  255 255 255 255
-16.6645 0.5 3.16894 0 1 0  255 255 255 255
-17.6499 0.5 4.67483 0 1 0  255 255 255 255
-26.1111 0.5 4.70611 0 1 0  255 255 255 255
-24.6979 0.5 2.09565 0 1 0  255 255 255 255
-16.8265 0.5 4.381 0 1 0  255 255 255 255
-28.1364 0.5 2.69169 0 1 0  255 255 255 255
-14.4106 0.5 4.66553 0 1 0  255 255 255 255
-12.4546 0.5 3.16749 0 1 0  255 255 255 255
-15.5391 0.5 3.23677 0 1 0  255 255 255 255
-14.325 0.5 2.71476 0 1 0  255 255 255 255
-26.6944 0.5 4.24558 0 1 0  255 255 255 255
-14.9275 0.5 3.60544 0 1 0  255 255 255 255
-18.0955 0.5 0.590549 0 1 0  255 255 255 255
-11.8946 0.5 2.36726 0 1 0  255 255 255 255
-27.2017 0.5 0.49803 0 1 0  255 255 255 255
-18.975 0.5 1.59522 0 1 0  255 255 255 255
-14.1499 0.5 0.559163 0 1 0  255 255 255 255
-31.4 2.71801 1.28571 1 0 0  255 255 255 255
-31.4 2.71801 0.428571 1 0 0  255 255 255 255
-31.4 2.71801 2.14286 1 0 0  255 255 255 255
-31.4 2.71801 5.57143 1 0 0  255 255 255 255
-31.4 2.71801 3.85714 1 0 0  255 255 255 255
-31.4 2.71801 3 1 0 0  255 255 255 255
-31.4 2.71801 4.71429 1 0 0  255 255 255 255
-31.4 19.0701 3 1 0 0  255 255 255 255
-31.4 10.4343 3 1 0 0  255 255 255 255
-31.4 14.77 2.87567 1 0 0  255 255 255 255
-31.4 12.5853 2.26147 1 0 0  255 255 255 255
-31.4 16.9111 2.27684 1 0 0  255 255 255 255
-31.4 16.2881 4.10342 1 0 0  255 255 255 255
-31.4 13.2163 4.10342 1 0 0  255 255 255 255
-31.4 20.4512 1.59266 1 0 0  255 255 255 255
-31.4 20.3796 4.2839 1 0 0  255 255 255 255
-31.4 9.05321 1.59266 1 0 0  255 255 255 255
-31.4 9.12479 4.2839 1 0 0  255 255 255 255
-31.4 11.603 4.4356 1 0 0  255 255 255 255
-31.4 17.9014 4.4356 1 0 0  255 255 255 255
-31.4 13.8921 1.5498 1 0 0  255 255 255 255
-31.4 18.2657 1.47676 1 0 0  255 255 255 255
-31.4 11.3055 1.52029 1 0 0  255 255 255 255
-31.4 15.6199 1.5185 1 0 0  255 255 255 255
-31.4 14.7522 4.45394 1 0 0  255 255 255 255
-31.4 8.702 3 1 0 0  255 255 255 255
-31.4 20.8024 3 1 0 0  255 255 255 255
-31.4 19.1749 4.78133 1 0 0  255 255 255 255
-31.4 10.3295 4.78133 1 0 0  255 255 255 255
-31.4 17.8375 3.09544 1 0 0  255 255 255 255
-31.4 11.6668 3.09544 1 0 0  255 255 255 255
-31.4 15.9435 2.9723 1 0 0  255 255 255 255
-31.4 13.5609 2.9723 1 0 0  255 255 255 255
-31.4 12.1755 1.17987 1 0 0  255 255 255 255
-31.4 17.4088 1.20782 1 0 0  255 255 255 255
-31.4 19.448 1.1259 1 0 0  255 255 255 255
-31.4 10.0564 1.1259 1 0 0  255 255 255 255
-31.4 12.4317 4.91014 1 0 0  255 255 255 255
-31.4 17.0727 4.91014 1 0 0  255 255 255 255
-31.4 15.7385 5.02037 1 0 0  255 255 255 255
-31.4 13.7658 5.02037 1 0 0  255 255 255 255
-31.4 20.9154 4.96085 1 0 0  255 255 255 255
-31.4 20.9234 1.00671 1 0 0  255 255 255 255
-31.4 8.58895 4.96085 1 0 0  255 255 255 255
-31.4 8.581 1.00671 1 0 0  255 255 255 255
-31.4 14.7709 0.937351 1 0 0  255 255 255 255
-31.4 13.0198 0.790355 1 0 0  255 255 255 255
-31.4 12.4817 3.4365 1 0 0  255 255 255 255
-31.4 17.0227 3.4365 1 0 0  255 255 255 255
-31.4 14.038 3.76825 1 0 0  255 255 255 255
-31.4 15.4664 3.76825 1 0 0  255 255 255 255
-31.4 19.5393 2.14053 1 0 0  255 255 255 255
-31.4 9.94018 2.12793 1 0 0  255 255 255 255
-31.4 8.2967 3.7904 1 0 0  255 255 255 255
-31.4 21.2077 3.7904 1 0 0  255 255 255 255
-31.4 21.2437 2.22086 1 0 0  255 255 255 255
-31.4 8.26067 2.22086 1 0 0  255 255 255 255
-31.4 16.5012 0.785762 1 0 0  255 255 255 255
-31.4 19.4711 3.86081 1 0 0  255 255 255 255
-31.4 10.0332 3.86081 1 0 0  255 255 255 255
-31.4 14.7718 1.96491 1 0 0  255 255 255 255
-31.4 20.0345 5.12752 1 0 0  255 255 255 255
-31.4 9.46987 5.12752 1 0 0  255 255 255 255
-31.4 18.3348 5.20305 1 0 0  255 255 255 255
-31.4 11.1695 5.20305 1 0 0  255 255 255 255
-31.4 19.9362 2.80112 1 0 0  255 255 255 255
-31.4 9.56813 2.80112 1 0 0  255 255 255 255
-31.4 18.4587 2.40949 1 0 0  255 255 255 255
-31.4 11.7075 2.39505 1 0 0  255 255 255 255
-31.4 20.2195 0.77223 1 0 0  255 255 255 255
-31.4 9.28488 0.77223 1 0 0  255 255 255 255
-31.4 18.5838 3.72685 1 0 0  255 255 255 255
-31.4 11.0571 3.6364 1 0 0  255 255 255 255
-31.4 11.4822 0.639024 1 0 0  255 255 255 255
-31.4 18.089 0.664768 1 0 0  255 255 255 255
-31.4 17.1168 4.17789 1 0 0  255 255 255 255
-31.4 12.3876 4.17789 1 0 0  255 255 255 255
-31.4 13.3329 2.26459 1 0 0  255 255 255 255
-31.4 16.1807 2.26297 1 0 0  255 255 255 255
-31.4 10.8554 2.29354 1 0 0  255 255 255 255
-31.4 17.5857 2.10167 1 0 0  255 255 255 255
-31.4 14.7522 5.05061 1 0 0  255 255 255 255
-31.4 13.9229 0.675613 1 0 0  255 255 255 255
-31.4 15.6236 0.648322 1 0 0  255 255 255 255
-31.4 14.0984 2.46046 1 0 0  255 255 255 255
-31.4 13.0883 5.321 1 0 0  255 255 255 255
-31.4 16.416 5.321 1 0 0  255 255 255 255
-31.4 9.18105 3.53197 1 0 0  255 255 255 255
-31.4 20.3233 3.53197 1 0 0  255 255 255 255
-31.4 16.6648 1.62138 1 0 0  255 255 255 255
-31.4 12.8652 1.63726 1 0 0  255 255 255 255
-31.4 15.4338 2.45982 1 0 0  255 255 255 255
-31.4 8.00733 3.00082 1 0 0  255 255 255 255
-31.4 21.497 3.00082 1 0 0  255 255 255 255
-31.4 10.6236 0.643085 1 0 0  255 255 255 255
-31.4 18.8808 0.643085 1 0 0  255 255 255 255
-31.4 19.1312 5.42238 1 0 0  255 255 255 255
-31.4 10.3732 5.42238 1 0 0  255 255 255 255
-31.4 20.3946 2.35103 1 0 0  255 255 255 255
-31.4 9.08115 2.36546 1 0 0  255 255 255 255
-31.4 17.5517 5.37061 1 0 0  255 255 255 255
-31.4 11.9526 5.37061 1 0 0  255 255 255 255
-31.4 18.6614 4.36893 1 0 0  255 255 255 255
-31.4 10.843 4.36893 1 0 0  255 255 255 255
-31.4 14.7522 3.65334 1 0 0  255 255 255 255
-31.4 17.3341 0.501509 1 0 0  255 255 255 255
-31.4 12.1939 0.513006 1 0 0  255 255 255 255
-31.4 21.4491 4.47143 1 0 0  255 255 255 255
-31.4 21.4222 1.45513 1 0 0  255 255 255 255
-31.4 8.08216 1.45513 1 0 0  255 255 255 255
-31.4 8.05523 4.47143 1 0 0  255 255 255 255
-31.4 12.1278 1.79879 1 0 0  255 255 255 255
-31.4 14.1157 4.42978 1 0 0  255 255 255 255
-31.4 15.3886 4.42978 1 0 0  255 255 255 255
-31.4 11.8173 3.7495 1 0 0  255 255 255 255
-31.4 17.7704 3.70725 1 0 0  255 255 255 255
-31.4 21.3839 5.33237 1 0 0  255 255 255 255
-31.4 8.03899 0.592039 1 0 0  255 255 255 255
-31.4 21.4654 0.592039 1 0 0  255 255 255 255
-31.4 8.12041 5.33237 1 0 0  255 255 255 255
-31.4 17.2059 2.75345 1 0 0  255 255 255 255
-31.4 12.228 2.79703 1 0 0  255 255 255 255
-31.4 18.9807 1.61605 1 0 0  255 255 255 255
-31.4 10.5237 1.61605 1 0 0  255 255 255 255
-31.4 9.75472 4.4937 1 0 0  255 255 255 255
-31.4 19.7496 4.4937 1 0 0  255 255 255 255
-31.4 8.90953 5.41905 1 0 0  255 255 255 255
-31.4 20.5948 5.41905 1 0 0  255 255 255 255
-31.4 20.7773 0.456553 1 0 0  255 255 255 255
-31.4 8.72711 0.456553 1 0 0  255 255 255 255
-31.4 11.0889 2.9334 1 0 0  255 255 255 255
-31.4 16.5264 4.70656 1 0 0  255 255 255 255
-31.4 12.9779 4.70656 1 0 0  255 255 255 255
-31.4 16.5624 2.81807 1 0 0  255 255 255 255
-31.4 12.9008 2.86953 1 0 0  255 255 255 255
-31.4 14.2439 3.146 1 0 0  255 255 255 255
-31.4 15.2732 3.14588 1 0 0  255 255 255 255
-31.4 18.4586 3.10877 1 0 0  255 255 255 255
-31.4 13.2224 3.47087 1 0 0  255 255 255 255
-31.4 16.2798 3.46819 1 0 0  255 255 255 255
-31.4 26.7864 1.28571 1 0 0  255 255 255 255
-31.4 26.7864 2.14286 1 0 0  255 255 255 255
-31.4 26.7864 0.428571 1 0 0  255 255 255 255
-31.4 26.7864 5.57143 1 0 0  255 255 255 255
-31.4 26.7864 3 1 0 0  255 255 255 255
-31.4 26.7864 4.71429 1 0 0  255 255 255 255
-31.4 26.7864 3.85714 1 0 0  255 255 255 255
-31.4 31.7624 1.28571 1 0 0  255 255 255 255
-31.4 31.7624 0.428571 1 0 0  255 255 255 255
-31.4 31.7624 2.14286 1 0 0  255 255 255 255
-31.4 31.7624 5.57143 1 0 0  255 255 255 255
-31.4 31.7624 4.71429 1 0 0  255 255 255 255
-31.4 31.7624 3.85714 1 0 0  255 255 255 255
-31.4 31.7624 3 1 0 0  255 255 255 255
-18.7127 0 3.10753 0 -1 0  255 255 255 255
-24.692 0 3 0 -1 0  255 255 255 255
-11.8468 0 2.97992 0 -1 0  255 255 255 255
-15.2393 0 2.91542 0 -1 0  255 255 255 255
-21.4216 0 2.93928 0 -1 0  255 255 255 255
-27.01 0 3.60976 0 -1 0  255 255 255 255
-10.0421 0 3.95508 0 -1 0  255 255 255 255
-10.1879 0 2.0022 0 -1 0  255 255 255 255
-13.5864 0 1.91187 0 -1 0  255 255 255 255
-17.0631 0 4.08813 0 -1 0  255 255 255 255
-17.0341 0 1.93201 0 -1 0  255 255 255 255
-13.564 0 4.04204 0 -1 0  255 255 255 255
-26.0184 0 1.76076 0 -1 0  255 255 255 255
-20.1995 0 4.13298 0 -1 0  255 255 255 255
-23.1851 0 4.14242 0 -1 0  255 255 255 255
-20.1965 0 1.86572 0 -1 0  255 255 255 255
-23.2919 0 1.86674 0 -1 0  255 255 255 255
-25.5623 0 4.40228 0 -1 0  255 255 255 255
-27.7436 0 2.22635 0 -1 0  255 255 255 255
-24.692 0 1.46947 0 -1 0  255 255 255 255
-18.8485 0 4.53981 0 -1 0  255 255 255 255
-12.0253 0 1.49713 0 -1 0  255 255 255 255
-15.6583 0 1.56279 0 -1 0  255 255 255 255
-18.9038 0 1.53527 0 -1 0  255 255 255 255
-11.8453 0 4.51264 0 -1 0  255 255 255 255
-15.4491 0 4.50217 0 -1 0  255 255 255 255
-21.6368 0 4.5708 0 -1 0  255 255 255 255
-21.6736 0 1.48892 0 -1 0  255 255 255 255
-28.0791 0 4.69915 0 -1 0  255 255 255 255
-9.3212 0 2.90666 0 -1 0  255 255 255 255
-24.2869 0 4.70748 0 -1 0  255 255 255 255
-9.18411 0 1.18367 0 -1 0  255 255 255 255
-25.9896 0 3.20537 0 -1 0  255 255 255 255
-28.1415 0 3.30827 0 -1 0  255 255 255 255
-26.7151 0 4.78955 0 -1 0  255 255 255 255
-9.17412 0 4.8263 0 -1 0  255 255 255 255
-27.0959 0 1.11326 0 -1 0  255 255 255 255
-23.5141 0 2.99978 0 -1 0  255 255 255 255
-20.6888 0 3.00035 0 -1 0  255 255 255 255
-17.5269 0 3 0 -1 0  255 255 255 255
-14.1029 0 3 0 -1 0  255 255 255 255
-10.7231 0 3.05362 0 -1 0  255 255 255 255
-10.7517 0 4.86485 0 -1 0  255 255 255 255
-28.3464 0 1.21111 0 -1 0  255 255 255 255
-16.3533 0 3.06429 0 -1 0  255 255 255 255
-12.9293 0 2.93571 0 -1 0  255 255 255 255
-10.8264 0 1.05359 0 -1 0  255 255 255 255
-17.682 0 1.04023 0 -1 0  255 255 255 255
-16.1339 0 4.89014 0 -1 0  255 255 255 255
-14.258 0 1.04023 0 -1 0  255 255 255 255
-14.258 0 4.95977 0 -1 0  255 255 255 255
-17.6007 0 4.90816 0 -1 0  255 255 255 255
-12.8547 0 1.22433 0 -1 0  255 255 255 255
-16.2556 0 1.06289 0 -1 0  255 255 255 255
-12.9653 0 4.89633 0 -1 0  255 255 255 255
-25.6153 0 0.962897 0 -1 0  255 255 255 255
-19.532 0 5.11704 0 -1 0  255 255 255 255
-19.5257 0 0.819053 0 -1 0  255 255 255 255
-23.8905 0 0.811828 0 -1 0  255 255 255 255
-22.5762 0 1.0355 0 -1 0  255 255 255 255
-22.6165 0 4.85937 0 -1 0  255 255 255 255
-20.7985 0 5.00583 0 -1 0  255 255 255 255
-20.8117 0 0.988716 0 -1 0  255 255 255 255
-26.9885 0 2.57534 0 -1 0  255 255 255 255
-16.1548 0 2.23831 0 -1 0  255 255 255 255
-12.6843 0 3.73696 0 -1 0  255 255 255 255
-8.90682 0 3.86151 0 -1 0  255 255 255 255
-10.7695 0 3.91855 0 -1 0  255 255 255 255
-17.8367 0 2.23997 0 -1 0  255 255 255 255
-14.4178 0 3.76489 0 -1 0  255 255 255 255
-14.445 0 2.49711 0 -1 0  255 255 255 255
-17.8881 0 3.50906 0 -1 0  255 255 255 255
-25.3298 0 2.19899 0 -1 0  255 255 255 255
-10.9113 0 2.03207 0 -1 0  255 255 255 255
-19.549 0 3.34588 0 -1 0  255 255 255 255
-22.6043 0 3.35384 0 -1 0  255 255 255 255
-24.1029 0 3.77554 0 -1 0  255 255 255 255
-22.2784 0 2.20223 0 -1 0  255 255 255 255
-19.2981 0 2.23474 0 -1 0  255 255 255 255
-24.0034 0 2.33772 0 -1 0  255 255 255 255
-16.2527 0 3.96657 0 -1 0  255 255 255 255
-12.7467 0 2.15274 0 -1 0  255 255 255 255
-21.0584 0 3.73559 0 -1 0  255 255 255 255
-21.0574 0 2.2559 0 -1 0  255 255 255 255
-8.76705 0 2.06969 0 -1 0  255 255 255 255
-23.4826 0 5.01521 0 -1 0  255 255 255 255
-9.97901 0 0.828631 0 -1 0  255 255 255 255
-24.8858 0 5.15327 0 -1 0  255 255 255 255
-9.9513 0 5.29085 0 -1 0  255 255 255 255
-24.9803 0 3.76576 0 -1 0  255 255 255 255
-25.9512 0 5.154 0 -1 0  255 255 255 255
-26.2145 0 3.8376 0 -1 0  255 255 255 255
-28.555 0 2.00371 0 -1 0  255 255 255 255
-26.5375 0 0.661027 0 -1 0  255 255 255 255
-28.6158 0 3.91592 0 -1 0  255 255 255 255
-27.316 0 5.26446 0 -1 0  255 255 255 255
-28.5898 0 5.18972 0 -1 0  255 255 255 255
-22.3769 0 4.12905 0 -1 0  255 255 255 255
-19.6053 0 4.16721 0 -1 0  255 255 255 255
-24.692 0 0.672405 0 -1 0  255 255 255 255
-18.4736 0 5.2252 0 -1 0  255 255 255 255
-11.9352 0 5.24156 0 -1 0  255 255 255 255
-15.2014 0 5.23665 0 -1 0  255 255 255 255
-11.7948 0 0.778906 0 -1 0  255 255 255 255
-15.2522 0 0.738969 0 -1 0  255 255 255 255
-18.4922 0 0.769027 0 -1 0  255 255 255 255
-16.9437 0 5.36369 0 -1 0  255 255 255 255
-16.9891 0 0.654693 0 -1 0  255 255 255 255
-13.5716 0 0.645289 0 -1 0  255 255 255 255
-13.5874 0 5.37195 0 -1 0  255 255 255 255
-21.42 0 5.40961 0 -1 0  255 255 255 255
-21.429 0 0.601165 0 -1 0  255 255 255 255
-27.7487 0 3.87822 0 -1 0  255 255 255 255
-11.8156 0 3.76526 0 -1 0  255 255 255 255
-18.7823 0 3.85851 0 -1 0  255 255 255 255
-11.8103 0 2.22052 0 -1 0  255 255 255 255
-15.2188 0 3.74919 0 -1 0  255 255 255 255
-10.0262 0 2.64096 0 -1 0  255 255 255 255
-15.3135 0 2.24838 0 -1 0  255 255 255 255
-26.9213 0 1.86333 0 -1 0  255 255 255 255
-27.4984 0 3.0655 0 -1 0  255 255 255 255
-22.963 0 2.58394 0 -1 0  255 255 255 255
-20.0141 0 2.67327 0 -1 0  255 255 255 255
-28.7433 0 2.85464 0 -1 0  255 255 255 255
-21.8969 0 3.59416 0 -1 0  255 255 255 255
-27.8509 0 0.709374 0 -1 0  255 255 255 255
-8.68459 0 0.684823 0 -1 0  255 255 255 255
-8.57815 0 2.98345 0 -1 0  255 255 255 255
-8.67798 0 5.32179 0 -1 0  255 255 255 255
-22.961 0 0.605174 0 -1 0  255 255 255 255
-27.3019 0 4.44395 0 -1 0  255 255 255 255
-16.9367 0 2.64484 0 -1 0  255 255 255 255
-13.5285 0 3.35235 0 -1 0  255 255 255 255
-18.6159 0 2.31791 0 -1 0  255 255 255 255
-22.1238 0 0.528187 0 -1 0  255 255 255 255
-22.1337 0 5.44995 0 -1 0  255 255 255 255
-9.55344 0 1.81317 0 -1 0  255 255 255 255
-9.569 0 3.65736 0 -1 0  255 255 255 255
-20.2052 0 5.36402 0 -1 0  255 255 255 255
-20.2007 0 0.634803 0 -1 0  255 255 255 255
-28.7435 0 0.677224 0 -1 0  255 255 255 255
-11.1846 0 5.37517 0 -1 0  255 255 255 255
-24.0999 0 5.35243 0 -1 0  255 255 255 255
-27.7522 0 1.52119 0 -1 0  255 255 255 255
-8.52715 0 1.30192 0 -1 0  255 255 255 255
-9.32923 0 0.538842 0 -1 0  255 255 255 255
-17.0035 0 3.37882 0 -1 0  255 255 255 255
-13.5602 0 2.63021 0 -1 0  255 255 255 255
-8.53078 0 4.67825 0 -1 0  255 255 255 255
-9.27428 0 5.48779 0 -1 0  255 255 255 255
-20.8094 0 4.36867 0 -1 0  255 255 255 255
-20.8144 0 1.64307 0 -1 0  255 255 255 255
-19.6217 0 1.541 0 -1 0  255 255 255 255
-25.6117 0 3.61587 0 -1 0  255 255 255 255
-22.9029 0 5.47902 0 -1 0  255 255 255 255
-11.2876 0 3.28362 0 -1 0  255 255 255 255
-25.3917 0 1.59325 0 -1 0  255 255 255 255
-23.8187 0 1.54826 0 -1 0  255 255 255 255
-26.1601 0 2.51575 0 -1 0  255 255 255 255
-26.5611 0 3.13813 0 -1 0  255 255 255 255
-9.53638 0 4.193 0 -1 0  255 255 255 255
-26.5455 0 5.4168 0 -1 0  255 255 255 255
-16.8881 0 4.67635 0 -1 0  255 255 255 255
-13.7431 0 1.2806 0 -1 0  255 255 255 255
-13.7221 0 4.71978 0 -1 0  255 255 255 255
-17.0565 0 1.31204 0 -1 0  255 255 255 255
-24.9163 0 4.45674 0 -1 0  255 255 255 255
-15.8169 0 3.35294 0 -1 0  255 255 255 255
-12.3478 0 2.70932 0 -1 0  255 255 255 255
-23.7644 0 4.41016 0 -1 0  255 255 255 255
-10.1342 0 3.33055 0 -1 0  255 255 255 255
-28.9195 0 1.28571 0 -1 0  255 255 255 255
-14.6882 0 3.2411 0 -1 0  255 255 255 255
-18.1144 0 2.77412 0 -1 0  255 255 255 255
-10.996 0 0.472492 0 -1 0  255 255 255 255
-16.132 0 5.52979 0 -1 0  255 255 255 255
-17.844 0 0.470215 0 -1 0  255 255 255 255
-16.132 0 0.470215 0 -1 0  255 255 255 255
-14.42 0 5.52979 0 -1 0  255 255 255 255
-12.7131 0 0.4857 0 -1 0  255 255 255 255
-14.42 0 0.470215 0 -1 0  255 255 255 255
-12.708 0 5.52979 0 -1 0  255 255 255 255
-17.8065 0 5.51871 0 -1 0  255 255 255 255
-10.1438 0 4.56479 0 -1 0  255 255 255 255
-28.8452 0 4.62139 0 -1 0  255 255 255 255
-22.5927 0 1.66926 0 -1 0  255 255 255 255
-25.3518 0 2.95377 0 -1 0  255 255 255 255
-28.0229 0 5.45072 0 -1 0  255 255 255 255
-26.5733 0 1.35518 0 -1 0  255 255 255 255
-24.6989 0 2.37468 0 -1 0  255 255 255 255
-16.4293 0 1.64223 0 -1 0  255 255 255 255
-12.4692 0 4.39178 0 -1 0  255 255 255 255
-28.1364 0 2.69169 0 -1 0  255 255 255 255
-26.1788 0 4.47665 0 -1 0  255 255 255 255
-26.7002 0 4.21369 0 -1 0  255 255 255 255
-20.1883 0 4.72819 0 -1 0  255 255 255 255
-20.1846 0 1.25021 0 -1 0  255 255 255 255
-11.1908 0 2.6607 0 -1 0  255 255 255 255
-27.2008 0 0.496731 0 -1 0  255 255 255 255
-23.1931 0 3.52093 0 -1 0  255 255 255 255
-20.1859 0 3.50921 0 -1 0  255 255 255 255
-18.1094 0 4.35481 0 -1 0  255 255 255 255
-14.6351 0 4.46683 0 -1 0  255 255 255 255
-14.6081 0 1.61142 0 -1 0  255 255 255 255
-17.9459 0 1.59235 0 -1 0  255 255 255 255
-24.103 0 3.16411 0 -1 0  255 255 255 255
-10.3358 0 1.42964 0 -1 0  255 255 255 255
-10.6079 0 2.47791 0 -1 0  255 255 255 255
-12.3479 0 3.23466 0 -1 0  255 255 255 255
-15.7756 0 2.76387 0 -1 0  255 255 255 255
-11.2421 0 4.501 0 -1 0  255 255 255 255
-23.2156 0 1.25554 0 -1 0  255 255 255 255
-21.6946 0 2.10654 0 -1 0  255 255 255 255
-11.284 0 1.50198 0 -1 0  255 255 255 255
-22.1832 0 2.80803 0 -1 0  255 255 255 255
-19.2735 0 2.8141 0 -1 0  255 255 255 255
-18.6901 29.5044 2.95759 0 1 0  255 255 255 255
-11.8468 29.5044 2.97992 0 1 0  255 255 255 255
-15.2393 29.5044 2.91542 0 1 0  255 255 255 255
-23.0238 29.5044 3.00027 0 1 0  255 255 255 255
-26.4006 29.5044 3 0 1 0  255 255 255 255
-20.84 29.5044 2.26327 0 1 0  255 255 255 255
-10.0421 29.5044 3.95508 0 1 0  255 255 255 255
-10.1879 29.5044 2.0022 0 1 0  255 255 255 255
-13.5864 29.5044 1.91187 0 1 0  255 255 255 255
-17.0104 29.5044 4.08813 0 1 0  255 255 255 255
-16.988 29.5044 1.95796 0 1 0  255 255 255 255
-13.564 29.5044 4.04204 0 1 0  255 255 255 255
-24.6538 29.5044 4.08832 0 1 0  255 255 255 255
-24.7393 29.5044 1.84529 0 1 0  255 255 255 255
-20.394 29.5044 3.99989 0 1 0  255 255 255 255
-27.7548 29.5044 4.30835 0 1 0  255 255 255 255
-27.6785 29.5044 1.58091 0 1 0  255 255 255 255
-21.8161 29.5044 4.47973 0 1 0  255 255 255 255
-22.1385 29.5044 1.50646 0 1 0  255 255 255 255
-19.4444 29.5044 1.44837 0 1 0  255 255 255 255
-19.0212 29.5044 4.43736 0 1 0  255 255 255 255
-12.0253 29.5044 1.49713 0 1 0  255 255 255 255
-15.6583 29.5044 1.56279 0 1 0  255 255 255 255
-11.8453 29.5044 4.51264 0 1 0  255 255 255 255
-15.4491 29.5044 4.50217 0 1 0  255 255 255 255
-26.0971 29.5044 4.62187 0 1 0  255 255 255 255
-26.0448 29.5044 1.52311 0 1 0  255 255 255 255
-23.3828 29.5044 4.68878 0 1 0  255 255 255 255
-28.134 29.5044 3 0 1 0  255 255 255 255
-18.122 29.5044 1.30164 0 1 0  255 255 255 255
-23.5571 29.5044 1.30099 0 1 0  255 255 255 255
-9.3212 29.5044 2.90666 0 1 0  255 255 255 255
-21.7456 29.5044 3.10929 0 1 0  255 255 255 255
-9.18411 29.5044 1.18367 0 1 0  255 255 255 255
-9.17412 29.5044 4.8263 0 1 0  255 255 255 255
-19.8886 29.5044 2.97627 0 1 0  255 255 255 255
-21.1786 29.5044 1.13163 0 1 0  255 255 255 255
-17.5463 29.5044 2.9914 0 1 0  255 255 255 255
-14.1029 29.5044 3 0 1 0  255 255 255 255
-24.0232 29.5044 2.92552 0 1 0  255 255 255 255
-10.7231 29.5044 3.05362 0 1 0  255 255 255 255
-10.7517 29.5044 4.86485 0 1 0  255 255 255 255
-16.3533 29.5044 3.06429 0 1 0  255 255 255 255
-12.9293 29.5044 2.93571 0 1 0  255 255 255 255
-25.6209 29.5044 3.03176 0 1 0  255 255 255 255
-10.8264 29.5044 1.05359 0 1 0  255 255 255 255
-16.2787 29.5044 4.77557 0 1 0  255 255 255 255
-14.258 29.5044 1.04023 0 1 0  255 255 255 255
-14.258 29.5044 4.95977 0 1 0  255 255 255 255
-17.682 29.5044 4.95977 0 1 0  255 255 255 255
-12.8547 29.5044 1.22433 0 1 0  255 255 255 255
-16.2954 29.5044 1.05565 0 1 0  255 255 255 255
-12.9653 29.5044 4.89633 0 1 0  255 255 255 255
-21.0679 29.5044 4.89769 0 1 0  255 255 255 255
-19.6491 29.5044 5.04598 0 1 0  255 255 255 255
-25.1781 29.5044 1.0893 0 1 0  255 255 255 255
-25.1725 29.5044 4.85312 0 1 0  255 255 255 255
-28.3477 29.5044 5.0363 0 1 0  255 255 255 255
-28.3503 29.5044 0.972713 0 1 0  255 255 255 255
-26.9367 29.5044 4.9475 0 1 0  255 255 255 255
-27.0087 29.5044 0.971515 0 1 0  255 255 255 255
-16.1501 29.5044 2.24096 0 1 0  255 255 255 255
-12.6843 29.5044 3.73696 0 1 0  255 255 255 255
-8.90682 29.5044 3.86151 0 1 0  255 255 255 255
-10.7695 29.5044 3.91855 0 1 0  255 255 255 255
-20.2123 29.5044 1.06084 0 1 0  255 255 255 255
-14.4178 29.5044 3.76489 0 1 0  255 255 255 255
-17.843 29.5044 3.76521 0 1 0  255 255 255 255
-14.445 29.5044 2.49711 0 1 0  255 255 255 255
-10.9113 29.5044 2.03207 0 1 0  255 255 255 255
-19.3229 29.5044 3.8326 0 1 0  255 255 255 255
-24.2402 29.5044 4.98852 0 1 0  255 255 255 255
-20.7993 29.5044 3.29144 0 1 0  255 255 255 255
-28.5821 29.5044 3.77296 0 1 0  255 255 255 255
-28.5324 29.5044 2.23231 0 1 0  255 255 255 255
-16.1707 29.5044 3.84715 0 1 0  255 255 255 255
-12.7467 29.5044 2.15274 0 1 0  255 255 255 255
-23.5665 29.5044 2.25171 0 1 0  255 255 255 255
-18.1977 29.5044 2.35539 0 1 0  255 255 255 255
-17.2065 29.5044 1.06906 0 1 0  255 255 255 255
-27.2519 29.5044 3.46375 0 1 0  255 255 255 255
-22.5472 29.5044 5.03242 0 1 0  255 255 255 255
-8.76705 29.5044 2.06969 0 1 0  255 255 255 255
-26.8028 29.5044 2.15962 0 1 0  255 255 255 255
-22.669 29.5044 3.96572 0 1 0  255 255 255 255
-25.4968 29.5044 2.19916 0 1 0  255 255 255 255
-23.7368 29.5044 3.75417 0 1 0  255 255 255 255
-18.732 29.5044 0.821206 0 1 0  255 255 255 255
-22.8979 29.5044 0.859283 0 1 0  255 255 255 255
-24.331 29.5044 1.02562 0 1 0  255 255 255 255
-22.3086 29.5044 2.44224 0 1 0  255 255 255 255
-9.97901 29.5044 0.828631 0 1 0  255 255 255 255
-9.9513 29.5044 5.29085 0 1 0  255 255 255 255
-25.4099 29.5044 3.94638 0 1 0  255 255 255 255
-21.0615 29.5044 4.15423 0 1 0  255 255 255 255
-21.9503 29.5044 0.749967 0 1 0  255 255 255 255
-19.2555 29.5044 2.39804 0 1 0  255 255 255 255
-20.1022 29.5044 2.06943 0 1 0  255 255 255 255
-26.8499 29.5044 4.17036 0 1 0  255 255 255 255
-21.4821 29.5044 2.09284 0 1 0  255 255 255 255
-21.7764 29.5044 5.23191 0 1 0  255 255 255 255
-18.5266 29.5044 5.20778 0 1 0  255 255 255 255
-11.9352 29.5044 5.24156 0 1 0  255 255 255 255
-15.2195 29.5044 5.22233 0 1 0  255 255 255 255
-11.7948 29.5044 0.778906 0 1 0  255 255 255 255
-15.2616 29.5044 0.719489 0 1 0  255 255 255 255
-16.9956 29.5044 5.3547 0 1 0  255 255 255 255
-13.5716 29.5044 0.645289 0 1 0  255 255 255 255
-13.5874 29.5044 5.37195 0 1 0  255 255 255 255
-27.4667 29.5044 2.57276 0 1 0  255 255 255 255
-26.3399 29.5044 0.756406 0 1 0  255 255 255 255
-26.2942 29.5044 5.40337 0 1 0  255 255 255 255
-20.4043 29.5044 5.33396 0 1 0  255 255 255 255
-11.8156 29.5044 3.76526 0 1 0  255 255 255 255
-11.8103 29.5044 2.22052 0 1 0  255 255 255 255
-15.265 29.5044 3.75319 0 1 0  255 255 255 255
-10.0262 29.5044 2.64096 0 1 0  255 255 255 255
-15.313 29.5044 2.2487 0 1 0  255 255 255 255
-18.6908 29.5044 1.78205 0 1 0  255 255 255 255
-22.8979 29.5044 1.79187 0 1 0  255 255 255 255
-27.6898 29.5044 5.30468 0 1 0  255 255 255 255
-27.6907 29.5044 0.700064 0 1 0  255 255 255 255
-23.5959 29.5044 5.36168 0 1 0  255 255 255 255
-19.5001 29.5044 0.666083 0 1 0  255 255 255 255
-20.6842 29.5044 1.65112 0 1 0  255 255 255 255
-26.2717 29.5044 3.70569 0 1 0  255 255 255 255
-17.9109 29.5044 0.622031 0 1 0  255 255 255 255
-24.0123 29.5044 4.36625 0 1 0  255 255 255 255
-18.6255 29.5044 3.70097 0 1 0  255 255 255 255
-8.68459 29.5044 0.684823 0 1 0  255 255 255 255
-28.8287 29.5044 3.00038 0 1 0  255 255 255 255
-8.57815 29.5044 2.98345 0 1 0  255 255 255 255
-8.67798 29.5044 5.32179 0 1 0  255 255 255 255
-24.7611 29.5044 2.6381 0 1 0  255 255 255 255
-16.9253 29.5044 2.66222 0 1 0  255 255 255 255
-13.5285 29.5044 3.35235 0 1 0  255 255 255 255
-23.6916 29.5044 0.637179 0 1 0  255 255 255 255
-17.6126 29.5044 1.80112 0 1 0  255 255 255 255
-24.0653 29.5044 1.76357 0 1 0  255 255 255 255
-9.55344 29.5044 1.81317 0 1 0  255 255 255 255
-9.569 29.5044 3.65736 0 1 0  255 255 255 255
-22.3602 29.5044 3.3007 0 1 0  255 255 255 255
-24.7949 29.5044 5.4506 0 1 0  255 255 255 255
-11.1846 29.5044 5.37517 0 1 0  255 255 255 255
-27.9307 29.5044 3.63627 0 1 0  255 255 255 255
-8.52715 29.5044 1.30192 0 1 0  255 255 255 255
-9.32923 29.5044 0.538842 0 1 0  255 255 255 255
-16.9846 29.5044 3.38725 0 1 0  255 255 255 255
-13.5602 29.5044 2.63021 0 1 0  255 255 255 255
-24.6903 29.5044 3.38299 0 1 0  255 255 255 255
-8.53078 29.5044 4.67825 0 1 0  255 255 255 255
-9.27428 29.5044 5.48779 0 1 0  255 255 255 255
-11.2876 29.5044 3.28362 0 1 0  255 255 255 255
-25.6294 29.5044 0.55252 0 1 0  255 255 255 255
-25.6154 29.5044 5.43204 0 1 0  255 255 255 255
-26.1316 29.5044 2.38333 0 1 0  255 255 255 255
-9.53638 29.5044 4.193 0 1 0  255 255 255 255
-13.7431 29.5044 1.2806 0 1 0  255 255 255 255
-13.7221 29.5044 4.71978 0 1 0  255 255 255 255
-17.1671 29.5044 4.71938 0 1 0  255 255 255 255
-21.268 29.5044 0.488408 0 1 0  255 255 255 255
-28.7807 29.5044 1.52816 0 1 0  255 255 255 255
-28.7807 29.5044 4.47184 0 1 0  255 255 255 255
-15.7845 29.5044 3.28974 0 1 0  255 255 255 255
-12.3478 29.5044 2.70932 0 1 0  255 255 255 255
-10.1342 29.5044 3.33055 0 1 0  255 255 255 255
-14.6918 29.5044 3.22267 0 1 0  255 255 255 255
-18.1477 29.5044 3.20634 0 1 0  255 255 255 255
-19.7589 29.5044 4.28868 0 1 0  255 255 255 255
-21.6869 29.5044 3.74682 0 1 0  255 255 255 255
-28.8455 29.5044 5.40249 0 1 0  255 255 255 255
-28.8526 29.5044 0.608344 0 1 0  255 255 255 255
-10.996 29.5044 0.472492 0 1 0  255 255 255 255
-21.1038 29.5044 2.72925 0 1 0  255 255 255 255
-16.1371 29.5044 5.51436 0 1 0  255 255 255 255
-16.1115 29.5044 0.473138 0 1 0  255 255 255 255
-14.42 29.5044 5.52979 0 1 0  255 255 255 255
-12.7131 29.5044 0.4857 0 1 0  255 255 255 255
-14.42 29.5044 0.470215 0 1 0  255 255 255 255
-12.708 29.5044 5.52979 0 1 0  255 255 255 255
-17.844 29.5044 5.52979 0 1 0  255 255 255 255
-10.1438 29.5044 4.56479 0 1 0  255 255 255 255
-25.3647 29.5044 1.66421 0 1 0  255 255 255 255
-23.012 29.5044 5.48719 0 1 0  255 255 255 255
-16.4325 29.5044 1.66346 0 1 0  255 255 255 255
-12.4692 29.5044 4.39178 0 1 0  255 255 255 255
-20.3999 29.5044 4.64443 0 1 0  255 255 255 255
-21.2174 29.5044 5.5039 0 1 0  255 255 255 255
-24.2064 29.5044 2.33055 0 1 0  255 255 255 255
-19.2851 29.5044 3.24282 0 1 0  255 255 255 255
-17.4668 29.5044 2.3608 0 1 0  255 255 255 255
-20.5102 29.5044 2.71377 0 1 0  255 255 255 255
-19.9081 29.5044 3.60528 0 1 0  255 255 255 255
-16.7297 29.5044 0.564682 0 1 0  255 255 255 255
-11.1908 29.5044 2.6607 0 1 0  255 255 255 255
-22.9299 29.5044 2.38361 0 1 0  255 255 255 255
-26.7556 29.5044 1.51013 0 1 0  255 255 255 255
-17.9823 29.5044 4.41123 0 1 0  255 255 255 255
-14.6374 29.5044 4.46645 0 1 0  255 255 255 255
-14.6093 29.5044 1.60868 0 1 0  255 255 255 255
-24.8446 29.5044 0.545774 0 1 0  255 255 255 255
-10.3358 29.5044 1.42964 0 1 0  255 255 255 255
-10.6079 29.5044 2.47791 0 1 0  255 255 255 255
-12.3479 29.5044 3.23466 0 1 0  255 255 255 255
-15.768 29.5044 2.75182 0 1 0  255 255 255 255
-11.2421 29.5044 4.501 0 1 0  255 255 255 255
-11.284 29.5044 1.50198 0 1 0  255 255 255 255
-20.6821 29.5044 0.559302 0 1 0  255 255 255 255
18.7865 29.0044 3.0552 0 -1 0  255 255 255 255
24.692 29.0044 3 0 -1 0  255 255 255 255
11.8814 29.0044 3.10125 0 -1 0  255 255 255 255
15.276 29.0044 3 0 -1 0  255 255 255 255
21.7025 29.0044 3.00171 0 -1 0  255 255 255 255
27.01 29.0044 3.60976 0 -1 0  255 255 255 255
10.0421 29.0044 3.95508 0 -1 0  255 255 255 255
10.1879 29.0044 2.0022 0 -1 0  255 255 255 255
13.4889 29.0044 1.91187 0 -1 0  255 255 255 255
17.0341 29.0044 4.06799 0 -1 0  255 255 255 255
17.0104 29.0044 1.91187 0 -1 0  255 255 255 255
13.5179 29.0044 4.06799 0 -1 0  255 255 255 255
26.0184 29.0044 1.76076 0 -1 0  255 255 255 255
20.1995 29.0044 4.13298 0 -1 0  255 255 255 255
23.2144 29.0044 4.17854 0 -1 0  255 255 255 255
20.1965 29.0044 1.86572 0 -1 0  255 255 255 255
23.1719 29.0044 1.87847 0 -1 0  255 255 255 255
25.5623 29.0044 4.40228 0 -1 0  255 255 255 255
27.7436 29.0044 2.22635 0 -1 0  255 255 255 255
24.692 29.0044 1.46947 0 -1 0  255 255 255 255
18.8485 29.0044 4.53981 0 -1 0  255 255 255 255
11.8516 29.0044 1.4872 0 -1 0  255 255 255 255
15.2723 29.0044 1.52463 0 -1 0  255 255 255 255
18.9038 29.0044 1.53527 0 -1 0  255 255 255 255
11.8474 29.0044 4.52458 0 -1 0  255 255 255 255
15.276 29.0044 4.53053 0 -1 0  255 255 255 255
21.5919 29.0044 4.57486 0 -1 0  255 255 255 255
21.6494 29.0044 1.498 0 -1 0  255 255 255 255
28.0791 29.0044 4.69915 0 -1 0  255 255 255 255
9.3212 29.0044 2.90666 0 -1 0  255 255 255 255
24.3172 29.0044 4.69872 0 -1 0  255 255 255 255
9.18411 29.0044 1.18367 0 -1 0  255 255 255 255
25.9896 29.0044 3.20537 0 -1 0  255 255 255 255
28.1415 29.0044 3.30827 0 -1 0  255 255 255 255
26.7151 29.0044 4.78955 0 -1 0  255 255 255 255
9.17412 29.0044 4.8263 0 -1 0  255 255 255 255
27.0959 29.0044 1.11326 0 -1 0  255 255 255 255
23.5141 29.0044 2.99978 0 -1 0  255 255 255 255
20.5181 29.0044 2.99893 0 -1 0  255 255 255 255
17.5269 29.0044 3 0 -1 0  255 255 255 255
13.0251 29.0044 3 0 -1 0  255 255 255 255
10.7231 29.0044 3.05362 0 -1 0  255 255 255 255
10.7517 29.0044 4.86485 0 -1 0  255 255 255 255
28.3464 29.0044 1.21111 0 -1 0  255 255 255 255
16.3533 29.0044 2.93571 0 -1 0  255 255 255 255
14.1987 29.0044 2.93571 0 -1 0  255 255 255 255
10.8264 29.0044 1.05359 0 -1 0  255 255 255 255
16.2534 29.0044 1.22826 0 -1 0  255 255 255 255
17.682 29.0044 4.95977 0 -1 0  255 255 255 255
14.3601 29.0044 4.95266 0 -1 0  255 255 255 255
14.4463 29.0044 1.11432 0 -1 0  255 255 255 255
12.87 29.0044 4.95977 0 -1 0  255 255 255 255
12.9513 29.0044 1.09184 0 -1 0  255 255 255 255
17.682 29.0044 1.04023 0 -1 0  255 255 255 255
16.1919 29.0044 4.95266 0 -1 0  255 255 255 255
25.6153 29.0044 0.962897 0 -1 0  255 255 255 255
19.5619 29.0044 5.08625 0 -1 0  255 255 255 255
19.5257 29.0044 0.819053 0 -1 0  255 255 255 255
23.8905 29.0044 0.811828 0 -1 0  255 255 255 255
22.5762 29.0044 1.0355 0 -1 0  255 255 255 255
20.8132 29.0044 4.94024 0 -1 0  255 255 255 255
22.6311 29.0044 4.98377 0 -1 0  255 255 255 255
20.754 29.0044 1.01416 0 -1 0  255 255 255 255
26.9885 29.0044 2.57534 0 -1 0  255 255 255 255
16.0054 29.0044 3.84271 0 -1 0  255 255 255 255
14.5466 29.0044 3.84271 0 -1 0  255 255 255 255
8.90682 29.0044 3.86151 0 -1 0  255 255 255 255
10.7695 29.0044 3.91855 0 -1 0  255 255 255 255
17.8458 29.0044 3.7671 0 -1 0  255 255 255 255
17.7912 29.0044 2.34598 0 -1 0  255 255 255 255
12.701 29.0044 2.22976 0 -1 0  255 255 255 255
12.6548 29.0044 3.61071 0 -1 0  255 255 255 255
25.3298 29.0044 2.19899 0 -1 0  255 255 255 255
10.9071 29.0044 2.03369 0 -1 0  255 255 255 255
19.5522 29.0044 3.34361 0 -1 0  255 255 255 255
22.6043 29.0044 3.35384 0 -1 0  255 255 255 255
24.1029 29.0044 3.77554 0 -1 0  255 255 255 255
22.2926 29.0044 2.22772 0 -1 0  255 255 255 255
19.2981 29.0044 2.23474 0 -1 0  255 255 255 255
21.0425 29.0044 3.77376 0 -1 0  255 255 255 255
23.9531 29.0044 2.38396 0 -1 0  255 255 255 255
16.1078 29.0044 2.12388 0 -1 0  255 255 255 255
14.324 29.0044 2.03733 0 -1 0  255 255 255 255
21.0133 29.0044 2.24742 0 -1 0  255 255 255 255
8.76705 29.0044 2.06969 0 -1 0  255 255 255 255
23.5782 29.0044 5.12451 0 -1 0  255 255 255 255
9.97901 29.0044 0.828631 0 -1 0  255 255 255 255
25.0919 29.0044 5.13212 0 -1 0  255 255 255 255
9.9513 29.0044 5.29085 0 -1 0  255 255 255 255
24.9803 29.0044 3.76576 0 -1 0  255 255 255 255
25.9512 29.0044 5.154 0 -1 0  255 255 255 255
26.2145 29.0044 3.8376 0 -1 0  255 255 255 255
28.555 29.0044 2.00371 0 -1 0  255 255 255 255
26.5375 29.0044 0.661027 0 -1 0  255 255 255 255
28.6158 29.0044 3.91592 0 -1 0  255 255 255 255
27.316 29.0044 5.26446 0 -1 0  255 255 255 255
28.5898 29.0044 5.18972 0 -1 0  255 255 255 255
19.609 29.0044 4.16185 0 -1 0  255 255 255 255
24.692 29.0044 0.672405 0 -1 0  255 255 255 255
15.276 29.0044 0.672405 0 -1 0  255 255 255 255
18.4895 29.0044 5.22817 0 -1 0  255 255 255 255
11.9287 29.0044 5.24795 0 -1 0  255 255 255 255
15.276 29.0044 5.3276 0 -1 0  255 255 255 255
11.8603 29.0044 0.845251 0 -1 0  255 255 255 255
18.4922 29.0044 0.769027 0 -1 0  255 255 255 255
13.6123 29.0044 0.636948 0 -1 0  255 255 255 255
16.988 29.0044 5.33388 0 -1 0  255 255 255 255
13.564 29.0044 5.33388 0 -1 0  255 255 255 255
16.992 29.0044 0.64585 0 -1 0  255 255 255 255
22.5082 29.0044 4.05322 0 -1 0  255 255 255 255
21.9159 29.0044 5.29351 0 -1 0  255 255 255 255
21.4308 29.0044 0.753774 0 -1 0  255 255 255 255
27.7487 29.0044 3.87822 0 -1 0  255 255 255 255
11.7319 29.0044 3.9187 0 -1 0  255 255 255 255
18.6922 29.0044 3.80141 0 -1 0  255 255 255 255
15.2544 29.0044 2.26945 0 -1 0  255 255 255 255
10.0262 29.0044 2.64096 0 -1 0  255 255 255 255
11.8514 29.0044 2.16307 0 -1 0  255 255 255 255
26.9213 29.0044 1.86333 0 -1 0  255 255 255 255
15.276 29.0044 3.70707 0 -1 0  255 255 255 255
27.4984 29.0044 3.0655 0 -1 0  255 255 255 255
22.9657 29.0044 2.61898 0 -1 0  255 255 255 255
19.9665 29.0044 2.59286 0 -1 0  255 255 255 255
21.8286 29.0044 3.58532 0 -1 0  255 255 255 255
28.7433 29.0044 2.85464 0 -1 0  255 255 255 255
27.8509 29.0044 0.709374 0 -1 0  255 255 255 255
8.68459 29.0044 0.684823 0 -1 0  255 255 255 255
8.57815 29.0044 2.98345 0 -1 0  255 255 255 255
8.67798 29.0044 5.32179 0 -1 0  255 255 255 255
22.961 29.0044 0.605174 0 -1 0  255 255 255 255
20.3105 29.0044 5.36052 0 -1 0  255 255 255 255
27.3019 29.0044 4.44395 0 -1 0  255 255 255 255
13.6153 29.0044 3.35516 0 -1 0  255 255 255 255
16.9367 29.0044 3.35516 0 -1 0  255 255 255 255
18.6098 29.0044 2.39885 0 -1 0  255 255 255 255
22.1238 29.0044 0.528187 0 -1 0  255 255 255 255
21.2456 29.0044 5.44282 0 -1 0  255 255 255 255
9.55344 29.0044 1.81317 0 -1 0  255 255 255 255
9.569 29.0044 3.65736 0 -1 0  255 255 255 255
20.2007 29.0044 0.634803 0 -1 0  255 255 255 255
28.7435 29.0044 0.677224 0 -1 0  255 255 255 255
11.1846 29.0044 5.37517 0 -1 0  255 255 255 255
27.7522 29.0044 1.52119 0 -1 0  255 255 255 255
24.4728 29.0044 5.37042 0 -1 0  255 255 255 255
8.52715 29.0044 1.30192 0 -1 0  255 255 255 255
9.32923 29.0044 0.538842 0 -1 0  255 255 255 255
13.5603 29.0044 2.58974 0 -1 0  255 255 255 255
16.9544 29.0044 2.6121 0 -1 0  255 255 255 255
8.53078 29.0044 4.67825 0 -1 0  255 255 255 255
9.27428 29.0044 5.48779 0 -1 0  255 255 255 255
19.6217 29.0044 1.541 0 -1 0  255 255 255 255
25.6117 29.0044 3.61587 0 -1 0  255 255 255 255
11.2864 29.0044 3.33471 0 -1 0  255 255 255 255
25.3917 29.0044 1.59325 0 -1 0  255 255 255 255
23.7846 29.0044 1.55985 0 -1 0  255 255 255 255
26.1601 29.0044 2.51575 0 -1 0  255 255 255 255
26.5611 29.0044 3.13813 0 -1 0  255 255 255 255
9.53638 29.0044 4.193 0 -1 0  255 255 255 255
26.5455 29.0044 5.4168 0 -1 0  255 255 255 255
17.163 29.0044 1.28124 0 -1 0  255 255 255 255
13.4955 29.0044 4.68796 0 -1 0  255 255 255 255
13.6669 29.0044 1.32412 0 -1 0  255 255 255 255
17.0565 29.0044 4.68796 0 -1 0  255 255 255 255
24.8109 29.0044 4.35488 0 -1 0  255 255 255 255
14.7351 29.0044 2.64706 0 -1 0  255 255 255 255
15.7642 29.0044 2.71735 0 -1 0  255 255 255 255
23.8027 29.0044 4.41638 0 -1 0  255 255 255 255
10.1342 29.0044 3.33055 0 -1 0  255 255 255 255
28.9195 29.0044 1.28571 0 -1 0  255 255 255 255
12.4328 29.0044 2.76904 0 -1 0  255 255 255 255
18.1621 29.0044 3.15905 0 -1 0  255 255 255 255
23.0423 29.0044 5.52707 0 -1 0  255 255 255 255
21.0184 29.0044 1.59531 0 -1 0  255 255 255 255
10.996 29.0044 0.472492 0 -1 0  255 255 255 255
16.132 29.0044 5.52979 0 -1 0  255 255 255 255
17.844 29.0044 0.470215 0 -1 0  255 255 255 255
16.132 29.0044 0.470215 0 -1 0  255 255 255 255
14.42 29.0044 0.470215 0 -1 0  255 255 255 255
14.42 29.0044 5.52979 0 -1 0  255 255 255 255
12.708 29.0044 5.52979 0 -1 0  255 255 255 255
12.708 29.0044 0.470215 0 -1 0  255 255 255 255
17.844 29.0044 5.52979 0 -1 0  255 255 255 255
10.1438 29.0044 4.56479 0 -1 0  255 255 255 255
28.8452 29.0044 4.62139 0 -1 0  255 255 255 255
22.2761 29.0044 1.59395 0 -1 0  255 255 255 255
25.3518 29.0044 2.95377 0 -1 0  255 255 255 255
28.0229 29.0044 5.45072 0 -1 0  255 255 255 255
20.7912 29.0044 4.35903 0 -1 0  255 255 255 255
26.5733 29.0044 1.35518 0 -1 0  255 255 255 255
21.6771 29.0044 2.39984 0 -1 0  255 255 255 255
24.6989 29.0044 2.37468 0 -1 0  255 255 255 255
16.3828 29.0044 4.34635 0 -1 0  255 255 255 255
14.1692 29.0044 4.34635 0 -1 0  255 255 255 255
28.1364 29.0044 2.69169 0 -1 0  255 255 255 255
26.1788 29.0044 4.47665 0 -1 0  255 255 255 255
26.7002 29.0044 4.21369 0 -1 0  255 255 255 255
20.2195 29.0044 1.24501 0 -1 0  255 255 255 255
11.2026 29.0044 2.68014 0 -1 0  255 255 255 255
27.2008 29.0044 0.496731 0 -1 0  255 255 255 255
23.1931 29.0044 3.52093 0 -1 0  255 255 255 255
20.1985 29.0044 3.52093 0 -1 0  255 255 255 255
17.9503 29.0044 1.61178 0 -1 0  255 255 255 255
12.454 29.0044 1.59205 0 -1 0  255 255 255 255
12.5449 29.0044 4.44552 0 -1 0  255 255 255 255
17.9498 29.0044 4.43603 0 -1 0  255 255 255 255
20.1885 29.0044 4.72573 0 -1 0  255 255 255 255
21.1568 29.0044 3.11994 0 -1 0  255 255 255 255
24.103 29.0044 3.16411 0 -1 0  255 255 255 255
10.3355 29.0044 1.42974 0 -1 0  255 255 255 255
10.6094 29.0044 2.48212 0 -1 0  255 255 255 255
14.8065 29.0044 3.22651 0 -1 0  255 255 255 255
15.735 29.0044 3.24057 0 -1 0  255 255 255 255
11.369 29.0044 4.64163 0 -1 0  255 255 255 255
23.1402 29.0044 1.24977 0 -1 0  255 255 255 255
11.272 29.0044 1.50209 0 -1 0  255 255 255 255
22.2562 29.0044 2.84376 0 -1 0  255 255 255 255
19.2639 29.0044 2.78215 0 -1 0  255 255 255 255
18.7879 29.5044 2.82601 0 1 0  255 255 255 255
24.692 29.5044 3 0 1 0  255 255 255 255
11.8814 29.5044 3.10125 0 1 0  255 255 255 255
15.276 29.5044 3 0 1 0  255 255 255 255
21.696 29.5044 2.996 0 1 0  255 255 255 255
27.01 29.5044 3.60976 0 1 0  255 255 255 255
10.0421 29.5044 3.95508 0 1 0  255 255 255 255
10.1879 29.5044 2.0022 0 1 0  255 255 255 255
17.0104 29.5044 4.08813 0 1 0  255 255 255 255
17.0341 29.5044 1.93201 0 1 0  255 255 255 255
13.5434 29.5044 1.90836 0 1 0  255 255 255 255
13.5416 29.5044 4.08813 0 1 0  255 255 255 255
26.0184 29.5044 1.76076 0 1 0  255 255 255 255
20.1454 29.5044 4.12221 0 1 0  255 255 255 255
23.1851 29.5044 4.14242 0 1 0  255 255 255 255
20.0995 29.5044 1.86401 0 1 0  255 255 255 255
23.1719 29.5044 1.87847 0 1 0  255 255 255 255
25.5623 29.5044 4.40228 0 1 0  255 255 255 255
27.7436 29.5044 2.22635 0 1 0  255 255 255 255
24.692 29.5044 1.46947 0 1 0  255 255 255 255
18.9059 29.5044 4.46638 0 1 0  255 255 255 255
11.8516 29.5044 1.4872 0 1 0  255 255 255 255
15.6583 29.5044 1.56825 0 1 0  255 255 255 255
18.9049 29.5044 1.53361 0 1 0  255 255 255 255
11.8474 29.5044 4.52458 0 1 0  255 255 255 255
15.2723 29.5044 4.47537 0 1 0  255 255 255 255
21.7031 29.5044 4.61857 0 1 0  255 255 255 255
21.6119 29.5044 1.40709 0 1 0  255 255 255 255
28.0791 29.5044 4.69915 0 1 0  255 255 255 255
9.3212 29.5044 2.90666 0 1 0  255 255 255 255
24.2869 29.5044 4.70748 0 1 0  255 255 255 255
9.18411 29.5044 1.18367 0 1 0  255 255 255 255
25.9896 29.5044 3.20537 0 1 0  255 255 255 255
28.1415 29.5044 3.30827 0 1 0  255 255 255 255
26.7151 29.5044 4.78955 0 1 0  255 255 255 255
9.17412 29.5044 4.8263 0 1 0  255 255 255 255
27.0959 29.5044 1.11326 0 1 0  255 255 255 255
23.5141 29.5044 2.99978 0 1 0  255 255 255 255
19.8779 29.5044 2.99978 0 1 0  255 255 255 255
17.5269 29.5044 3 0 1 0  255 255 255 255
13.0251 29.5044 3 0 1 0  255 255 255 255
10.7231 29.5044 3.05362 0 1 0  255 255 255 255
10.7517 29.5044 4.86485 0 1 0  255 255 255 255
28.3464 29.5044 1.21111 0 1 0  255 255 255 255
16.3533 29.5044 3.06429 0 1 0  255 255 255 255
14.1987 29.5044 3.06429 0 1 0  255 255 255 255
10.8264 29.5044 1.05359 0 1 0  255 255 255 255
17.682 29.5044 1.04023 0 1 0  255 255 255 255
16.2534 29.5044 4.77174 0 1 0  255 255 255 255
12.9603 29.5044 1.09126 0 1 0  255 255 255 255
14.2975 29.5044 4.77174 0 1 0  255 255 255 255
17.682 29.5044 4.95977 0 1 0  255 255 255 255
16.2556 29.5044 1.0638 0 1 0  255 255 255 255
12.87 29.5044 4.95977 0 1 0  255 255 255 255
14.2575 29.5044 1.04152 0 1 0  255 255 255 255
25.6153 29.5044 0.962897 0 1 0  255 255 255 255
19.5283 29.5044 5.18122 0 1 0  255 255 255 255
19.5267 29.5044 0.818332 0 1 0  255 255 255 255
23.8905 29.5044 0.811828 0 1 0  255 255 255 255
22.5762 29.5044 1.0355 0 1 0  255 255 255 255
22.6244 29.5044 4.86506 0 1 0  255 255 255 255
20.832 29.5044 5.00016 0 1 0  255 255 255 255
20.8058 29.5044 0.981345 0 1 0  255 255 255 255
26.9885 29.5044 2.57534 0 1 0  255 255 255 255
14.4388 29.5044 2.26123 0 1 0  255 255 255 255
16.1557 29.5044 2.23968 0 1 0  255 255 255 255
8.90682 29.5044 3.86151 0 1 0  255 255 255 255
10.7695 29.5044 3.91855 0 1 0  255 255 255 255
17.8369 29.5044 2.23984 0 1 0  255 255 255 255
12.71 29.5044 2.23172 0 1 0  255 255 255 255
12.6519 29.5044 3.61548 0 1 0  255 255 255 255
17.7915 29.5044 3.65432 0 1 0  255 255 255 255
25.3298 29.5044 2.19899 0 1 0  255 255 255 255
10.9071 29.5044 2.03369 0 1 0  255 255 255 255
20.8347 29.5044 3.22157 0 1 0  255 255 255 255
22.5451 29.5044 3.38656 0 1 0  255 255 255 255
24.1029 29.5044 3.77554 0 1 0  255 255 255 255
22.4708 29.5044 2.19561 0 1 0  255 255 255 255
19.4562 29.5044 3.76439 0 1 0  255 255 255 255
19.3754 29.5044 2.2943 0 1 0  255 255 255 255
23.9531 29.5044 2.38396 0 1 0  255 255 255 255
21.0707 29.5044 2.26573 0 1 0  255 255 255 255
16.1078 29.5044 3.87612 0 1 0  255 255 255 255
14.4388 29.5044 3.87612 0 1 0  255 255 255 255
8.76705 29.5044 2.06969 0 1 0  255 255 255 255
23.4834 29.5044 5.01579 0 1 0  255 255 255 255
9.97901 29.5044 0.828631 0 1 0  255 255 255 255
24.8858 29.5044 5.15327 0 1 0  255 255 255 255
9.9513 29.5044 5.29085 0 1 0  255 255 255 255
24.9803 29.5044 3.76576 0 1 0  255 255 255 255
25.9512 29.5044 5.154 0 1 0  255 255 255 255
26.2145 29.5044 3.8376 0 1 0  255 255 255 255
28.555 29.5044 2.00371 0 1 0  255 255 255 255
26.5375 29.5044 0.661027 0 1 0  255 255 255 255
28.6158 29.5044 3.91592 0 1 0  255 255 255 255
27.316 29.5044 5.26446 0 1 0  255 255 255 255
28.5898 29.5044 5.18972 0 1 0  255 255 255 255
22.3583 29.5044 4.15222 0 1 0  255 255 255 255
24.692 29.5044 0.672405 0 1 0  255 255 255 255
18.4929 29.5044 5.23125 0 1 0  255 255 255 255
11.9287 29.5044 5.24795 0 1 0  255 255 255 255
15.2753 29.5044 5.29692 0 1 0  255 255 255 255
11.8613 29.5044 0.845186 0 1 0  255 255 255 255
15.2514 29.5044 0.741873 0 1 0  255 255 255 255
18.4925 29.5044 0.768687 0 1 0  255 255 255 255
16.992 29.5044 5.35415 0 1 0  255 255 255 255
16.9891 29.5044 0.654727 0 1 0  255 255 255 255
13.5866 29.5044 0.626464 0 1 0  255 255 255 255
13.5599 29.5044 5.35415 0 1 0  255 255 255 255
20.8049 29.5044 4.14007 0 1 0  255 255 255 255
21.4534 29.5044 5.37114 0 1 0  255 255 255 255
21.4155 29.5044 0.583324 0 1 0  255 255 255 255
27.7487 29.5044 3.87822 0 1 0  255 255 255 255
11.7315 29.5044 3.91938 0 1 0  255 255 255 255
15.2686 29.5044 3.68692 0 1 0  255 255 255 255
10.0262 29.5044 2.64096 0 1 0  255 255 255 255
11.8526 29.5044 2.16331 0 1 0  255 255 255 255
21.657 29.5044 3.7525 0 1 0  255 255 255 255
26.9213 29.5044 1.86333 0 1 0  255 255 255 255
15.2618 29.5044 2.28164 0 1 0  255 255 255 255
27.4984 29.5044 3.0655 0 1 0  255 255 255 255
22.9719 29.5044 2.61901 0 1 0  255 255 255 255
28.7433 29.5044 2.85464 0 1 0  255 255 255 255
20.3984 29.5044 2.49917 0 1 0  255 255 255 255
27.8509 29.5044 0.709374 0 1 0  255 255 255 255
8.68459 29.5044 0.684823 0 1 0  255 255 255 255
8.57815 29.5044 2.98345 0 1 0  255 255 255 255
8.67798 29.5044 5.32179 0 1 0  255 255 255 255
22.961 29.5044 0.605174 0 1 0  255 255 255 255
27.3019 29.5044 4.44395 0 1 0  255 255 255 255
18.6334 29.5044 3.58515 0 1 0  255 255 255 255
13.6153 29.5044 2.64484 0 1 0  255 255 255 255
16.9367 29.5044 2.64484 0 1 0  255 255 255 255
18.5181 29.5044 2.19191 0 1 0  255 255 255 255
22.1238 29.5044 0.528187 0 1 0  255 255 255 255
22.1423 29.5044 5.44227 0 1 0  255 255 255 255
9.55344 29.5044 1.81317 0 1 0  255 255 255 255
9.569 29.5044 3.65736 0 1 0  255 255 255 255
20.2052 29.5044 5.36402 0 1 0  255 255 255 255
20.2007 29.5044 0.634803 0 1 0  255 255 255 255
28.7435 29.5044 0.677224 0 1 0  255 255 255 255
11.1846 29.5044 5.37517 0 1 0  255 255 255 255
24.0999 29.5044 5.35243 0 1 0  255 255 255 255
27.7522 29.5044 1.52119 0 1 0  255 255 255 255
8.52715 29.5044 1.30192 0 1 0  255 255 255 255
9.32923 29.5044 0.538842 0 1 0  255 255 255 255
16.9544 29.5044 3.38795 0 1 0  255 255 255 255
13.564 29.5044 3.38169 0 1 0  255 255 255 255
8.53078 29.5044 4.67825 0 1 0  255 255 255 255
9.27428 29.5044 5.48779 0 1 0  255 255 255 255
25.6117 29.5044 3.61587 0 1 0  255 255 255 255
22.9047 29.5044 5.47888 0 1 0  255 255 255 255
11.2863 29.5044 3.33485 0 1 0  255 255 255 255
25.3917 29.5044 1.59325 0 1 0  255 255 255 255
23.7846 29.5044 1.55985 0 1 0  255 255 255 255
19.5843 29.5044 1.63729 0 1 0  255 255 255 255
20.8174 29.5044 1.66396 0 1 0  255 255 255 255
19.6284 29.5044 4.42953 0 1 0  255 255 255 255
26.1601 29.5044 2.51575 0 1 0  255 255 255 255
26.5611 29.5044 3.13813 0 1 0  255 255 255 255
9.53638 29.5044 4.193 0 1 0  255 255 255 255
26.5455 29.5044 5.4168 0 1 0  255 255 255 255
13.7528 29.5044 1.26214 0 1 0  255 255 255 255
13.3889 29.5044 4.71876 0 1 0  255 255 255 255
17.163 29.5044 4.71876 0 1 0  255 255 255 255
17.0565 29.5044 1.31204 0 1 0  255 255 255 255
24.9163 29.5044 4.45674 0 1 0  255 255 255 255
15.7671 29.5044 3.27392 0 1 0  255 255 255 255
14.7809 29.5044 3.27392 0 1 0  255 255 255 255
23.7646 29.5044 4.41031 0 1 0  255 255 255 255
