ply
format ascii 1.0
comment VCGLIB generated
element vertex 684
property float x
property float y
property float z
property float nx
property float ny
property float nz
property uchar red
property uchar green
property uchar blue
property uchar alpha
element face 0
property list uchar int vertex_indices
end_header
6.9426 26.8259 -21.4639 0.170979 0.831472 -0.528603  255 255 255 255
6.44564 19.7431 -17.8341 -0.116699 -0.939215 0.322887  255 255 255 255
-6.44564 19.7431 -17.8341 0.116698 -0.939215 0.322887  255 255 255 255
21.7585 22.1064 10.3294 0.846771 -0.348405 0.401986  255 255 255 255
15.1151 22.1026 18.7508 0.588046 -0.34935 0.729491  255 255 255 255
5.48258 22.1026 23.4521 0.213297 -0.34935 0.912392  255 255 255 255
-5.23586 22.1026 23.5084 -0.203698 -0.34935 0.914583  255 255 255 255
-14.9173 22.1026 18.9086 -0.580348 -0.34935 0.735629  255 255 255 255
-21.6491 22.1087 10.5587 -0.842679 -0.347822 0.410989  255 255 255 255
23.4632 22.2377 5.64221 0.922599 -0.315579 0.221858  255 255 255 255
23.706 22.3258 4.66289 0.937971 -0.29355 0.184495  255 255 255 255
18.5813 22.1972 15.3763 0.728415 -0.325692 0.602774  255 255 255 255
19.1455 22.2083 14.6741 0.751168 -0.322925 0.575731  255 255 255 255
10.0696 22.1972 21.9157 0.394742 -0.325701 0.859126  255 255 255 255
10.8826 22.2082 21.5278 0.426972 -0.322948 0.84463  255 255 255 255
-0.436467 22.1972 24.1144 -0.01711 -0.325701 0.945318  255 255 255 255
0.464314 22.2082 24.1177 0.018217 -0.322948 0.946242  255 255 255 255
-10.8561 22.1972 21.537 -0.425574 -0.325701 0.844278  255 255 255 255
-10.0459 22.2082 21.9307 -0.394146 -0.322948 0.860438  255 255 255 255
-19.1255 22.1974 14.6941 -0.74976 -0.325638 0.576038  255 255 255 255
-18.5664 22.2084 15.4003 -0.72845 -0.322908 0.604227  255 255 255 255
-23.7097 22.341 4.668 -0.939072 -0.289761 0.184886  255 255 255 255
-23.4701 22.2631 5.64946 -0.924581 -0.309225 0.222555  255 255 255 255
22.0868 22.3838 9.83514 0.877234 -0.279051 0.390628  255 255 255 255
21.2706 22.2277 11.3911 0.835766 -0.31807 0.447579  255 255 255 255
15.623 22.3782 18.4499 0.620289 -0.280442 0.732526  255 255 255 255
14.2191 22.2259 19.4932 0.55862 -0.318529 0.765822  255 255 255 255
6.07074 22.3782 23.4014 0.24103 -0.280442 0.929116  255 255 255 255
4.35317 22.2259 23.7322 0.171021 -0.318529 0.932358  255 255 255 255
-4.68392 22.3782 23.7179 -0.185968 -0.280442 0.941684  255 255 255 255
-6.37495 22.2259 23.2707 -0.25045 -0.318529 0.914229  255 255 255 255
-14.5109 22.3782 19.3368 -0.576133 -0.280442 0.767739  255 255 255 255
-15.8404 22.2259 18.2002 -0.622317 -0.318528 0.715026  255 255 255 255
-21.466 22.3821 11.1239 -0.852488 -0.279475 0.441767  255 255 255 255
-22.1791 22.2374 9.51003 -0.87209 -0.315641 0.373938  255 255 255 255
22.2365 21.6398 8.69936 0.824436 -0.465055 0.322536  255 255 255 255
20.7189 21.8927 12.1118 0.790545 -0.40183 0.462137  255 255 255 255
16.2371 21.6316 17.5012 0.601381 -0.467093 0.648201  255 255 255 255
13.4104 21.8917 19.9025 0.511633 -0.40207 0.759322  255 255 255 255
7.03562 21.6316 22.8131 0.260582 -0.467093 0.844939  255 255 255 255
3.44695 21.8917 23.7501 0.131508 -0.40207 0.906115  255 255 255 255
-3.55934 21.6316 23.6065 -0.131829 -0.467093 0.874325  255 255 255 255
-7.19919 21.8917 22.8937 -0.274664 -0.40207 0.873441  255 255 255 255
-13.4493 21.6316 19.7244 -0.49813 -0.467093 0.730541  255 255 255 255
-16.4194 21.8917 17.5029 -0.626436 -0.402067 0.667772  255 255 255 255
-20.6772 21.6335 11.9347 -0.766009 -0.466635 0.442134  255 255 255 255
-22.4066 21.9055 8.61298 -0.85605 -0.398619 0.329061  255 255 255 255
23.9171 22.0719 2.73446 0.928048 -0.357028 0.106104  255 255 255 255
22.8227 21.9045 7.43921 0.871859 -0.398872 0.284188  255 255 255 255
20.109 21.9753 13.1638 0.773503 -0.38118 0.506355  255 255 255 255
17.2897 21.8875 16.6411 0.659358 -0.403116 0.634622  255 255 255 255
12.4054 21.9749 20.5853 0.477164 -0.38128 0.791796  255 255 255 255
8.35719 21.8875 22.4948 0.318708 -0.403118 0.857858  255 255 255 255
2.24527 21.9749 23.9292 0.086362 -0.38128 0.920417  255 255 255 255
-2.23058 21.8875 23.8932 -0.085065 -0.403118 0.911186  255 255 255 255
-8.35958 21.9749 22.5337 -0.321544 -0.38128 0.866738  255 255 255 255
-12.3765 21.8875 20.5592 -0.47199 -0.403118 0.784042  255 255 255 255
-17.3087 21.9749 16.6751 -0.665767 -0.381269 0.641395  255 255 255 255
-20.0715 21.8883 13.1534 -0.765505 -0.40292 0.501654  255 255 255 255
-22.8613 21.9973 7.44652 -0.881187 -0.375666 0.287025  255 255 255 255
-23.9192 22.0781 2.73612 -0.928628 -0.35548 0.106226  255 255 255 255
24.2083 22.7069 1.53756 0.978175 -0.198279 0.062128  255 255 255 255
22.9645 22.6033 7.74275 0.923472 -0.224177 0.311359  255 255 255 255
20.3916 22.6655 13.1213 0.822441 -0.208623 0.529214  255 255 255 255
17.2991 22.5842 16.9661 0.694981 -0.228951 0.681603  255 255 255 255
12.6787 22.665 20.6697 0.511349 -0.20874 0.833636  255 255 255 255
8.22461 22.5842 22.7917 0.33042 -0.228953 0.915644  255 255 255 255
2.45487 22.665 24.1238 0.099008 -0.20874 0.972946  255 255 255 255
-2.47882 22.5842 24.1031 -0.099585 -0.228953 0.96833  255 255 255 255
-8.25516 22.665 22.7999 -0.332942 -0.20874 0.919553  255 255 255 255
-12.6913 22.5842 20.6406 -0.509866 -0.228952 0.829227  255 255 255 255
-17.3301 22.6651 16.9603 -0.698949 -0.208731 0.684033  255 255 255 255
-20.3899 22.5842 13.0904 -0.819155 -0.228938 0.525901  255 255 255 255
-22.995 22.6863 7.70921 -0.92831 -0.203424 0.311222  255 255 255 255
-24.2089 22.71 1.5375 -0.978334 -0.19749 0.062134  255 255 255 255
23.9504 22.7518 -3.90041 0.969579 -0.187042 -0.1579  255 255 255 255
22.6021 21.9368 8.12572 0.866198 -0.390802 0.311408  255 255 255 255
20.5043 22.0725 12.613 0.795667 -0.35687 0.489447  255 255 255 255
16.8072 21.9243 17.1507 0.643323 -0.39393 0.656471  255 255 255 255
13.0002 22.0718 20.2607 0.504441 -0.357042 0.786169  255 255 255 255
7.70133 21.9243 22.7446 0.294781 -0.393931 0.870587  255 255 255 255
2.92196 22.0718 23.8949 0.113379 -0.357042 0.927182  255 255 255 255
-2.92985 21.9243 23.8336 -0.112145 -0.393931 0.912273  255 255 255 255
-7.735 22.0718 22.7963 -0.300138 -0.357042 0.884556  255 255 255 255
-12.9807 21.9243 20.2022 -0.49686 -0.393931 0.773272  255 255 255 255
-16.8599 22.0719 17.1827 -0.65421 -0.357035 0.666734  255 255 255 255
-20.4612 21.9253 12.5693 -0.783268 -0.393673 0.481158  255 255 255 255
-22.6688 22.0888 8.12026 -0.880886 -0.352804 0.315545  255 255 255 255
-23.9515 22.7589 -3.90186 -0.9699 -0.18528 -0.158003  255 255 255 255
23.8913 22.2439 3.41484 0.939865 -0.314018 0.134337  255 255 255 255
23.0072 21.9092 6.85454 0.879318 -0.397704 0.261976  255 255 255 255
19.774 21.9422 13.6375 0.75821 -0.389461 0.522913  255 255 255 255
17.6937 21.8875 16.2109 0.674765 -0.403115 0.618216  255 255 255 255
11.8983 21.9419 20.8667 0.456214 -0.389527 0.800086  255 255 255 255
8.90782 21.8875 22.2825 0.339707 -0.403118 0.849762  255 255 255 255
1.6663 21.9419 23.9627 0.063891 -0.389527 0.918796  255 255 255 255
-1.64236 21.8875 23.9408 -0.062633 -0.403118 0.913002  255 255 255 255
-8.89574 21.9419 22.3126 -0.341087 -0.389527 0.855528  255 255 255 255
-11.8672 21.8875 20.8573 -0.452567 -0.403118 0.795411  255 255 255 255
-17.6959 21.942 16.2433 -0.678513 -0.389509 0.622818  255 255 255 255
-19.7418 21.8881 13.643 -0.752913 -0.402983 0.520314  255 255 255 255
-23.0312 21.9703 6.8645 -0.885494 -0.382419 0.263923  255 255 255 255
-23.8938 22.2524 3.41729 -0.940548 -0.311888 0.134517  255 255 255 255
22.1846 22.0043 9.27733 0.855653 -0.373925 0.357824  255 255 255 255
21.0047 22.0752 11.7629 0.815272 -0.356202 0.456565  255 255 255 255
15.9472 21.9973 17.9938 0.614684 -0.375668 0.693568  255 255 255 255
13.8187 22.0738 19.7125 0.536296 -0.356539 0.765027  255 255 255 255
6.56075 21.9973 23.1311 0.252883 -0.375668 0.891585  255 255 255 255
3.89734 22.0738 23.756 0.151253 -0.356539 0.921956  255 255 255 255
-4.12517 21.9973 23.687 -0.159004 -0.375668 0.913012  255 255 255 255
-6.79598 22.0738 23.0944 -0.263747 -0.356539 0.89628  255 255 255 255
-13.994 21.9973 19.5514 -0.539399 -0.375668 0.753606  255 255 255 255
-16.1433 22.0739 17.8587 -0.62651 -0.356537 0.693085  255 255 255 255
-21.0931 21.9998 11.542 -0.813216 -0.375059 0.444984  255 255 255 255
-22.3077 22.0863 9.06282 -0.866673 -0.353417 0.352099  255 255 255 255
23.7819 22.2276 4.0763 0.934427 -0.318108 0.160164  255 255 255 255
23.2008 21.9334 6.20783 0.888843 -0.391659 0.237828  255 255 255 255
19.4045 21.937 14.1545 0.743667 -0.390758 0.542464  255 255 255 255
18.1272 21.9075 15.738 0.692694 -0.398116 0.601397  255 255 255 255
11.3412 21.9368 21.1721 0.43464 -0.390798 0.811397  255 255 255 255
9.50353 21.9075 22.0446 0.363157 -0.398122 0.842387  255 255 255 255
1.03186 21.9368 23.9962 0.039545 -0.390798 0.919627  255 255 255 255
-1.00239 21.9075 23.9849 -0.038304 -0.398122 0.916532  255 255 255 255
-9.48189 21.9368 22.0676 -0.363382 -0.390798 0.845713  255 255 255 255
-11.3098 21.9075 21.1747 -0.432179 -0.398122 0.809147  255 255 255 255
-18.1176 21.9369 15.7682 -0.694344 -0.39077 0.604305  255 255 255 255
-19.3772 21.9079 14.1708 -0.740486 -0.398032 0.541527  255 255 255 255
-23.2153 21.973 6.21807 -0.8928 -0.381738 0.239131  255 255 255 255
-23.7852 22.2395 4.08031 -0.935383 -0.315136 0.160463  255 255 255 255
21.4287 21.9915 10.899 0.82552 -0.377124 0.419874  255 255 255 255
14.5731 21.989 19.1194 0.561284 -0.377749 0.736387  255 255 255 255
4.83429 21.989 23.549 0.186193 -0.377749 0.906994  255 255 255 255
-5.862 21.989 23.3145 -0.225775 -0.377749 0.89796  255 255 255 255
-15.3972 21.989 18.4622 -0.593027 -0.377748 0.711074  255 255 255 255
-21.8914 21.9973 9.94271 -0.843795 -0.375683 0.383238  255 255 255 255
23.477 21.9456 5.08847 0.9005 -0.388595 0.195177  255 255 255 255
18.7832 21.9215 14.9586 0.718763 -0.394625 0.572408  255 255 255 255
10.4328 21.9214 21.627 0.399219 -0.39464 0.827577  255 255 255 255
0.015994 21.9214 24.0118 0.000612 -0.39464 0.918835  255 255 255 255
-10.4039 21.9214 21.6409 -0.398116 -0.39464 0.828108  255 255 255 255
-18.7632 21.9217 14.9838 -0.718009 -0.394586 0.573381  255 255 255 255
-23.4845 21.9671 5.09644 -0.902644 -0.383227 0.195885  255 255 255 255
-5.33785 26.9259 -21.7559 -0.122995 0.856486 -0.501303  255 255 255 255
5.33785 26.9259 -21.7559 0.122995 0.856486 -0.501303  255 255 255 255
5.30602 19.5628 -18.8997 -0.047712 -0.984297 0.169947  255 255 255 255
-5.30602 19.5628 -18.8997 0.047712 -0.984297 0.169947  255 255 255 255
3.98363 19.6566 -18.8112 -0.057395 -0.96086 0.271026  255 255 255 255
-3.98363 19.6566 -18.8112 0.057395 -0.96086 0.271026  255 255 255 255
-3.55476 27.0309 -21.9297 -0.075183 0.882736 -0.463815  255 255 255 255
3.55476 27.0309 -21.9297 0.075183 0.882736 -0.463815  255 255 255 255
3.45302 19.7943 -18.5112 -0.06904 -0.926417 0.370115  255 255 255 255
-3.45302 19.7943 -18.5112 0.06904 -0.926417 0.370115  255 255 255 255
2.70523 19.7719 -18.6921 -0.051911 -0.932015 0.358682  255 255 255 255
-2.70523 19.7719 -18.6921 0.051911 -0.932015 0.358682  255 255 255 255
1.90281 19.7607 -18.82 -0.035723 -0.934819 0.353323  255 255 255 255
-1.90281 19.7607 -18.82 0.035723 -0.934819 0.353323  255 255 255 255
0.956626 19.7337 -18.9653 -0.016966 -0.941582 0.336355  255 255 255 255
-0.956626 19.7337 -18.9653 0.016966 -0.941582 0.336355  255 255 255 255
-0.818982 27.0608 -22.1436 -0.016838 0.890203 -0.455254  255 255 255 255
0.818982 27.0608 -22.1436 0.016838 0.890203 -0.455254  255 255 255 255
0.426525 19.846 -18.7044 -0.009274 -0.913509 0.406713  255 255 255 255
-0.426525 19.846 -18.7044 0.009274 -0.913509 0.406713  255 255 255 255
-0.392589 27.1526 -21.9634 -0.007285 0.913158 -0.40754  255 255 255 255
0.392589 27.1526 -21.9634 0.007285 0.913158 -0.40754  255 255 255 255
-12.4519 21.2585 -20.1059 -0.436082 -0.560382 -0.704134  255 255 255 255
12.4518 21.2583 -20.1058 0.436066 -0.560422 -0.704112  255 255 255 255
21.9747 20.6298 -7.19463 0.661936 -0.717546 -0.216721  255 255 255 255
-21.9766 20.6324 -7.19723 -0.662538 -0.716912 -0.216978  255 255 255 255
-14.7478 22.9743 -19.3153 -0.601598 -0.131423 -0.787914  255 255 255 255
14.7476 22.9729 -19.3152 0.601565 -0.131774 -0.787881  255 255 255 255
-12.5341 23.1015 -20.8373 -0.512891 -0.099632 -0.852653  255 255 255 255
12.5341 23.1012 -20.8373 0.512887 -0.099706 -0.852646  255 255 255 255
-11.1664 23.2139 -21.612 -0.457851 -0.071533 -0.886146  255 255 255 255
11.1664 23.2138 -21.612 0.457851 -0.071559 -0.886144  255 255 255 255
-23.6381 25.1823 -3.94814 -0.894865 0.420567 -0.149464  255 255 255 255
23.6449 25.1669 -3.95021 0.896603 0.416732 -0.14979  255 255 255 255
-12.3834 20.7085 -19.6203 -0.382268 -0.69788 -0.605669  255 255 255 255
12.3833 20.7084 -19.6202 0.382253 -0.697906 -0.605648  255 255 255 255
-9.83828 20.8299 -21.1374 -0.314198 -0.667522 -0.675051  255 255 255 255
9.83827 20.8299 -21.1374 0.314197 -0.667526 -0.675048  255 255 255 255
-22.9156 25.6849 -5.99617 -0.810363 0.546215 -0.212042  255 255 255 255
22.9429 25.6406 -6.00407 0.817242 0.535141 -0.213869  255 255 255 255
-22.0108 26.1358 -7.77979 -0.709197 0.658942 -0.250668  255 255 255 255
22.1311 26.0077 -7.76199 0.735169 0.626931 -0.257844  255 255 255 255
-10.1738 24.047 -22.0665 -0.414759 0.136744 -0.899598  255 255 255 255
10.1738 24.0469 -22.0665 0.41476 0.13673 -0.899599  255 255 255 255
-9.14087 20.549 -21.1456 -0.267864 -0.737755 -0.619651  255 255 255 255
9.14086 20.549 -21.1456 0.267863 -0.737757 -0.619649  255 255 255 255
21.7542 26.2526 -8.17283 0.679227 0.688139 -0.255178  255 255 255 255
-8.70543 24.0474 -22.6859 -0.354895 0.136844 -0.924837  255 255 255 255
8.70543 24.0474 -22.6859 0.354895 0.136839 -0.924838  255 255 255 255
-20.436 26.4378 -10.6642 -0.601664 0.734455 -0.313969  255 255 255 255
-21.0692 26.3214 -9.64507 -0.64454 0.705343 -0.295058  255 255 255 255
21.1114 26.3653 -9.44433 0.636946 0.716315 -0.284942  255 255 255 255
20.7032 26.3997 -10.2277 0.617567 0.724936 -0.305088  255 255 255 255
19.7577 19.5281 -6.53257 0.112318 -0.992978 -0.037136  255 255 255 255
-19.7583 19.5282 -6.53298 -0.112473 -0.992959 -0.037189  255 255 255 255
20.3164 26.4039 -10.9669 0.605186 0.725967 -0.326683  255 255 255 255
18.9505 19.5035 -7.82564 0.03842 -0.999136 -0.015866  255 255 255 255
-18.951 19.5035 -7.82589 -0.038534 -0.999131 -0.015913  255 255 255 255
-19.7502 26.3701 -12.0244 -0.594951 0.717516 -0.36222  255 255 255 255
19.9014 26.3701 -11.7724 0.599493 0.717532 -0.354622  255 255 255 255
-8.52387 19.9229 -20.4188 -0.172395 -0.894279 -0.41297  255 255 255 255
8.52386 19.9229 -20.4188 0.172395 -0.89428 -0.412969  255 255 255 255
18.3498 19.5427 -7.31288 -0.135434 -0.989315 0.053974  255 255 255 255
-18.35 19.5427 -7.31302 0.135369 -0.989325 0.053949  255 255 255 255
-22.9813 23.2339 -7.98093 -0.942563 -0.066537 -0.327333  255 255 255 255
22.9852 23.2124 -7.96515 0.94243 -0.07189 -0.326585  255 255 255 255
-8.06709 24.4997 -22.826 -0.322645 0.249915 -0.912931  255 255 255 255
8.06709 24.4996 -22.826 0.322646 0.249912 -0.912932  255 255 255 255
-7.92981 20.0751 -20.9524 -0.182853 -0.856235 -0.483141  255 255 255 255
7.92981 20.0751 -20.9524 0.182853 -0.856236 -0.483141  255 255 255 255
-5.3984 24.3603 -23.6342 -0.217468 0.215083 -0.952075  255 255 255 255
5.3984 24.3603 -23.6342 0.217468 0.215082 -0.952075  255 255 255 255
21.0876 19.6252 -3.20213 0.245394 -0.968707 -0.037263  255 255 255 255
-21.0882 19.6253 -3.20238 -0.245561 -0.968664 -0.03729  255 255 255 255
-7.25148 19.9543 -20.9696 -0.15128 -0.886418 -0.437467  255 255 255 255
7.25148 19.9543 -20.9696 0.15128 -0.886418 -0.437467  255 255 255 255
-6.58479 19.8228 -20.8978 -0.118274 -0.919302 -0.375359  255 255 255 255
6.58479 19.8228 -20.8978 0.118274 -0.919302 -0.375359  255 255 255 255
-18.2039 26.5811 -13.8725 -0.507211 0.770282 -0.386525  255 255 255 255
18.2322 26.5636 -13.8701 0.511717 0.765898 -0.389288  255 255 255 255
16.3679 19.5389 -11.1058 -0.115136 -0.990273 0.078121  255 255 255 255
-16.3681 19.5389 -11.1058 0.115096 -0.99028 0.078093  255 255 255 255
15.7364 19.5975 -11.4457 -0.177494 -0.975618 0.129098  255 255 255 255
-15.7365 19.5975 -11.4457 0.177467 -0.975625 0.129077  255 255 255 255
-5.33796 25.5865 -23.1415 -0.191762 0.521628 -0.831343  255 255 255 255
5.33796 25.5865 -23.1415 0.191762 0.521628 -0.831343  255 255 255 255
-16.2366 26.6682 -15.9757 -0.435138 0.792053 -0.428145  255 255 255 255
16.2414 26.6645 -15.9776 0.436028 0.791129 -0.428945  255 255 255 255
-5.17507 19.5992 -20.581 -0.053963 -0.975209 -0.214607  255 255 255 255
5.17507 19.5992 -20.581 0.053963 -0.975209 -0.214606  255 255 255 255
12.7904 19.5319 -15.1563 -0.081335 -0.992016 0.09638  255 255 255 255
-12.7905 19.5319 -15.1564 0.081326 -0.992018 0.096369  255 255 255 255
-5.54461 25.9983 -22.7957 -0.184571 0.624586 -0.758832  255 255 255 255
5.54461 25.9983 -22.7957 0.184571 0.624586 -0.758832  255 255 255 255
-13.4819 26.76 -18.2059 -0.344839 0.81501 -0.465667  255 255 255 255
13.4825 26.7596 -18.2062 0.344933 0.814902 -0.465785  255 255 255 255
-12.915 26.7745 -18.5874 -0.327715 0.818627 -0.471649  255 255 255 255
12.9153 26.7742 -18.5876 0.327772 0.818559 -0.471726  255 255 255 255
-5.71468 26.3965 -22.377 -0.17065 0.724131 -0.668216  255 255 255 255
5.71468 26.3965 -22.377 0.170651 0.724131 -0.668216  255 255 255 255
22.9544 20.5204 -1.52858 0.665714 -0.744889 -0.044331  255 255 255 255
-22.9554 20.5213 -1.52865 -0.665964 -0.744664 -0.044348  255 255 255 255
-4.7342 19.5193 -20.1806 -0.022382 -0.995187 -0.095408  255 255 255 255
4.7342 19.5193 -20.1806 0.022382 -0.995187 -0.095408  255 255 255 255
-11.0789 26.9481 -19.4269 -0.251096 0.862025 -0.440299  255 255 255 255
11.0789 26.9481 -19.427 0.251105 0.862015 -0.440314  255 255 255 255
-24.2227 24.4036 -0.711366 -0.973731 0.225899 -0.028596  255 255 255 255
24.2233 24.4009 -0.711259 0.973888 0.225221 -0.028596  255 255 255 255
-9.63328 26.8411 -20.3731 -0.235038 0.835268 -0.497075  255 255 255 255
9.6333 26.8411 -20.3732 0.235041 0.835264 -0.497082  255 255 255 255
-18.9767 21.345 -14.2082 -0.674384 -0.538756 -0.504924  255 255 255 255
18.9721 21.3401 -14.2092 0.673685 -0.53997 -0.504559  255 255 255 255
-23.6618 25.643 1.57181 -0.842515 0.535758 0.055967  255 255 255 255
-23.8361 25.0789 2.89863 -0.912079 0.394727 0.110915  255 255 255 255
-23.0031 24.8538 7.18952 -0.898142 0.338441 0.280711  255 255 255 255
-22.5987 24.9838 8.2313 -0.872578 0.370938 0.317825  255 255 255 255
-20.5054 25.1028 12.4736 -0.782762 0.400693 0.47616  255 255 255 255
-19.9116 24.9593 13.5073 -0.770516 0.364829 0.52269  255 255 255 255
-17.5599 24.9224 16.47 -0.68171 0.355588 0.639397  255 255 255 255
-16.7499 24.9894 17.2565 -0.646409 0.372362 0.665959  255 255 255 255
-13.0569 25.1217 20.1291 -0.497468 0.405414 0.766919  255 255 255 255
-12.0769 24.9651 20.8078 -0.467097 0.366263 0.804781  255 255 255 255
-8.67496 24.9224 22.4578 -0.336779 0.355593 0.871856  255 255 255 255
-7.60389 24.9894 22.8151 -0.293448 0.37236 0.880475  255 255 255 255
-3.03018 25.1217 23.8009 -0.11545 0.405414 0.906813  255 255 255 255
-1.85273 24.9651 23.9871 -0.071658 0.366263 0.927748  255 255 255 255
1.92822 24.9224 23.9977 0.074857 0.355593 0.931638  255 255 255 255
3.04822 24.9894 23.8549 0.117636 0.37236 0.920603  255 255 255 255
7.59673 25.1217 22.7586 0.289435 0.405414 0.867102  255 255 255 255
8.73836 24.9651 22.4155 0.337973 0.366263 0.866964  255 255 255 255
12.1495 24.9224 20.7846 0.471667 0.355593 0.806898  255 255 255 255
13.0966 24.9894 20.1699 0.505421 0.37236 0.778394  255 255 255 255
16.719 25.1217 17.2087 0.636994 0.405414 0.655651  255 255 255 255
17.5987 24.9651 16.4042 0.680664 0.366264 0.634466  255 255 255 255
19.9643 24.9226 13.4548 0.775038 0.355649 0.522332  255 255 255 255
20.5508 24.99 12.49 0.793054 0.372492 0.48199  255 255 255 255
22.5282 25.1286 8.24605 0.857709 0.40715 0.313949  255 255 255 255
22.9697 24.9786 7.13771 0.88732 0.369645 0.275729  255 255 255 255
23.837 25.0743 2.90715 0.912528 0.393583 0.111291  255 255 255 255
23.6625 25.6416 1.57607 0.84273 0.535403 0.056131  255 255 255 255
-22.3798 24.8858 8.91138 -0.871519 0.346449 0.347028  255 255 255 255
-20.9384 24.9216 11.883 -0.812919 0.355413 0.461351  255 255 255 255
-16.2768 24.8786 17.7613 -0.634233 0.344639 0.692079  255 255 255 255
-13.7074 24.9471 19.7802 -0.531007 0.361775 0.766258  255 255 255 255
-6.95854 24.8785 23.0646 -0.271143 0.344637 0.898725  255 255 255 255
-3.76766 24.9471 23.7688 -0.145954 0.361775 0.920769  255 255 255 255
3.73793 24.8785 23.7997 0.14565 0.344637 0.927368  255 255 255 255
6.91835 24.9471 23.0497 0.268007 0.361775 0.892912  255 255 255 255
13.6941 24.8785 19.821 0.533596 0.344637 0.772334  255 255 255 255
16.2341 24.9471 17.7653 0.628886 0.361775 0.688202  255 255 255 255
20.9376 24.8795 11.9163 0.815784 0.344865 0.464289  255 255 255 255
22.3335 24.953 8.95854 0.864718 0.363249 0.346861  255 255 255 255
-23.6464 25.0808 4.16778 -0.904653 0.395195 0.159449  255 255 255 255
23.6492 25.0698 4.17897 0.905738 0.392458 0.16005  255 255 255 255
21.9438 19.883 2.10383 0.425033 -0.90426 0.040749  255 255 255 255
21.3709 20.174 7.22343 0.526288 -0.831491 0.177887  255 255 255 255
19.1076 20.2248 12.1302 0.484658 -0.818805 0.307677  255 255 255 255
16.0768 20.171 15.8183 0.395173 -0.832261 0.388818  255 255 255 255
11.9509 20.2245 19.2198 0.303081 -0.818876 0.487426  255 255 255 255
7.6214 20.1709 21.2273 0.187335 -0.832263 0.52177  255 255 255 255
2.42819 20.2245 22.5017 0.06158 -0.818876 0.570657  255 255 255 255
-2.34353 20.1709 22.4319 -0.057604 -0.832263 0.55138  255 255 255 255
-7.57541 20.2245 21.3269 -0.192117 -0.818876 0.540863  255 255 255 255
-11.8443 20.1709 19.1937 -0.291135 -0.832263 0.471783  255 255 255 255
-16.0786 20.2245 15.928 -0.407768 -0.818872 0.403948  255 255 255 255
-19 20.1711 12.1529 -0.467056 -0.832234 0.298741  255 255 255 255
-21.4158 20.2182 7.29256 -0.541212 -0.820442 0.184295  255 255 255 255
-21.949 19.8856 2.10711 -0.426399 -0.903609 0.040934  255 255 255 255
-21.4609 24.7816 11.0215 -0.842654 0.320402 0.432756  255 255 255 255
-14.5602 24.7973 19.2299 -0.57102 0.324329 0.754153  255 255 255 255
-4.77478 24.7973 23.6429 -0.187256 0.324328 0.927225  255 255 255 255
5.95637 24.7973 23.3733 0.233596 0.324328 0.916648  255 255 255 255
15.5078 24.7973 18.4742 0.608181 0.324328 0.724518  255 255 255 255
21.9872 24.8011 9.91405 0.862038 0.325282 0.388694  255 255 255 255
-21.9273 23.9158 10.5073 -0.896923 0.103941 0.429796  255 255 255 255
-15.1981 23.9125 18.9802 -0.621712 0.10312 0.776428  255 255 255 255
-5.45781 23.9125 23.6947 -0.223264 0.103119 0.969288  255 255 255 255
5.36344 23.9125 23.7163 0.219404 0.103119 0.970169  255 255 255 255
15.1224 23.9125 19.0405 0.618617 0.103119 0.778896  255 255 255 255
21.8869 23.9158 10.5913 0.895269 0.10395 0.43323  255 255 255 255
21.4414 19.7325 3.21023 0.332273 -0.94187 0.049748  255 255 255 255
20.7903 19.7276 6.0997 0.319093 -0.943088 0.093619  255 255 255 255
17.8877 19.753 12.3495 0.288041 -0.936743 0.19886  255 255 255 255
16.029 19.7258 14.5701 0.24511 -0.943547 0.222801  255 255 255 255
10.7572 19.7529 18.8879 0.173195 -0.936763 0.304101  255 255 255 255
8.11988 19.7258 20.082 0.124164 -0.943549 0.30708  255 255 255 255
1.49678 19.7529 21.6847 0.024099 -0.936763 0.349132  255 255 255 255
-1.39747 19.7258 21.6163 -0.021369 -0.943549 0.330543  255 255 255 255
-8.06011 19.7529 20.1867 -0.129771 -0.936763 0.325014  255 255 255 255
-10.638 19.7258 18.8693 -0.16267 -0.943549 0.288537  255 255 255 255
-16.0207 19.753 14.6904 -0.257945 -0.93676 0.236527  255 255 255 255
-17.7718 19.7257 12.3843 -0.271725 -0.943563 0.189352  255 255 255 255
-20.8248 19.7436 6.1396 -0.329593 -0.939109 0.097171  255 255 255 255
-21.4511 19.7363 3.2173 -0.334891 -0.940917 0.050228  255 255 255 255
-23.9146 23.9618 4.36533 -0.977167 0.115451 0.178371  255 255 255 255
-23.5344 23.7782 6.1583 -0.965085 0.069552 0.252536  255 255 255 255
-19.5179 23.7265 14.5259 -0.800927 0.056627 0.596078  255 255 255 255
-18.491 23.7331 15.8119 -0.758726 0.058268 0.648799  255 255 255 255
-11.2827 23.7271 21.5558 -0.462989 0.056772 0.884544  255 255 255 255
-9.79942 23.7331 22.2689 -0.402092 0.058275 0.913743  255 255 255 255
-0.812698 23.7271 24.3165 -0.033349 0.056772 0.99783  255 255 255 255
0.833158 23.7331 24.3154 0.034186 0.058275 0.997715  255 255 255 255
9.8183 23.7271 22.261 0.402896 0.056772 0.913483  255 255 255 255
11.3007 23.7331 21.5459 0.463693 0.058275 0.884077  255 255 255 255
18.5047 23.7271 15.7965 0.759342 0.056777 0.64821  255 255 255 255
19.53 23.7332 14.509 0.801359 0.058301 0.595336  255 255 255 255
23.5363 23.7829 6.14982 0.965094 0.070736 0.252171  255 255 255 255
23.9156 23.9545 4.36467 0.97738 0.113623 0.178375  255 255 255 255
20.0661 19.7749 8.50384 0.335411 -0.931287 0.142144  255 255 255 255
19.4024 19.8919 10.5039 0.37962 -0.902027 0.205514  255 255 255 255
14.3722 19.774 16.38 0.239896 -0.931503 0.273409  255 255 255 255
12.919 19.8915 17.8842 0.252647 -0.902135 0.349747  255 255 255 255
5.8419 19.774 20.9938 0.097511 -0.931503 0.350419  255 255 255 255
3.87997 19.8915 21.7185 0.075877 -0.902135 0.42473  255 255 255 255
-3.84549 19.774 21.4494 -0.064187 -0.931503 0.358025  255 255 255 255
-5.92755 19.8915 21.2511 -0.11592 -0.902135 0.415591  255 255 255 255
-12.7712 19.774 17.6568 -0.213172 -0.931503 0.29472  255 255 255 255
-14.5611 19.8915 16.5747 -0.28476 -0.902134 0.324139  255 255 255 255
-19.1657 19.7724 10.3616 -0.319068 -0.931901 0.172499  255 255 255 255
-20.305 19.8833 8.58441 -0.393434 -0.904181 0.166333  255 255 255 255
-22.3313 23.991 9.59711 -0.911801 0.122757 0.391855  255 255 255 255
-21.3587 24.0377 11.5891 -0.870974 0.134414 0.472585  255 255 255 255
-15.9482 23.9811 18.3441 -0.65134 0.120282 0.749192  255 255 255 255
-14.2188 24.0457 19.7046 -0.579687 0.13642 0.803339  255 255 255 255
-6.40963 23.9811 23.4472 -0.261775 0.12028 0.957605  255 255 255 255
-4.26117 24.0457 23.9226 -0.173724 0.13642 0.9753  255 255 255 255
4.39847 23.9811 23.9062 0.179638 0.12028 0.976352  255 255 255 255
6.54042 24.0457 23.4023 0.266647 0.13642 0.954091  255 255 255 255
14.3354 23.9811 19.6303 0.585471 0.12028 0.801721  255 255 255 255
16.0466 24.0457 18.247 0.654205 0.13642 0.743912  255 255 255 255
21.4332 23.9829 11.4656 0.875315 0.120713 0.468244  255 255 255 255
22.3759 24.0523 9.47222 0.912066 0.138072 0.386099  255 255 255 255
-24.0127 24.0603 3.70619 -0.978554 0.140072 0.151033  255 255 255 255
-23.3769 24.0381 6.63441 -0.953263 0.13453 0.270538  255 255 255 255
-19.7752 24.028 14.1246 -0.806626 0.131989 0.576137  255 255 255 255
-18.1542 24.0297 16.1547 -0.74047 0.132419 0.658916  255 255 255 255
-11.6885 24.0296 21.3057 -0.476748 0.132404 0.869011  255 255 255 255
-9.34724 24.0297 22.4317 -0.381252 0.132425 0.914937  255 255 255 255
-1.28679 24.0296 24.2672 -0.052485 0.132404 0.989805  255 255 255 255
1.31117 24.0297 24.2659 0.05348 0.132425 0.989749  255 255 255 255
9.36978 24.0296 22.4223 0.382173 0.132404 0.914556  255 255 255 255
11.7099 24.0297 21.2939 0.47762 0.132425 0.868529  255 255 255 255
18.1705 24.0296 16.1364 0.741137 0.132407 0.658168  255 255 255 255
19.7893 24.0299 14.1044 0.807157 0.132464 0.575283  255 255 255 255
23.3761 24.0665 6.62281 0.952433 0.141627 0.269839  255 255 255 255
24.0133 24.0539 3.70821 0.978764 0.138482 0.151144  255 255 255 255
21.616 19.8736 4.22213 0.414168 -0.906598 0.080897  255 255 255 255
21.4416 19.8878 5.16342 0.417574 -0.903062 0.100557  255 255 255 255
17.5563 19.8946 13.3721 0.344547 -0.901342 0.26243  255 255 255 255
16.9871 19.8844 14.0544 0.329553 -0.90391 0.272658  255 255 255 255
10.0154 19.8946 19.6653 0.196544 -0.901355 0.385913  255 255 255 255
9.20672 19.8843 20.033 0.178607 -0.903916 0.388633  255 255 255 255
0.491148 19.8946 22.0633 0.009638 -0.901355 0.432973  255 255 255 255
-0.397028 19.8843 22.0438 -0.007702 -0.903916 0.427641  255 255 255 255
-9.13042 19.8946 20.0915 -0.179176 -0.901355 0.394277  255 255 255 255
-9.92214 19.8843 19.6885 -0.192486 -0.903916 0.381949  255 255 255 255
-16.9437 19.8946 14.1402 -0.332519 -0.901346 0.277499  255 255 255 255
-17.4823 19.8844 13.4335 -0.339167 -0.903905 0.260617  255 255 255 255
-21.4666 19.9021 5.18696 -0.424757 -0.899471 0.102634  255 255 255 255
-21.6321 19.8822 4.23555 -0.418652 -0.90444 0.081972  255 255 255 255
-22.6932 23.986 8.7087 -0.926696 0.12151 0.355627  255 255 255 255
-20.957 24.0814 12.2884 -0.853477 0.145361 0.500448  255 255 255 255
-16.6473 23.977 17.7128 -0.679962 0.119261 0.723484  255 255 255 255
-13.5515 24.0899 20.1617 -0.551741 0.147472 0.820874  255 255 255 255
-7.31342 23.977 23.1817 -0.298718 0.119258 0.946861  255 255 255 255
-3.46163 24.0899 24.0449 -0.140938 0.147472 0.978973  255 255 255 255
3.46899 23.977 24.0591 0.141692 0.119258 0.982701  255 255 255 255
7.31386 24.0899 23.1656 0.29778 0.147472 0.943175  255 255 255 255
13.5643 23.977 20.1714 0.554038 0.119258 0.823905  255 255 255 255
16.6407 24.0899 17.6981 0.677519 0.147472 0.72057  255 255 255 255
20.9731 23.9779 12.2882 0.856632 0.119475 0.501903  255 255 255 255
22.6735 24.1001 8.71644 0.922839 0.150019 0.35477  255 255 255 255
19.7871 19.8594 9.60176 0.372729 -0.910143 0.180869  255 255 255 255
13.6528 19.8588 17.2412 0.256977 -0.910302 0.324519  255 255 255 255
4.82008 19.8588 21.4576 0.090725 -0.910302 0.40388  255 255 255 255
-4.96734 19.8588 21.4239 -0.093497 -0.910302 0.403247  255 255 255 255
-13.7709 19.8588 17.1471 -0.2592 -0.910302 0.322747  255 255 255 255
-19.8432 19.8546 9.46055 -0.37158 -0.911342 0.177156  255 255 255 255
-24.0532 24.6739 2.27292 -0.951726 0.293477 0.089934  255 255 255 255
-23.8724 25.2034 1.99553 -0.901653 0.425843 0.07537  255 255 255 255
-23.0766 23.9561 7.64624 -0.943059 0.114017 0.312474  255 255 255 255
-20.385 24.0029 13.2353 -0.832069 0.125722 0.540237  255 255 255 255
-17.443 23.9563 16.9333 -0.712828 0.114073 0.692  255 255 255 255
-12.6238 24.0073 20.7685 -0.515216 0.126821 0.847625  255 255 255 255
-8.36856 23.9563 22.8246 -0.341991 0.114067 0.932754  255 255 255 255
-2.36255 24.0073 24.1891 -0.096423 0.126821 0.987228  255 255 255 255
2.3634 23.9563 24.1952 0.096583 0.114067 0.988767  255 255 255 255
8.36667 24.0073 22.8187 0.341468 0.126821 0.931298  255 255 255 255
12.6273 23.9563 20.7737 0.516028 0.114067 0.848942  255 255 255 255
17.4388 24.0073 16.9288 0.711727 0.126821 0.690913  255 255 255 255
20.3901 23.9566 13.2376 0.83326 0.114159 0.540967  255 255 255 255
23.0607 24.0268 7.66645 0.940669 0.131705 0.312723  255 255 255 255
24.0537 24.671 2.27695 0.951932 0.292754 0.090111  255 255 255 255
23.873 25.2012 2.00051 0.90189 0.425304 0.075576  255 255 255 255
22.3162 20.4192 5.08259 0.621863 -0.770212 0.141632  255 255 255 255
22.4766 20.4579 4.55603 0.636362 -0.760529 0.128991  255 255 255 255
18.0175 20.534 14.3285 0.525145 -0.741494 0.417624  255 255 255 255
10.0161 20.534 20.727 0.291928 -0.741508 0.604106  255 255 255 255
0.031097 20.534 23.0202 0.000906 -0.741508 0.670943  255 255 255 255
-9.96009 20.534 20.754 -0.290295 -0.741508 0.604892  255 255 255 255
-17.9788 20.5341 14.3772 -0.524033 -0.741473 0.419056  255 255 255 255
-22.4918 20.4731 4.5703 -0.640646 -0.756721 0.130178  255 255 255 255
-22.3392 20.4414 5.10159 -0.628279 -0.764643 0.14348  255 255 255 255
-22.0624 24.3565 10.0503 -0.888917 0.21413 0.404938  255 255 255 255
-15.5164 24.3508 18.6295 -0.625342 0.212691 0.750806  255 255 255 255
-5.89676 24.3508 23.5169 -0.237651 0.21269 0.947779  255 255 255 255
4.89082 24.3508 23.7465 0.19711 0.21269 0.957032  255 255 255 255
14.7097 24.3508 19.2729 0.59283 0.21269 0.776734  255 255 255 255
21.6152 24.3531 10.9808 0.871042 0.213263 0.442499  255 255 255 255
20.7626 20.3525 9.43305 0.561857 -0.786864 0.255268  255 255 255 255
20.2868 20.3564 10.4277 0.549947 -0.785907 0.28268  255 255 255 255
14.6009 20.3507 17.515 0.39478 -0.787325 0.47357  255 255 255 255
13.7472 20.3553 18.2001 0.372484 -0.786175 0.493137  255 255 255 255
5.55551 20.3507 22.1155 0.15021 -0.787325 0.59796  255 255 255 255
4.48905 20.3553 22.3624 0.121632 -0.786175 0.605916  255 255 255 255
-4.59023 20.3507 22.3359 -0.124111 -0.787325 0.603917  255 255 255 255
-5.65818 20.3553 22.0955 -0.15331 -0.786175 0.598686  255 255 255 255
-13.8268 20.3507 18.1323 -0.37385 -0.787325 0.490261  255 255 255 255
-14.6847 20.3553 17.4524 -0.397888 -0.786175 0.472879  255 255 255 255
-20.3274 20.3499 10.3301 -0.549421 -0.787515 0.279208  255 255 255 255
-20.8075 20.3527 9.33397 -0.563112 -0.786827 0.252604  255 255 255 255
-23.6333 24.3928 5.36938 -0.95055 0.223193 0.215961  255 255 255 255
-18.9589 24.2965 15.1305 -0.765954 0.199116 0.611284  255 255 255 255
-10.5166 24.2969 21.8579 -0.424868 0.199237 0.883058  255 255 255 255
0.008698 24.2969 24.2563 0.000351 0.199237 0.979951  255 255 255 255
10.5322 24.2969 21.8504 0.425502 0.199237 0.882753  255 255 255 255
18.9697 24.297 15.1168 0.766374 0.199249 0.610714  255 255 255 255
23.6358 24.39 5.36114 0.950781 0.222502 0.215658  255 255 255 255
22.264 20.1666 3.56425 0.545799 -0.833348 0.087377  255 255 255 255
21.9165 20.3016 6.05908 0.578834 -0.799589 0.160025  255 255 255 255
18.5412 20.3312 13.2304 0.496772 -0.792188 0.35448  255 255 255 255
17.04 20.2996 15.052 0.449582 -0.800102 0.39713  255 255 255 255
10.9641 20.3311 19.965 0.29374 -0.792221 0.534886  255 255 255 255
8.82165 20.2996 20.9547 0.232748 -0.800107 0.552863  255 255 255 255
1.21579 20.3311 22.745 0.032573 -0.792221 0.609365  255 255 255 255
-1.14388 20.2996 22.7071 -0.03018 -0.800107 0.599098  255 255 255 255
-8.77328 20.3311 21.02 -0.235047 -0.792221 0.563151  255 255 255 255
-10.8829 20.2996 19.9621 -0.28713 -0.800107 0.526674  255 255 255 255
-17.0248 20.3312 15.1318 -0.456125 -0.792208 0.405409  255 255 255 255
-18.4668 20.2998 13.2631 -0.487271 -0.800058 0.349964  255 255 255 255
-21.9507 20.334 6.09515 -0.5889 -0.791491 0.163522  255 255 255 255
-22.2744 20.1743 3.57257 -0.548643 -0.831413 0.087996  255 255 255 255
21.2774 20.4387 8.49641 0.597749 -0.765326 0.238691  255 255 255 255
15.4602 20.4355 16.9034 0.433758 -0.76612 0.474251  255 255 255 255
6.59501 20.4355 21.9374 0.185033 -0.76612 0.615486  255 255 255 255
-3.57638 20.4355 22.6264 -0.100341 -0.76612 0.634816  255 255 255 255
-13.0394 20.4355 18.8339 -0.36584 -0.76612 0.528413  255 255 255 255
-19.9217 20.4358 11.3086 -0.559001 -0.766048 0.317316  255 255 255 255
22.3268 20.1548 3.01608 0.54335 -0.836292 0.0734  255 255 255 255
21.757 20.3376 6.76949 0.584674 -0.790609 0.181916  255 255 255 255
18.9905 20.3834 12.6964 0.521098 -0.779155 0.348389  255 255 255 255
16.607 20.3333 15.5932 0.445387 -0.791671 0.418197  255 255 255 255
11.6002 20.3832 19.679 0.318275 -0.779211 0.539936  255 255 255 255
8.19674 20.3333 21.2545 0.219829 -0.791673 0.570026  255 255 255 255
1.91298 20.3832 22.7633 0.052487 -0.779211 0.62456  255 255 255 255
-1.83698 20.3333 22.7061 -0.049266 -0.791673 0.608955  255 255 255 255
-8.15309 20.3832 21.339 -0.223697 -0.779211 0.585482  255 255 255 255
-11.5069 20.3333 19.6604 -0.308603 -0.791673 0.527274  255 255 255 255
-16.6044 20.3832 15.6883 -0.455583 -0.779204 0.430448  255 255 255 255
-18.8984 20.3336 12.7203 -0.506896 -0.791612 0.341186  255 255 255 255
-21.7999 20.3826 6.82328 -0.597968 -0.779362 0.187162  255 255 255 255
-22.3347 20.1605 3.02192 -0.54547 -0.834875 0.073803  255 255 255 255
22.5903 20.2138 1.10012 0.569466 -0.821547 0.027732  255 255 255 255
20.8119 19.9034 7.396 0.41237 -0.899153 0.146545  255 255 255 255
18.9042 19.9504 11.602 0.392912 -0.887396 0.241141  255 255 255 255
15.5068 19.9014 15.7226 0.306601 -0.899643 0.310868  255 255 255 255
11.9962 19.9502 18.656 0.249272 -0.887459 0.387659  255 255 255 255
7.14934 19.9014 20.8937 0.141357 -0.899644 0.41311  255 255 255 255
2.71365 19.9502 22.0134 0.056388 -0.887459 0.457424  255 255 255 255
-2.62409 19.9014 21.9265 -0.051884 -0.899644 0.433532  255 255 255 255
-7.10634 19.9502 21.0108 -0.147665 -0.887459 0.43659  255 255 255 255
-11.8778 19.9014 18.6166 -0.234848 -0.899644 0.368087  255 255 255 255
-15.5189 19.9502 15.8468 -0.322474 -0.887457 0.329288  255 255 255 255
-18.7793 19.9012 11.6177 -0.371194 -0.899712 0.229637  255 255 255 255
-20.8595 19.9381 7.46997 -0.428403 -0.890469 0.153415  255 255 255 255
-22.593 20.2158 1.10158 -0.570172 -0.821055 0.0278  255 255 255 255
20.7497 20.0071 8.13062 0.453735 -0.873221 0.177793  255 255 255 255
19.4129 20.0656 11.1497 0.444532 -0.858607 0.255315  255 255 255 255
15.1417 20.0052 16.3472 0.330572 -0.8737 0.35689  255 255 255 255
12.6496 20.0651 18.4698 0.289568 -0.858715 0.422798  255 255 255 255
6.54942 20.0052 21.2981 0.142986 -0.8737 0.464976  255 255 255 255
3.3832 20.0651 22.1292 0.077446 -0.858715 0.506567  255 255 255 255
-3.34007 20.0052 22.0306 -0.07292 -0.8737 0.480968  255 255 255 255
-6.55333 20.0651 21.4056 -0.150015 -0.858715 0.490003  255 255 255 255
-12.568 20.0052 18.3997 -0.274383 -0.8737 0.401699  255 255 255 255
-15.1919 20.0651 16.4424 -0.347765 -0.858714 0.376391  255 255 255 255
-19.3071 20.0046 11.1214 -0.421283 -0.87386 0.242671  255 255 255 255
-20.8237 20.0563 8.17619 -0.473525 -0.860934 0.185924  255 255 255 255
19.8153 19.9858 10.1139 0.425449 -0.878543 0.217153  255 255 255 255
13.4581 19.9851 17.7132 0.288783 -0.878713 0.380089  255 255 255 255
4.43986 19.9851 21.7983 0.09527 -0.878713 0.467747  255 255 255 255
-5.45776 19.9851 21.566 -0.117112 -0.878713 0.462762  255 255 255 255
-14.2744 19.9851 17.0623 -0.3063 -0.878712 0.366121  255 255 255 255
-20.2618 19.9798 9.15956 -0.43271 -0.880056 0.195611  255 255 255 255
21.8898 20.0725 4.74662 0.503803 -0.856882 0.109246  255 255 255 255
17.5059 20.0478 13.9061 0.395523 -0.863044 0.31419  255 255 255 255
9.73842 20.0478 20.1245 0.22002 -0.863056 0.454672  255 255 255 255
0.042325 20.0478 22.3569 0.000956 -0.863056 0.505108  255 255 255 255
-9.66216 20.0478 20.1612 -0.218297 -0.863056 0.455501  255 255 255 255
-17.4531 20.0478 13.9723 -0.394338 -0.863039 0.315692  255 255 255 255
-21.9102 20.0869 4.76445 -0.509535 -0.853287 0.1108  255 255 255 255
8.32259 19.69 -17.2119 -0.13256 -0.952508 0.274147  255 255 255 255
-8.32259 19.69 -17.2119 0.13256 -0.952508 0.274147  255 255 255 255
-3.82539 19.5292 -19.4823 0.023228 -0.992706 0.118298  255 255 255 255
3.82539 19.5292 -19.4823 -0.023228 -0.992706 0.118298  255 255 255 255
8.94354 19.7522 -16.6939 -0.165028 -0.936952 0.308038  255 255 255 255
-8.94355 19.7522 -16.6939 0.165027 -0.936952 0.308038  255 255 255 255
24.1616 22.4265 -1.16687 0.962193 -0.268377 -0.046468  255 255 255 255
-24.1622 22.4286 -1.16698 -0.96234 -0.267846 -0.046479  255 255 255 255
-3.01658 26.8081 -22.3828 -0.075086 0.827022 -0.557133  255 255 255 255
3.01658 26.8081 -22.3828 0.075086 0.827022 -0.557133  255 255 255 255
-10.5551 27.1158 -19.3561 -0.204725 0.903959 -0.375428  255 255 255 255
10.5551 27.1158 -19.3561 0.204729 0.903955 -0.375434  255 255 255 255
-2.21208 26.8115 -22.4715 -0.05495 0.827879 -0.558209  255 255 255 255
2.21208 26.8115 -22.4715 0.05495 0.827879 -0.558209  255 255 255 255
7.81122 19.811 -17.0895 -0.16072 -0.922241 0.351625  255 255 255 255
-7.81122 19.811 -17.0895 0.16072 -0.922241 0.351625  255 255 255 255
-1.90906 26.4554 -22.9527 -0.055854 0.73886 -0.67154  255 255 255 255
1.90906 26.4554 -22.9527 0.055854 0.73886 -0.67154  255 255 255 255
5.64075 19.7279 -18.1493 -0.098748 -0.943027 0.317726  255 255 255 255
-5.64075 19.7279 -18.1493 0.098748 -0.943027 0.317726  255 255 255 255
18.2213 20.0838 -13.0582 0.422822 -0.854052 -0.303014  255 255 255 255
-18.2232 20.0847 -13.0581 -0.423141 -0.853824 -0.303208  255 255 255 255
-6.20271 26.9975 -21.3966 -0.13511 0.87437 -0.466071  255 255 255 255
6.20271 26.9975 -21.3966 0.135111 0.87437 -0.466071  255 255 255 255
-2.40184 19.5924 -19.3329 0.026351 -0.976891 0.212108  255 255 255 255
2.40184 19.5924 -19.3329 -0.026351 -0.976891 0.212108  255 255 255 255
-1.80056 19.5238 -19.8188 0.009864 -0.994039 0.108577  255 255 255 255
1.80056 19.5238 -19.8188 -0.009864 -0.994039 0.108577  255 255 255 255
4.74562 19.7315 -18.3931 -0.083759 -0.942123 0.324635  255 255 255 255
-4.74562 19.7315 -18.3931 0.083759 -0.942123 0.324635  255 255 255 255
-1.50846 26.984 -22.2505 -0.033229 0.871006 -0.490148  255 255 255 255
1.50846 26.984 -22.2505 0.033229 0.871006 -0.490148  255 255 255 255
-1.03026 26.8476 -22.5024 -0.025035 0.83689 -0.546798  255 255 255 255
1.03026 26.8476 -22.5024 0.025035 0.83689 -0.546798  255 255 255 255
4.0745 19.8218 -18.3169 -0.08533 -0.919548 0.383601  255 255 255 255
-4.0745 19.8218 -18.3169 0.08533 -0.919548 0.383601  255 255 255 255
-4.87012 27.1132 -21.508 -0.094743 0.9033 -0.418418  255 255 255 255
4.87012 27.1132 -21.508 0.094743 0.9033 -0.418418  255 255 255 255
-9.9801 22.1782 -21.9494 -0.390657 -0.330455 -0.859178  255 255 255 255
9.9801 22.1781 -21.9494 0.390656 -0.330463 -0.859175  255 255 255 255
-8.25706 22.8636 -22.8387 -0.335668 -0.159102 -0.928447  255 255 255 255
8.25706 22.8636 -22.8387 0.335668 -0.159104 -0.928446  255 255 255 255
17.8441 20.6132 -14.678 0.534587 -0.721699 -0.439736  255 255 255 255
-17.8466 20.615 -14.6779 -0.534989 -0.721239 -0.440001  255 255 255 255
-7.06932 21.319 -22.6102 -0.250153 -0.54525 -0.800079  255 255 255 255
7.06932 21.319 -22.6102 0.250153 -0.54525 -0.800078  255 255 255 255
-7.50071 21.6861 -22.6941 -0.279695 -0.453475 -0.846245  255 255 255 255
7.50071 21.6861 -22.6941 0.279695 -0.453476 -0.846245  255 255 255 255
-16.6367 22.1701 -17.4488 -0.650807 -0.332479 -0.682575  255 255 255 255
16.6351 22.1668 -17.4488 0.650574 -0.333301 -0.682396  255 255 255 255
-16.4027 21.0224 -16.7962 -0.548516 -0.619395 -0.561676  255 255 255 255
16.4012 21.021 -16.796 0.548294 -0.619758 -0.561493  255 255 255 255
-18.2446 23.6536 -16.1015 -0.749217 0.03839 -0.661211  255 255 255 255
18.2426 23.6397 -16.1045 0.749216 0.034936 -0.661404  255 255 255 255
21.7614 19.8024 -2.09678 0.379656 -0.924404 -0.036581  255 255 255 255
-21.7622 19.8027 -2.09689 -0.379859 -0.92432 -0.036601  255 255 255 255
-22.8044 24.6991 -7.95647 -0.900761 0.299768 -0.314276  255 255 255 255
22.832 24.6494 -7.92355 0.904883 0.287356 -0.314028  255 255 255 255
-19.4344 25.6464 -13.5851 -0.691619 0.536593 -0.483457  255 255 255 255
19.4693 25.5782 -13.6093 0.700306 0.519557 -0.489523  255 255 255 255
-16.1898 20.266 -15.8981 -0.419896 -0.8085 -0.412329  255 255 255 255
16.1887 20.2654 -15.8979 0.419726 -0.808661 -0.412187  255 255 255 255
-22.7888 26.411 -3.65355 -0.677188 0.727757 -0.108568  255 255 255 255
22.799 26.4007 -3.65918 0.67987 0.725169 -0.109117  255 255 255 255
-5.85611 21.0067 -22.7219 -0.19516 -0.623317 -0.757225  255 255 255 255
5.85611 21.0067 -22.7219 0.19516 -0.623317 -0.757225  255 255 255 255
-5.18303 20.8187 -22.7211 -0.165036 -0.670331 -0.723477  255 255 255 255
5.18303 20.8187 -22.7211 0.165036 -0.670331 -0.723477  255 255 255 255
-5.25533 23.1127 -23.743 -0.215096 -0.096818 -0.971782  255 255 255 255
5.25533 23.1127 -23.743 0.215096 -0.096818 -0.971782  255 255 255 255
12.6979 19.8785 -18.0085 0.244694 -0.90537 -0.347031  255 255 255 255
-12.698 19.8786 -18.0085 -0.244711 -0.905357 -0.347053  255 255 255 255
-3.28196 23.3925 -24.1127 -0.134817 -0.026878 -0.990506  255 255 255 255
3.28196 23.3925 -24.1127 0.134817 -0.026878 -0.990506  255 255 255 255
-16.5269 24.0406 -17.8141 -0.673886 0.135138 -0.726371  255 255 255 255
16.5271 24.0349 -17.8149 0.674005 0.133717 -0.726524  255 255 255 255
-11.1471 24.2171 -21.5605 -0.451822 0.179288 -0.873907  255 255 255 255
11.1471 24.217 -21.5605 0.451825 0.179258 -0.873911  255 255 255 255
-14.9909 24.7321 -18.9238 -0.590753 0.308037 -0.745738  255 255 255 255
14.9915 24.7298 -18.9243 0.590876 0.30745 -0.745882  255 255 255 255
-22.5826 26.6632 -3.02907 -0.606651 0.790792 -0.081372  255 255 255 255
22.5894 26.6575 -3.03261 0.60844 0.789385 -0.081682  255 255 255 255
11.8735 20.1485 -19.1355 0.287802 -0.837875 -0.463827  255 255 255 255
-11.8735 20.1485 -19.1356 -0.287811 -0.837864 -0.46384  255 255 255 255
-18.9464 25.9063 -13.9563 -0.643165 0.601569 -0.473766  255 255 255 255
18.9828 25.8627 -13.9615 0.650029 0.590676 -0.478084  255 255 255 255
-13.71 24.9494 -19.7774 -0.530998 0.362347 -0.765993  255 255 255 255
13.7103 24.9485 -19.7776 0.531053 0.362118 -0.766063  255 255 255 255
-17.0815 23.7224 -17.3259 -0.700982 0.055591 -0.711009  255 255 255 255
17.081 23.715 -17.3269 0.701021 0.053744 -0.711113  255 255 255 255
-11.8466 24.1382 -21.1998 -0.481561 0.159541 -0.861769  255 255 255 255
11.8466 24.138 -21.1998 0.481566 0.15949 -0.861775  255 255 255 255
-22.5098 26.5709 -4.20768 -0.629877 0.767719 -0.117741  255 255 255 255
22.5236 26.558 -4.21719 0.633606 0.764507 -0.118633  255 255 255 255
11.3311 19.9232 -19.0058 0.229256 -0.894189 -0.384536  255 255 255 255
-11.3311 19.9233 -19.0059 -0.229262 -0.894184 -0.384544  255 255 255 255
-21.2299 26.9182 -7.18855 -0.491928 0.854553 -0.166569  255 255 255 255
21.1707 26.9333 -7.28472 0.485196 0.858319 -0.166954  255 255 255 255
-4.90079 20.439 -22.3812 -0.137698 -0.765238 -0.628848  255 255 255 255
4.90079 20.439 -22.3812 0.137698 -0.765238 -0.628848  255 255 255 255
-20.5377 25.5266 -11.9971 -0.744438 0.506659 -0.434865  255 255 255 255
20.5009 25.4974 -12.0935 0.746233 0.499355 -0.440206  255 255 255 255
20.0295 19.5024 -2.60506 -0.034286 -0.999402 0.004459  255 255 255 255
-20.0299 19.5024 -2.60514 0.034191 -0.999405 0.004447  255 255 255 255
-15.7429 24.3038 -18.4516 -0.635821 0.200958 -0.745217  255 255 255 255
15.7434 24.3001 -18.4521 0.635943 0.200036 -0.745361  255 255 255 255
19.164 19.5956 -3.42151 -0.21399 -0.976089 0.038205  255 255 255 255
-19.1641 19.5956 -3.42159 0.21394 -0.9761 0.038197  255 255 255 255
-23.0342 26.2663 -2.97608 -0.71635 0.691575 -0.092554  255 255 255 255
23.0413 26.2586 -2.97934 0.718172 0.689642 -0.092863  255 255 255 255
-21.7222 22.3859 -10.6176 -0.862866 -0.278532 -0.42176  255 255 255 255
21.7206 22.3751 -10.6136 0.862213 -0.28122 -0.421312  255 255 255 255
10.6964 19.971 -19.4756 0.226638 -0.882243 -0.412652  255 255 255 255
-10.6965 19.971 -19.4756 -0.226641 -0.88224 -0.412658  255 255 255 255
-20.9045 25.6434 -11.1956 -0.744289 0.535858 -0.39861  255 255 255 255
20.917 25.5316 -11.3169 0.75764 0.507891 -0.409913  255 255 255 255
-3.99488 20.5097 -22.6435 -0.115395 -0.74758 -0.65407  255 255 255 255
3.99488 20.5097 -22.6435 0.115395 -0.74758 -0.65407  255 255 255 255
-17.5015 26.2369 -15.3111 -0.54888 0.684217 -0.480185  255 255 255 255
17.5139 26.2244 -15.3144 0.551182 0.681111 -0.481961  255 255 255 255
-4.6234 24.1879 -23.8326 -0.187607 0.171975 -0.967072  255 255 255 255
4.6234 24.1879 -23.8326 0.187607 0.171975 -0.967072  255 255 255 255
17.0555 19.5421 -12.106 0.117989 -0.989477 -0.083749  255 255 255 255
-17.0562 19.5422 -12.106 -0.118093 -0.989459 -0.083819  255 255 255 255
19.1487 19.562 -4.34289 -0.171022 -0.984503 0.038787  255 255 255 255
-19.1489 19.5619 -4.34301 0.170963 -0.984514 0.038775  255 255 255 255
20.0123 27.037 -9.62006 0.420891 0.88426 -0.202325  255 255 255 255
20.9628 20.9828 -10.4993 0.694877 -0.6293 -0.348032  255 255 255 255
-20.9654 20.9864 -10.5007 -0.695527 -0.6284 -0.348362  255 255 255 255
16.5306 19.5418 -12.8103 0.113976 -0.989549 -0.088325  255 255 255 255
-16.5312 19.5419 -12.8103 -0.11407 -0.989532 -0.088395  255 255 255 255
-23.5925 25.816 -0.497194 -0.815142 0.579006 -0.017178  255 255 255 255
23.5941 25.8138 -0.497129 0.815534 0.578455 -0.017183  255 255 255 255
-3.35745 20.2211 -22.377 -0.084984 -0.819732 -0.566407  255 255 255 255
3.35745 20.2211 -22.377 0.084984 -0.819732 -0.566407  255 255 255 255
21.1074 19.8972 -6.46102 0.415394 -0.900711 -0.127153  255 255 255 255
-21.1086 19.8978 -6.46207 -0.415723 -0.900543 -0.127267  255 255 255 255
19.4579 19.9029 -10.449 0.385336 -0.899276 -0.206928  255 255 255 255
-19.4592 19.9035 -10.4493 -0.385616 -0.899123 -0.207069  255 255 255 255
-10.4401 25.0901 -21.6179 -0.399042 0.397537 -0.826275  255 255 255 255
10.4402 25.0901 -21.6179 0.399046 0.397517 -0.826282  255 255 255 255
