ply
format ascii 1.0
comment VCGLIB generated
element vertex 674
property float x
property float y
property float z
property float nx
property float ny
property float nz
property uchar red
property uchar green
property uchar blue
property uchar alpha
element face 0
property list uchar int vertex_indices
end_header
-16.8847 -12.2988 92.8491 0.637508 -0.745383 0.194906  255 255 255 255
-16.899 12.337 92.7492 0.635025 0.747697 0.194147  255 255 255 255
-17.9555 -13.218 92.5086 0.57239 -0.801091 0.174997  255 255 255 255
-17.9925 13.2567 92.4514 0.569371 0.803439 0.174074  255 255 255 255
-19.1084 -14.0352 92.1736 0.502813 -0.850616 0.153725  255 255 255 255
-19.1505 14.0664 92.1376 0.499869 0.852511 0.152825  255 255 255 255
-20.3724 14.7677 91.8074 0.426552 0.895012 0.13041  255 255 255 255
-20.3359 -14.7468 91.8312 0.428977 -0.893744 0.131151  255 255 255 255
-21.6557 15.3592 91.4523 0.349403 0.930863 0.106823  255 255 255 255
-21.6287 -15.3473 91.4671 0.351155 -0.930142 0.107359  255 255 255 255
-22.9929 15.836 91.0551 0.268561 0.959757 0.082107  255 255 255 255
-22.9745 -15.8301 91.0636 0.269727 -0.959399 0.082464  255 255 255 255
-24.3739 16.1908 90.5972 0.184258 0.981262 0.056333  255 255 255 255
-24.362 -16.1883 90.6017 0.184997 -0.98111 0.056559  255 255 255 255
-25.7981 16.4164 90.0564 0.096155 0.994932 0.029398  255 255 255 255
-25.7906 -16.4156 90.0585 0.096611 -0.994884 0.029537  255 255 255 255
-35.8053 2.31066 172.993 0.946881 0.14004 0.289491  255 255 255 255
-87.6644 7.44471 236.373 -0.853431 0.451194 -0.26092  255 255 255 255
-87.6644 -7.44471 236.373 -0.853431 -0.451194 -0.26092  255 255 255 255
-102.453 -2.78766 390.732 0.942558 -0.168949 0.288169  255 255 255 255
-40.3874 1.61143 188.266 0.951733 0.097662 0.290974  255 255 255 255
-27.5512 5.49205 143.333 0.901776 0.332852 0.2757  255 255 255 255
-88.402 6.20227 341.446 0.886171 0.375895 0.27093  255 255 255 255
-34.3059 3.9969 166.964 0.927823 0.242236 0.283664  255 255 255 255
-39.3178 2.60627 184.329 0.9443 0.157956 0.288701  255 255 255 255
-28.1243 6.94839 143.177 0.867376 0.421115 0.265183  255 255 255 255
-30.4637 8.89643 52.1132 -0.805392 0.539178 -0.246233  255 255 255 255
-30.4637 -8.89644 52.1132 -0.805392 -0.539178 -0.246233  255 255 255 255
-79.0943 1.97673 314.734 0.949417 0.119802 0.290266  255 255 255 255
-40.5937 -3.36881 188.022 0.93616 -0.204171 0.286213  255 255 255 255
-49.9056 5.409 109.917 -0.90346 0.327818 -0.276215  255 255 255 255
-49.9066 -5.41042 109.922 -0.903432 -0.327904 -0.276207  255 255 255 255
-83.6828 -1.42823 217.491 -0.952715 -0.08656 -0.291274  255 255 255 255
-83.6828 1.42823 217.491 -0.952715 0.08656 -0.291274  255 255 255 255
-139.18 -8.44512 406.753 -0.821551 -0.511825 -0.251173  255 255 255 255
-139.18 8.44512 406.753 -0.821551 0.511826 -0.251173  255 255 255 255
-65.6525 10.6134 171.529 -0.732211 0.643237 -0.223859  255 255 255 255
-65.6525 -10.6134 171.529 -0.732211 -0.643238 -0.223859  255 255 255 255
-152.338 -6.35696 446.197 -0.882482 -0.38527 -0.269802  255 255 255 255
-152.338 6.35568 446.194 -0.882513 0.385193 -0.269811  255 255 255 255
-114.923 -6.31225 323.756 -0.883559 -0.382561 -0.270131  255 255 255 255
-114.923 6.31224 323.756 -0.883559 0.38256 -0.270131  255 255 255 255
-87.9964 -6.29494 339.99 0.883974 -0.381511 0.270258  255 255 255 255
-110.24 0.90543 416.929 0.954864 0.054875 0.291931  255 255 255 255
-150.733 -5.67547 440.035 -0.897952 -0.343968 -0.274532  255 255 255 255
-150.731 5.67039 440.022 -0.89806 0.34366 -0.274565  255 255 255 255
-89.0199 11.1396 249.539 -0.705466 0.675128 -0.215683  255 255 255 255
-89.0199 -11.1396 249.539 -0.705468 -0.675127 -0.215683  255 255 255 255
-128.036 -6.6852 367.191 -0.874296 -0.405163 -0.267299  255 255 255 255
-128.036 6.68523 367.191 -0.874295 0.405165 -0.267299  255 255 255 255
-89.4297 -8.9025 340.027 0.805167 -0.539546 0.246164  255 255 255 255
-117.024 -16.4588 386.752 0.067504 -0.997506 0.020638  255 255 255 255
-117.031 16.4597 386.736 0.066834 0.997555 0.020433  255 255 255 255
-120.775 1.81502 451.131 0.950501 0.110001 0.290597  255 255 255 255
-65.9053 -1.04729 271.888 0.954376 -0.063472 0.291782  255 255 255 255
-108.679 -0.987012 299.138 -0.954592 -0.059819 -0.291848  255 255 255 255
-108.679 0.987012 299.138 -0.954592 0.059819 -0.291848  255 255 255 255
-151.271 -4.80884 440.8 -0.914789 -0.291445 -0.279679  255 255 255 255
-151.269 4.80328 440.789 -0.914887 0.291108 -0.279709  255 255 255 255
-111.954 -3.5091 311.04 -0.934428 -0.212673 -0.285683  255 255 255 255
-111.954 3.5091 311.04 -0.934428 0.212673 -0.285683  255 255 255 255
-143.766 -7.63701 420.211 -0.847704 -0.462849 -0.259169  255 255 255 255
-143.766 7.63723 420.211 -0.847697 0.462862 -0.259167  255 255 255 255
-36.9676 12.4264 83.7875 -0.629143 0.753115 -0.192348  255 255 255 255
-36.9674 -12.4265 83.7875 -0.629135 -0.753122 -0.192346  255 255 255 255
-92.2387 1.08556 358.012 0.954233 0.065791 0.291738  255 255 255 255
-77.6246 -1.47915 197.691 -0.952454 -0.089645 -0.291195  255 255 255 255
-77.6246 1.47915 197.691 -0.952454 0.089645 -0.291195  255 255 255 255
-66.9308 10.0368 174.127 -0.759032 0.608291 -0.23206  255 255 255 255
-66.9308 -10.0368 174.127 -0.759032 -0.608291 -0.232059  255 255 255 255
-51.0662 7.57981 116.902 -0.849427 0.459382 -0.259696  255 255 255 255
-51.0669 -7.57979 116.904 -0.849427 -0.459381 -0.259696  255 255 255 255
-79.3593 10.9492 217.354 -0.715409 0.663589 -0.218723  255 255 255 255
-79.3593 -10.9492 217.354 -0.715409 -0.663589 -0.218722  255 255 255 255
-68.7712 -0.349582 168.518 -0.95609 -0.021187 -0.292306  255 255 255 255
-68.7712 0.349582 168.518 -0.95609 0.021187 -0.292306  255 255 255 255
-143.322 -2.65415 413.084 -0.943851 -0.160857 -0.288564  255 255 255 255
-143.322 2.65416 413.084 -0.943851 0.160858 -0.288564  255 255 255 255
-44.3133 2.47385 89.1453 -0.945495 0.149931 -0.289067  255 255 255 255
-44.3133 -2.47386 89.1453 -0.945495 -0.149931 -0.289067  255 255 255 255
-81.5264 2.04854 322.659 0.948906 0.124154 0.29011  255 255 255 255
-118.946 -6.82175 337.668 -0.870746 -0.413439 -0.266214  255 255 255 255
-118.946 6.82175 337.668 -0.870746 0.413439 -0.266214  255 255 255 255
-44.3133 2.08132 88.958 -0.948666 0.126141 -0.290036  255 255 255 255
-44.3133 -2.08133 88.958 -0.948666 -0.126141 -0.290036  255 255 255 255
-51.0008 2.62959 111.102 -0.944082 0.159369 -0.288635  255 255 255 255
-51.0054 -2.64378 111.125 -0.943949 -0.160229 -0.288594  255 255 255 255
4.38348 -2.3824 41.5059 0.946284 -0.144388 0.289308  255 255 255 255
-98.5275 -2.56993 266.523 -0.944634 -0.155753 -0.288804  255 255 255 255
-98.5275 2.56993 266.523 -0.944634 0.155753 -0.288804  255 255 255 255
-66.7382 9.19849 171.439 -0.793912 0.557485 -0.242723  255 255 255 255
-66.7382 -9.1985 171.439 -0.793912 -0.557485 -0.242723  255 255 255 255
-59.096 6.672 141.679 -0.874635 0.404364 -0.267403  255 255 255 255
-59.096 -6.67202 141.679 -0.874634 -0.404365 -0.267402  255 255 255 255
-24.8303 -2.15789 137.167 0.948091 -0.130781 0.289861  255 255 255 255
-80.4931 -0.807133 206.914 -0.95516 -0.048917 -0.292022  255 255 255 255
-80.4931 0.807133 206.914 -0.95516 0.048917 -0.292022  255 255 255 255
-112.833 -5.97123 316.451 -0.891486 -0.361893 -0.272555  255 255 255 255
-112.833 5.97123 316.451 -0.891486 0.361893 -0.272555  255 255 255 255
-67.4509 -1.06003 164.304 -0.954329 -0.064244 -0.291768  255 255 255 255
-67.4509 1.06003 164.304 -0.954329 0.064244 -0.291768  255 255 255 255
-85.2254 8.7081 230.824 -0.812277 0.527764 -0.248338  255 255 255 255
-85.2254 -8.7081 230.824 -0.812277 -0.527764 -0.248338  255 255 255 255
-104.35 -2.08439 285.331 -0.948643 -0.126327 -0.290029  255 255 255 255
-104.35 2.08439 285.331 -0.948643 0.126327 -0.290029  255 255 255 255
-132.48 -9.18757 386.446 -0.794337 -0.556823 -0.242853  255 255 255 255
-132.48 9.188 386.446 -0.79432 0.556849 -0.242848  255 255 255 255
-55.2423 2.11436 124.72 -0.948421 0.128143 -0.289961  255 255 255 255
-55.2426 -2.11405 124.721 -0.948423 -0.128124 -0.289962  255 255 255 255
-33.5672 2.18752 53.8567 -0.947863 0.132577 -0.289791  255 255 255 255
-33.5672 -2.18752 53.8567 -0.947863 -0.132577 -0.289791  255 255 255 255
-103.726 -5.90545 391.968 0.892957 -0.357906 0.273004  255 255 255 255
-69.8763 4.75711 174.516 -0.915697 0.28831 -0.279957  255 255 255 255
-69.8763 -4.75711 174.516 -0.915697 -0.28831 -0.279957  255 255 255 255
-106.273 -2.2602 291.702 -0.94729 -0.136982 -0.289616  255 255 255 255
-106.273 2.2602 291.702 -0.94729 0.136982 -0.289616  255 255 255 255
-31.3943 -0.680514 159.073 0.955491 -0.041243 0.292123  255 255 255 255
-110.077 7.65707 310.056 -0.847096 0.464065 -0.258983  255 255 255 255
-110.077 -7.65707 310.056 -0.847096 -0.464065 -0.258983  255 255 255 255
-102.288 -4.54562 280.319 -0.919299 -0.275492 -0.281058  255 255 255 255
-102.288 4.54562 280.319 -0.919299 0.275492 -0.281058  255 255 255 255
-132.414 -7.48169 382.807 -0.852344 -0.453436 -0.260588  255 255 255 255
-132.414 7.48202 382.807 -0.852334 0.453456 -0.260585  255 255 255 255
-80.3033 -0.842139 206.299 -0.955058 -0.051039 -0.291991  255 255 255 255
-80.3033 0.842139 206.299 -0.955058 0.051039 -0.291991  255 255 255 255
-113.655 -2.01858 427.758 0.949121 -0.122338 0.290176  255 255 255 255
-107.729 -1.11208 296.057 -0.95413 -0.067399 -0.291707  255 255 255 255
-107.729 1.11208 296.057 -0.95413 0.067399 -0.291707  255 255 255 255
-89.0313 1.80234 347.306 0.950582 0.109233 0.290622  255 255 255 255
-46.6233 3.15127 97.1018 -0.938702 0.190986 -0.28699  255 255 255 255
-46.6233 -3.15132 97.1019 -0.938701 -0.190989 -0.28699  255 255 255 255
-58.7826 -3.57221 247.366 0.933624 -0.216498 0.285438  255 255 255 255
-71.8127 -4.90657 288.771 0.913044 -0.297368 0.279146  255 255 255 255
-99.0887 11.3444 283.125 -0.694419 0.687538 -0.212305  255 255 255 255
-99.0888 -11.3444 283.124 -0.69442 -0.687537 -0.212305  255 255 255 255
-96.3729 -1.53426 259.031 -0.952162 -0.092986 -0.291105  255 255 255 255
-96.3729 1.53427 259.031 -0.952162 0.092986 -0.291105  255 255 255 255
-95.6836 10.9343 270.703 -0.716174 0.662686 -0.218956  255 255 255 255
-95.6836 -10.9343 270.703 -0.716174 -0.662686 -0.218956  255 255 255 255
-30.0776 2.44802 42.569 -0.945721 0.148365 -0.289136  255 255 255 255
-30.0776 -2.44802 42.569 -0.945721 -0.148365 -0.289136  255 255 255 255
-79.5025 -0.560752 316.443 0.955752 -0.033985 0.292203  255 255 255 255
-67.0937 -2.40792 163.623 -0.946067 -0.145935 -0.289242  255 255 255 255
-67.0937 2.40792 163.623 -0.946067 0.145935 -0.289242  255 255 255 255
-101.773 -11.1923 291.419 -0.702661 -0.678319 -0.214825  255 255 255 255
-101.773 11.1924 291.419 -0.702652 0.67833 -0.214822  255 255 255 255
-141.233 -6.90822 410.703 -0.868453 -0.41868 -0.265513  255 255 255 255
-141.233 6.90823 410.703 -0.868452 0.418681 -0.265513  255 255 255 255
-36.02 1.82848 173.903 0.950415 0.110817 0.290571  255 255 255 255
-37.0413 0.018932 177.591 0.956304 0.001147 0.292372  255 255 255 255
-33.0029 4.04288 53.233 -0.927154 0.245023 -0.283459  255 255 255 255
-33.0029 -4.04288 53.233 -0.927154 -0.245023 -0.283459  255 255 255 255
-0.408588 -0.839371 57.6984 0.955067 -0.050871 0.291993  255 255 255 255
-39.608 6.48134 77.6531 -0.879437 0.392809 -0.268871  255 255 255 255
-39.608 -6.48135 77.6531 -0.879437 -0.392809 -0.268871  255 255 255 255
-33.6781 3.90619 55.3254 -0.92912 0.236739 -0.284061  255 255 255 255
-33.6781 -3.90619 55.3254 -0.92912 -0.236739 -0.284061  255 255 255 255
1.49245 3.57484 50.213 0.93359 0.216657 0.285427  255 255 255 255
-117.437 -2.39521 328.283 -0.946175 -0.145164 -0.289275  255 255 255 255
-117.437 2.39521 328.283 -0.946175 0.145164 -0.289275  255 255 255 255
-47.3567 -1.29183 211.159 0.953369 -0.078293 0.291474  255 255 255 255
-68.2679 11.5829 183.102 -0.681066 0.701991 -0.208223  255 255 255 255
-68.2679 -11.5829 183.102 -0.681065 -0.701993 -0.208223  255 255 255 255
-154.364 -6.67142 453.287 -0.874649 -0.404329 -0.267407  255 255 255 255
-154.364 6.67128 453.286 -0.874653 0.40432 -0.267408  255 255 255 255
-9.30421 -0.752445 86.809 0.95531 -0.045603 0.292068  255 255 255 255
-43.0689 -4.50963 195.158 0.919894 -0.273311 0.28124  255 255 255 255
-38.9406 1.74661 71.2509 -0.950932 0.105855 -0.290729  255 255 255 255
-38.9406 -1.74661 71.2509 -0.950932 -0.105855 -0.290729  255 255 255 255
-134.151 -5.2647 385.302 -0.906319 -0.319073 -0.27709  255 255 255 255
-134.151 5.26477 385.302 -0.906318 0.319077 -0.277089  255 255 255 255
-122.46 -3.75533 345.595 -0.931207 -0.227596 -0.284699  255 255 255 255
-122.46 3.75533 345.595 -0.931207 0.227596 -0.284699  255 255 255 255
-54.7235 13.3655 145.9 -0.560763 0.810032 -0.171442  255 255 255 255
-54.7235 -13.3656 145.9 -0.56076 -0.810035 -0.171441  255 255 255 255
-70.1718 -5.12577 283.164 0.90899 -0.310653 0.277906  255 255 255 255
-133.614 -5.97534 384.427 -0.891394 -0.362142 -0.272526  255 255 255 255
-133.614 5.97547 384.428 -0.891391 0.36215 -0.272526  255 255 255 255
-143.097 -8.00353 418.697 -0.836269 -0.485062 -0.255673  255 255 255 255
-143.096 8.00366 418.696 -0.836265 0.48507 -0.255672  255 255 255 255
-51.8051 4.99361 115.658 -0.911458 0.302643 -0.278661  255 255 255 255
-51.808 -4.99189 115.666 -0.911489 -0.302539 -0.27867  255 255 255 255
-66.0841 1.12778 272.454 0.954068 0.06835 0.291688  255 255 255 255
-26.575 6.09289 34.4764 -0.888717 0.369266 -0.271708  255 255 255 255
-26.575 -6.09289 34.4764 -0.888717 -0.369266 -0.271708  255 255 255 255
-40.2036 6.20915 79.2133 -0.88601 0.376312 -0.27088  255 255 255 255
-40.2036 -6.20915 79.2133 -0.88601 -0.376312 -0.27088  255 255 255 255
-95.1801 -0.442015 254.905 -0.955962 -0.026789 -0.292267  255 255 255 255
-95.1801 0.442015 254.905 -0.955962 0.026789 -0.292267  255 255 255 255
-124.97 -1.9961 352.738 -0.949281 -0.120976 -0.290224  255 255 255 255
-124.97 1.9961 352.738 -0.949281 0.120976 -0.290224  255 255 255 255
-85.5686 -7.19842 330.664 0.860499 -0.436268 0.263081  255 255 255 255
-86.3932 -8.74783 330.43 0.810842 -0.530171 0.247899  255 255 255 255
-109.498 -12.9928 323.367 -0.589456 -0.787441 -0.180215  255 255 255 255
-109.499 12.9922 323.367 -0.589497 0.787408 -0.180227  255 255 255 255
-108.451 -13.7594 323.579 -0.527792 -0.833905 -0.161362  255 255 255 255
-108.452 13.7587 323.578 -0.52786 0.833858 -0.161383  255 255 255 255
-106.842 -14.727 324.014 -0.431251 -0.892546 -0.131847  255 255 255 255
-106.844 14.7258 324.012 -0.431387 0.892474 -0.131888  255 255 255 255
-105.35 -15.3758 324.108 -0.34695 -0.931866 -0.106073  255 255 255 255
-105.353 15.3742 324.105 -0.347184 0.93177 -0.106145  255 255 255 255
-103.936 -15.8547 324.331 -0.26482 -0.960893 -0.080964  255 255 255 255
-103.941 15.8528 324.326 -0.265209 0.960776 -0.081083  255 255 255 255
-102.604 -16.1813 324.563 -0.187057 -0.980683 -0.057189  255 255 255 255
-102.613 16.1792 324.556 -0.187665 0.980556 -0.057375  255 255 255 255
-101.354 -16.3864 324.903 -0.112007 -0.993117 -0.034244  255 255 255 255
-101.367 16.3845 324.89 -0.112962 0.992999 -0.034536  255 255 255 255
-100.061 -16.4903 325.349 -0.032799 -0.999412 -0.010028  255 255 255 255
-100.081 16.4894 325.326 -0.034299 0.999357 -0.010486  255 255 255 255
-98.733 -16.4784 325.827 0.048897 -0.998692 0.014949  255 255 255 255
-98.7618 16.4804 325.787 0.046624 0.998811 0.014254  255 255 255 255
-97.3615 -16.339 326.32 0.133281 -0.99024 0.040748  255 255 255 255
-97.4017 16.347 326.255 0.129947 0.990725 0.039729  255 255 255 255
-95.9995 -16.0694 326.809 0.217042 -0.973904 0.066356  255 255 255 255
-96.0535 16.088 326.709 0.21236 0.975032 0.064925  255 255 255 255
-94.6408 -15.664 327.292 0.300542 -0.949332 0.091885  255 255 255 255
-94.7089 15.6983 327.156 0.294458 0.951415 0.090025  255 255 255 255
-93.3503 -15.1438 327.742 0.379685 -0.917804 0.116081  255 255 255 255
-93.4172 15.1903 327.589 0.373392 0.920623 0.114157  255 255 255 255
-92.1374 -14.5234 328.151 0.453853 -0.880207 0.138757  255 255 255 255
-92.1718 14.5602 328.029 0.44988 0.882434 0.137542  255 255 255 255
-90.9764 -13.8036 328.488 0.523902 -0.836583 0.160173  255 255 255 255
-91.0291 13.8365 328.488 0.520981 0.838576 0.15928  255 255 255 255
-89.8322 -12.9675 328.724 0.591324 -0.785908 0.180786  255 255 255 255
-89.9789 13.0187 328.98 0.587534 0.789011 0.179627  255 255 255 255
-88.6704 -11.8913 329.152 0.662972 -0.720683 0.202691  255 255 255 255
-88.9683 12.0845 329.428 0.65113 0.732394 0.19907  255 255 255 255
-87.2178 -10.0689 329.986 0.757605 -0.610234 0.231623  255 255 255 255
-87.48 -10.5911 329.409 0.733297 -0.641883 0.224191  255 255 255 255
-87.9705 11.0413 329.676 0.710639 0.66917 0.217264  255 255 255 255
-87.0292 9.81595 330.022 0.768673 0.594906 0.235007  255 255 255 255
-86.1432 8.4523 330.23 0.821303 0.512261 0.251098  255 255 255 255
-80.3136 12.2322 224.819 -0.641799 0.741345 -0.196218  255 255 255 255
-80.3135 -12.2322 224.819 -0.641798 -0.741346 -0.196217  255 255 255 255
-75.6195 0.462796 303.753 0.955929 0.028048 0.292257  255 255 255 255
-142.47 -3.31037 410.711 -0.936861 -0.200629 -0.286427  255 255 255 255
-142.47 3.31038 410.711 -0.93686 0.200629 -0.286427  255 255 255 255
-98.2556 -1.77989 265.274 -0.950725 -0.107872 -0.290666  255 255 255 255
-98.2556 1.77989 265.274 -0.950725 0.107872 -0.290666  255 255 255 255
-125.593 -7.83894 361.136 -0.84149 -0.475087 -0.257269  255 255 255 255
-125.593 7.83897 361.136 -0.841488 0.475089 -0.257269  255 255 255 255
-107.336 -3.32994 295.807 -0.936628 -0.201815 -0.286356  255 255 255 255
-107.336 3.32994 295.807 -0.936628 0.201815 -0.286356  255 255 255 255
-25.653 1.93505 27.8615 -0.949706 0.117276 -0.290354  255 255 255 255
-25.653 -1.93505 27.8615 -0.949706 -0.117276 -0.290354  255 255 255 255
-70.4365 -6.07908 282.852 0.889034 -0.368429 0.271805  255 255 255 255
-138.859 -2.45264 398.379 -0.945681 -0.148645 -0.289124  255 255 255 255
-138.859 2.45264 398.379 -0.945681 0.148645 -0.289124  255 255 255 255
-82.3479 8.12397 220.227 -0.832359 0.492362 -0.254478  255 255 255 255
-82.3479 -8.12397 220.227 -0.832359 -0.492362 -0.254478  255 255 255 255
-128.47 -12.6067 383.796 -0.616978 -0.76404 -0.188629  255 255 255 255
-128.469 12.6075 383.797 -0.616923 0.764089 -0.188612  255 255 255 255
-119.053 -1.77063 333.296 -0.950783 -0.107311 -0.290683  255 255 255 255
-119.053 1.77063 333.296 -0.950783 0.107311 -0.290683  255 255 255 255
-79.2936 6.39503 207.334 -0.881557 0.387578 -0.269519  255 255 255 255
-79.2936 -6.39503 207.334 -0.881557 -0.387578 -0.269519  255 255 255 255
-41.5915 7.14212 85.1656 -0.862074 0.432855 -0.263562  255 255 255 255
-41.5915 -7.14212 85.1656 -0.862074 -0.432856 -0.263562  255 255 255 255
-29.3107 2.7496 151.517 0.942933 0.166643 0.288284  255 255 255 255
-34.9732 0.08959 170.826 0.956291 0.00543 0.292367  255 255 255 255
-30.2837 4.36681 153.476 0.922206 0.264655 0.281947  255 255 255 255
-60.0849 -0.185967 252.96 0.956244 -0.011271 0.292353  255 255 255 255
-60.8692 1.60948 142.928 -0.951744 0.097544 -0.290977  255 255 255 255
-60.8692 -1.60948 142.928 -0.951744 -0.097544 -0.290977  255 255 255 255
-78.8883 -1.658 314.181 0.951465 -0.100485 0.290892  255 255 255 255
-88.9025 4.85794 344.721 0.913917 0.294421 0.279413  255 255 255 255
-116.932 4.15601 437.082 0.925472 0.251879 0.282945  255 255 255 255
-38.3353 4.37233 179.807 0.922118 0.26499 0.28192  255 255 255 255
5.28166 2.19409 38.6583 0.947812 0.132975 0.289775  255 255 255 255
-110.607 -6.75955 310.297 -0.872374 -0.40967 -0.266711  255 255 255 255
-110.607 6.75955 310.297 -0.872374 0.40967 -0.266711  255 255 255 255
-115.47 -2.19788 321.753 -0.947783 -0.133205 -0.289766  255 255 255 255
-115.47 2.19788 321.753 -0.947783 0.133205 -0.289766  255 255 255 255
-135.176 -14.525 415.368 -0.453681 -0.880304 -0.138704  255 255 255 255
-135.176 14.5252 415.368 -0.453656 0.880318 -0.138696  255 255 255 255
-134.151 -14.9864 415.176 -0.40011 -0.908267 -0.122326  255 255 255 255
-134.15 14.9867 415.176 -0.400066 0.908288 -0.122313  255 255 255 255
-133.041 -15.4365 415.223 -0.337775 -0.935544 -0.103268  255 255 255 255
-133.039 15.437 415.223 -0.337702 0.935573 -0.103246  255 255 255 255
-143.377 -2.22681 413.046 -0.947556 -0.134958 -0.289697  255 255 255 255
-143.377 2.22682 413.046 -0.947556 0.134959 -0.289697  255 255 255 255
-35.097 7.23008 64.0685 -0.859607 0.438187 -0.262808  255 255 255 255
-35.097 -7.23009 64.0685 -0.859607 -0.438187 -0.262808  255 255 255 255
-52.6045 4.05247 226.768 0.927013 0.245604 0.283416  255 255 255 255
-50.4484 3.65674 220.041 0.932524 0.221621 0.285101  255 255 255 255
-58.9717 2.6799 248.573 0.943607 0.162418 0.28849  255 255 255 255
-24.8644 7.46166 30.993 -0.852934 0.452222 -0.260768  255 255 255 255
-24.8644 -7.46166 30.993 -0.852934 -0.452222 -0.260768  255 255 255 255
-25.9664 6.7397 33.4199 -0.872889 0.408467 -0.266869  255 255 255 255
-25.9664 -6.7397 33.4199 -0.872889 -0.408467 -0.266869  255 255 255 255
-112.632 -7.73616 318.554 -0.844679 -0.468858 -0.258244  255 255 255 255
-112.632 7.73615 318.554 -0.844679 0.468857 -0.258244  255 255 255 255
-50.2214 -0.85249 220.626 0.955028 -0.051666 0.291981  255 255 255 255
-109.917 -2.60248 415.25 0.944335 -0.157726 0.288712  255 255 255 255
-21.9758 8.2365 22.979 -0.828636 0.499182 -0.253339  255 255 255 255
-21.9758 -8.2365 22.979 -0.828635 -0.499182 -0.253339  255 255 255 255
-57.5214 1.70372 244.277 0.951193 0.103256 0.290809  255 255 255 255
-2.24184 -0.010685 63.7677 0.956305 -0.000648 0.292372  255 255 255 255
-38.0099 3.47091 69.1527 -0.934907 0.210358 -0.28583  255 255 255 255
-38.0099 -3.47091 69.1527 -0.934907 -0.210358 -0.28583  255 255 255 255
-112.414 -9.68641 322.003 -0.774174 -0.587055 -0.236689  255 255 255 255
-112.414 9.68633 322.003 -0.774177 0.58705 -0.23669  255 255 255 255
-74.1327 -1.09399 186.166 -0.9542 -0.066303 -0.291728  255 255 255 255
-74.1327 1.09399 186.166 -0.9542 0.066303 -0.291728  255 255 255 255
-100.272 -1.05915 271.656 -0.954333 -0.064191 -0.291769  255 255 255 255
-100.272 1.05915 271.656 -0.954333 0.064191 -0.291769  255 255 255 255
-129.08 -2.75727 366.561 -0.942858 -0.167107 -0.288261  255 255 255 255
-129.08 2.75727 366.561 -0.942858 0.167107 -0.288261  255 255 255 255
-31.365 6.73206 51.0661 -0.873088 0.408003 -0.26693  255 255 255 255
-31.365 -6.73206 51.0661 -0.873088 -0.408003 -0.26693  255 255 255 255
-42.0286 6.43038 85.4966 -0.880693 0.38972 -0.269255  255 255 255 255
-42.0286 -6.43038 85.4966 -0.880693 -0.38972 -0.269255  255 255 255 255
-38.6046 12.0729 87.8015 -0.651855 0.731689 -0.199292  255 255 255 255
-38.6045 -12.0729 87.8015 -0.651852 -0.731691 -0.199291  255 255 255 255
-32.5041 2.013 50.3026 -0.949161 0.122 -0.290188  255 255 255 255
-32.5041 -2.013 50.3026 -0.949161 -0.122 -0.290188  255 255 255 255
-67.5055 5.69135 167.829 -0.897615 0.34493 -0.274428  255 255 255 255
-67.5055 -5.69135 167.829 -0.897615 -0.34493 -0.274428  255 255 255 255
5.83432 -5.87393 33.6546 0.893655 -0.355996 0.273218  255 255 255 255
-9.66691 -2.61429 87.3412 0.944225 -0.158442 0.288679  255 255 255 255
-70.2934 9.256 183.2 -0.791664 0.56097 -0.242036  255 255 255 255
-70.2934 -9.25601 183.2 -0.791664 -0.56097 -0.242036  255 255 255 255
-70.1684 -0.548027 173.106 -0.955777 -0.033214 -0.29221  255 255 255 255
-70.1684 0.548027 173.106 -0.955777 0.033214 -0.29221  255 255 255 255
-22.9606 6.62891 23.4204 -0.875735 0.401752 -0.267739  255 255 255 255
-22.9606 -6.62891 23.4204 -0.875735 -0.401752 -0.267739  255 255 255 255
-133.595 -2.23491 381.054 -0.947492 -0.135449 -0.289677  255 255 255 255
-133.595 2.23492 381.054 -0.947492 0.13545 -0.289677  255 255 255 255
-98.5945 -2.74242 378.138 0.943003 -0.166207 0.288305  255 255 255 255
-63.3207 13.0835 172.727 -0.582676 0.79294 -0.178142  255 255 255 255
-63.3207 -13.0835 172.727 -0.582674 -0.792942 -0.178141  255 255 255 255
-61.9469 13.9948 172.724 -0.506581 0.848168 -0.154877  255 255 255 255
-61.9468 -13.9948 172.724 -0.506576 -0.848171 -0.154876  255 255 255 255
-60.7014 14.6897 172.845 -0.435501 0.890287 -0.133146  255 255 255 255
-60.7012 -14.6898 172.845 -0.435491 -0.890292 -0.133143  255 255 255 255
-59.4889 15.2685 173.186 -0.362516 0.925364 -0.110832  255 255 255 255
-59.4886 -15.2686 173.186 -0.362498 -0.925372 -0.110827  255 255 255 255
-58.2055 15.7498 173.558 -0.285087 0.954531 -0.08716  255 255 255 255
-58.2049 -15.7499 173.558 -0.285052 -0.954542 -0.087149  255 255 255 255
-56.8917 16.1129 173.932 -0.205924 0.976541 -0.062957  255 255 255 255
-56.8907 -16.1132 173.932 -0.205861 -0.976555 -0.062938  255 255 255 255
-55.5713 16.3566 174.341 -0.125819 0.991307 -0.038467  255 255 255 255
-55.5695 -16.3568 174.341 -0.125711 -0.991322 -0.038434  255 255 255 255
-54.2376 16.4821 174.775 -0.044546 0.998915 -0.013619  255 255 255 255
-54.2347 -16.4822 174.775 -0.044369 -0.998923 -0.013565  255 255 255 255
-52.8877 16.487 175.225 0.037906 0.999214 0.011589  255 255 255 255
-52.8833 -16.4868 175.226 0.038175 -0.999203 0.011671  255 255 255 255
-51.5239 16.367 175.677 0.121167 0.991941 0.037044  255 255 255 255
-51.5177 -16.3662 175.68 0.121546 -0.99189 0.03716  255 255 255 255
-50.1593 16.1192 176.117 0.204255 0.976924 0.062447  255 255 255 255
-50.1516 -16.1174 176.121 0.204743 -0.976812 0.062596  255 255 255 255
-48.8133 15.7447 176.54 0.286015 0.954227 0.087444  255 255 255 255
-48.8047 -15.7417 176.545 0.286581 -0.954041 0.087617  255 255 255 255
-47.5021 15.247 176.945 0.365549 0.924058 0.111759  255 255 255 255
-47.4943 -15.2428 176.953 0.366128 -0.923808 0.111936  255 255 255 255
-46.2377 14.63 177.333 0.442203 0.886667 0.135195  255 255 255 255
-46.233 -14.6256 177.346 0.442695 -0.886399 0.135345  255 255 255 255
-45.0294 13.8979 177.704 0.515459 0.842299 0.157592  255 255 255 255
-45.0313 -13.8949 177.726 0.515729 -0.842118 0.157674  255 255 255 255
-43.8847 13.0538 178.058 0.584907 0.791142 0.178824  255 255 255 255
-43.8978 -13.0556 178.093 0.584778 -0.791247 0.178784  255 255 255 255
-42.8077 12.0977 178.395 0.650303 0.733196 0.198818  255 255 255 255
-42.8382 -12.1106 178.447 0.649499 -0.733976 0.198572  255 255 255 255
-41.7976 11.025 178.701 0.71149 0.66818 0.217524  255 255 255 255
-41.855 -11.0632 178.771 0.709496 -0.670495 0.216915  255 255 255 255
-40.8576 9.83136 178.962 0.768011 0.59584 0.234805  255 255 255 255
-40.9581 -9.92009 179.064 0.764169 -0.601218 0.23363  255 255 255 255
-40.0208 8.51705 179.237 0.819053 0.516185 0.25041  255 255 255 255
-40.1758 -8.65408 179.459 0.814214 -0.52449 0.24893  255 255 255 255
-39.3032 7.19268 179.346 0.86066 0.43592 0.26313  255 255 255 255
-39.4643 -7.19059 179.876 0.860719 -0.435793 0.263148  255 255 255 255
-38.8651 5.86603 179.87 0.893829 0.355517 0.273271  255 255 255 255
-38.7679 -5.36146 180.177 0.904411 -0.324937 0.276506  255 255 255 255
-62.5406 -2.13335 148.6 -0.948278 -0.129294 -0.289918  255 255 255 255
-62.5406 2.13335 148.6 -0.948278 0.129294 -0.289918  255 255 255 255
-53.7854 11.4812 135.392 -0.686823 0.695832 -0.209983  255 255 255 255
-53.7845 -11.4826 135.394 -0.686743 -0.695917 -0.209959  255 255 255 255
-93.7958 11.3822 265.935 -0.692337 0.68983 -0.211669  255 255 255 255
-93.7958 -11.3822 265.935 -0.692339 -0.689829 -0.211669  255 255 255 255
-76.1098 4.28881 303.439 0.923435 0.259928 0.282322  255 255 255 255
-144.058 -4.68704 417.084 -0.91691 -0.284063 -0.280328  255 255 255 255
-144.058 4.68716 417.084 -0.916908 0.28407 -0.280327  255 255 255 255
-43.925 2.96584 88.1562 -0.940729 0.179748 -0.28761  255 255 255 255
-43.925 -2.96584 88.1562 -0.940729 -0.179748 -0.28761  255 255 255 255
-111.685 -0.894049 308.952 -0.9549 -0.054185 -0.291942  255 255 255 255
-111.685 0.894049 308.952 -0.9549 0.054185 -0.291942  255 255 255 255
-21.1514 -4.55512 123.425 0.919141 -0.276068 0.28101  255 255 255 255
-92.2884 -1.80258 357.959 0.950581 -0.109247 0.290622  255 255 255 255
-131.923 -3.19721 376.134 -0.93818 -0.19377 -0.28683  255 255 255 255
-131.923 3.19723 376.134 -0.93818 0.193771 -0.28683  255 255 255 255
-51.6944 2.69118 224.764 0.943499 0.163102 0.288457  255 255 255 255
-105.445 -3.21613 289.543 -0.937963 -0.194917 -0.286764  255 255 255 255
-105.445 3.21613 289.543 -0.937963 0.194917 -0.286764  255 255 255 255
-126.779 -2.27605 358.781 -0.947163 -0.137942 -0.289577  255 255 255 255
-126.779 2.27605 358.781 -0.947163 0.137942 -0.289577  255 255 255 255
-85.2304 3.32978 334.05 0.936629 0.201805 0.286356  255 255 255 255
-69.4291 -2.49793 282.877 0.945283 -0.15139 0.289002  255 255 255 255
1.64788 7.45438 44.9573 0.853147 0.451781 0.260833  255 255 255 255
-100.677 -0.740459 272.921 -0.955341 -0.044876 -0.292077  255 255 255 255
-100.677 0.740459 272.921 -0.955341 0.044876 -0.292077  255 255 255 255
-105.647 -3.23973 400.891 0.93769 -0.196348 0.286681  255 255 255 255
-120.013 -11.4579 351.936 -0.68813 -0.694418 -0.210383  255 255 255 255
-120.013 11.4581 351.936 -0.688116 0.694433 -0.210378  255 255 255 255
-7.9516 -1.6125 82.1734 0.951727 -0.097727 0.290972  255 255 255 255
-36.5693 2.28562 63.7218 -0.947085 0.138522 -0.289553  255 255 255 255
-36.5693 -2.28562 63.7218 -0.947085 -0.138522 -0.289553  255 255 255 255
-37.2417 2.56912 66.0653 -0.944641 0.155704 -0.288806  255 255 255 255
-37.2417 -2.56912 66.0653 -0.944641 -0.155704 -0.288806  255 255 255 255
-127.962 -2.44678 362.733 -0.945732 -0.148289 -0.289139  255 255 255 255
-127.962 2.44678 362.733 -0.945732 0.148289 -0.289139  255 255 255 255
-34.9143 2.18424 170.138 0.947889 0.132378 0.289799  255 255 255 255
-155.642 -2.25418 453.177 -0.947338 -0.136617 -0.28963  255 255 255 255
-155.642 2.25411 453.177 -0.947339 0.136612 -0.289631  255 255 255 255
-70.7112 3.58495 286.373 0.93346 0.21727 0.285387  255 255 255 255
-69.2357 -0.352155 170.037 -0.956087 -0.021343 -0.292305  255 255 255 255
-69.2357 0.352155 170.037 -0.956087 0.021343 -0.292305  255 255 255 255
-102.194 -0.652035 277.869 -0.955558 -0.039517 -0.292143  255 255 255 255
-102.194 0.652035 277.869 -0.955558 0.039517 -0.292143  255 255 255 255
-53.9601 5.36239 123.124 -0.904393 0.324993 -0.276501  255 255 255 255
-53.9608 -5.36201 123.126 -0.904401 -0.32497 -0.276503  255 255 255 255
-85.8598 2.34426 336.697 0.946604 0.142076 0.289406  255 255 255 255
-68.1621 8.18735 173.951 -0.83027 0.496203 -0.253839  255 255 255 255
-68.1621 -8.18735 173.951 -0.83027 -0.496203 -0.253839  255 255 255 255
-41.3749 2.30708 79.4507 -0.946911 0.139823 -0.2895  255 255 255 255
-41.3749 -2.30708 79.4507 -0.946911 -0.139823 -0.2895  255 255 255 255
-70.0803 -3.75017 284.18 0.931277 -0.227283 0.28472  255 255 255 255
-122.526 -9.1529 353.808 -0.79568 -0.554721 -0.243264  255 255 255 255
-122.526 9.15298 353.808 -0.795677 0.554726 -0.243263  255 255 255 255
-14.6773 -6.26036 100.222 0.884798 -0.379416 0.27051  255 255 255 255
-70.167 -0.922811 173.159 -0.954808 -0.055928 -0.291914  255 255 255 255
-70.167 0.922811 173.159 -0.954808 0.055928 -0.291914  255 255 255 255
-26.7527 5.24178 33.9926 -0.906765 0.317684 -0.277226  255 255 255 255
-26.7527 -5.24178 33.9926 -0.906765 -0.317684 -0.277226  255 255 255 255
-45.5491 -2.35369 204.842 0.946525 -0.142648 0.289382  255 255 255 255
-51.8131 12.5985 133.03 -0.61754 0.763543 -0.188801  255 255 255 255
-51.8103 -12.6025 133.037 -0.617267 -0.763785 -0.188717  255 255 255 255
-81.1898 -1.9297 209.512 -0.949742 -0.116951 -0.290365  255 255 255 255
-81.1898 1.9297 209.512 -0.949742 0.116951 -0.290365  255 255 255 255
-129.402 -2.53751 367.49 -0.944928 -0.153789 -0.288894  255 255 255 255
-129.402 2.53751 367.49 -0.944928 0.153789 -0.288894  255 255 255 255
-58.8259 5.22879 245.937 0.907017 0.316896 0.277303  255 255 255 255
-7.63443 0.990461 81.3043 0.95458 0.060028 0.291844  255 255 255 255
-61.0109 1.69035 143.42 -0.951273 0.102445 -0.290833  255 255 255 255
-61.0109 -1.69035 143.42 -0.951273 -0.102445 -0.290833  255 255 255 255
-43.7197 3.2842 198.307 0.93717 0.199042 0.286522  255 255 255 255
-138.919 -9.74381 408.84 -0.77175 -0.590534 -0.235948  255 255 255 255
-138.919 9.74383 408.84 -0.771749 0.590535 -0.235947  255 255 255 255
-53.6242 2.42007 231.222 0.945963 0.146671 0.28921  255 255 255 255
-121.332 -2.44139 341.046 -0.945779 -0.147963 -0.289154  255 255 255 255
-121.332 2.44139 341.046 -0.945779 0.147963 -0.289154  255 255 255 255
-61.6986 7.78534 152.049 -0.843159 0.471839 -0.25778  255 255 255 255
-61.6986 -7.78534 152.049 -0.843159 -0.471839 -0.25778  255 255 255 255
-55.5216 2.42989 237.423 0.945878 0.147266 0.289184  255 255 255 255
-74.5889 -0.655518 300.36 0.95555 -0.039728 0.292141  255 255 255 255
-129.924 -7.74418 375.131 -0.844432 -0.469344 -0.258169  255 255 255 255
-129.924 7.74444 375.131 -0.844424 0.46936 -0.258166  255 255 255 255
-66.8513 -1.34618 162.414 -0.953117 -0.081587 -0.291397  255 255 255 255
-66.8513 1.34618 162.414 -0.953117 0.081587 -0.291397  255 255 255 255
-73.3838 7.66109 190.045 -0.846974 0.464309 -0.258946  255 255 255 255
-73.3838 -7.66109 190.045 -0.846974 -0.464309 -0.258946  255 255 255 255
-74.4011 5.07832 297.051 0.909884 0.307777 0.27818  255 255 255 255
-29.8654 4.28127 43.1833 -0.923552 0.259471 -0.282358  255 255 255 255
-29.8654 -4.28127 43.1833 -0.923552 -0.259471 -0.282358  255 255 255 255
-126.903 -12.0118 376.391 -0.655631 -0.72799 -0.200446  255 255 255 255
-126.902 12.0126 376.39 -0.655582 0.728038 -0.200432  255 255 255 255
-112.638 -0.52775 312.016 -0.955815 -0.031985 -0.292222  255 255 255 255
-112.638 0.52775 312.016 -0.955815 0.031985 -0.292222  255 255 255 255
-152.003 -2.57129 441.435 -0.944622 -0.155836 -0.2888  255 255 255 255
-152.002 2.56617 441.429 -0.944668 0.155526 -0.288814  255 255 255 255
-100.025 3.82291 382.068 0.930283 0.231692 0.284416  255 255 255 255
-62.6517 6.01207 152.369 -0.890564 0.364368 -0.272273  255 255 255 255
-62.6517 -6.01207 152.369 -0.890564 -0.364368 -0.272273  255 255 255 255
-73.4002 4.08268 185.401 -0.926568 0.247435 -0.28328  255 255 255 255
-73.4002 -4.08268 185.401 -0.926568 -0.247435 -0.28328  255 255 255 255
-28.2754 -1.36832 148.725 0.953011 -0.082928 0.291365  255 255 255 255
-97.5176 -0.678205 262.578 -0.955497 -0.041103 -0.292125  255 255 255 255
-97.5176 0.678205 262.578 -0.955497 0.041103 -0.292125  255 255 255 255
-82.5643 6.98741 218.931 -0.866322 0.42348 -0.264861  255 255 255 255
-82.5643 -6.98741 218.931 -0.866322 -0.42348 -0.264861  255 255 255 255
-72.0713 0.78361 292.106 0.955226 0.047492 0.292042  255 255 255 255
-69.4052 -1.90445 170.956 -0.949913 -0.115421 -0.290418  255 255 255 255
-69.4052 1.90445 170.956 -0.949913 0.115421 -0.290418  255 255 255 255
-28.4957 5.51196 40.0121 -0.901367 0.334058 -0.275576  255 255 255 255
-28.4957 -5.51196 40.0121 -0.901367 -0.334058 -0.275576  255 255 255 255
-126.894 -3.80462 360.138 -0.930535 -0.230583 -0.284493  255 255 255 255
-126.894 3.80462 360.138 -0.930535 0.230583 -0.284493  255 255 255 255
-44.5109 -2.37086 201.438 0.946381 -0.143688 0.289338  255 255 255 255
-46.8597 11.459 112.666 -0.688068 0.694485 -0.210364  255 255 255 255
-46.8589 -11.4599 112.666 -0.688016 -0.694541 -0.210348  255 255 255 255
-71.5846 5.69376 181.174 -0.897563 0.345076 -0.274413  255 255 255 255
-71.5846 -5.69376 181.174 -0.897563 -0.345076 -0.274413  255 255 255 255
-92.985 7.73601 254.292 -0.844683 0.468849 -0.258246  255 255 255 255
-92.985 -7.736 254.292 -0.844683 -0.468849 -0.258246  255 255 255 255
-17.7024 2.7717 113.535 0.942716 0.167982 0.288217  255 255 255 255
-139.998 -1.85622 401.836 -0.950234 -0.112498 -0.290516  255 255 255 255
-139.998 1.85622 401.836 -0.950234 0.112498 -0.290516  255 255 255 255
-36.2784 1.74759 62.5436 -0.950926 0.105914 -0.290727  255 255 255 255
-36.2784 -1.74759 62.5436 -0.950926 -0.105914 -0.290727  255 255 255 255
-93.95 -4.96108 361.12 0.912054 -0.300672 0.278843  255 255 255 255
-90.001 -4.9787 348.185 0.911732 -0.301739 0.278744  255 255 255 255
-46.3562 8.97206 104.262 -0.802569 0.543761 -0.24537  255 255 255 255
-46.3562 -8.9722 104.262 -0.802564 -0.543769 -0.245368  255 255 255 255
-46.8648 1.25753 209.559 0.953523 0.076214 0.291521  255 255 255 255
-74.1122 1.8283 298.498 0.950416 0.110806 0.290571  255 255 255 255
-76.1816 -3.35745 304.433 0.936298 -0.203482 0.286255  255 255 255 255
-54.2232 7.63725 127.33 -0.847697 0.462864 -0.259167  255 255 255 255
-54.223 -7.63799 127.331 -0.847674 -0.462909 -0.25916  255 255 255 255
-77.1429 -3.8856 307.171 0.92941 -0.235491 0.284149  255 255 255 255
-27.1754 4.03725 34.1672 -0.927236 0.244682 -0.283485  255 255 255 255
-27.1754 -4.03725 34.1672 -0.927236 -0.244682 -0.283485  255 255 255 255
-67.408 -0.551905 164.078 -0.95577 -0.033449 -0.292208  255 255 255 255
-67.408 0.551905 164.078 -0.95577 0.033449 -0.292208  255 255 255 255
-48.0144 5.08539 103.36 -0.909752 0.308205 -0.278139  255 255 255 255
-48.0147 -5.08576 103.362 -0.909745 -0.308228 -0.278137  255 255 255 255
-104.102 -0.650693 284.112 -0.955561 -0.039436 -0.292144  255 255 255 255
-104.102 0.650693 284.112 -0.955561 0.039436 -0.292144  255 255 255 255
-116.684 -5.19465 328.092 -0.907676 -0.314828 -0.277504  255 255 255 255
-116.684 5.19465 328.092 -0.907676 0.314827 -0.277504  255 255 255 255
-91.377 -4.29942 353.366 0.923269 -0.260571 0.282272  255 255 255 255
-78.9029 7.38988 207.621 -0.85503 0.447872 -0.261409  255 255 255 255
-78.9029 -7.38988 207.621 -0.85503 -0.447872 -0.261409  255 255 255 255
-90.9317 2.94823 352.951 0.940915 0.178681 0.287667  255 255 255 255
-74.6865 6.19988 296.588 0.886228 0.37575 0.270947  255 255 255 255
-138.466 -9.34492 406.39 -0.788147 -0.566359 -0.240961  255 255 255 255
-138.466 9.34493 406.39 -0.788147 0.566359 -0.240961  255 255 255 255
-71.5805 7.24057 183.418 -0.85931 0.438823 -0.262718  255 255 255 255
-71.5805 -7.24057 183.418 -0.85931 -0.438823 -0.262718  255 255 255 255
-37.7396 -4.21214 178.006 0.924619 -0.255281 0.282684  255 255 255 255
-106.125 -0.728786 290.741 -0.955371 -0.044169 -0.292086  255 255 255 255
-106.125 0.728786 290.741 -0.955371 0.044169 -0.292086  255 255 255 255
-60.9636 -1.23231 255.68 0.953634 -0.074686 0.291555  255 255 255 255
-26.8981 4.53571 33.7187 -0.919463 0.274892 -0.281108  255 255 255 255
-26.8981 -4.53571 33.7187 -0.919463 -0.274892 -0.281108  255 255 255 255
4.17356 0.557028 42.7518 0.95576 0.033759 0.292205  255 255 255 255
-23.6606 1.39184 133.624 0.952896 0.084354 0.29133  255 255 255 255
-131.864 -5.77902 378.448 -0.895731 -0.350244 -0.273852  255 255 255 255
-131.864 5.77916 378.448 -0.895728 0.350252 -0.273852  255 255 255 255
-122.734 -10.3626 357.527 -0.744181 -0.628036 -0.227519  255 255 255 255
-122.734 10.3628 357.527 -0.74417 0.62805 -0.227516  255 255 255 255
-13.2386 2.33038 99.1709 0.946719 0.141235 0.289441  255 255 255 255
-105.082 -0.472427 287.297 -0.955913 -0.028632 -0.292252  255 255 255 255
-105.082 0.472427 287.297 -0.955913 0.028632 -0.292252  255 255 255 255
-108.292 -7.0556 303.191 -0.864463 -0.427612 -0.264293  255 255 255 255
-108.292 7.0556 303.191 -0.864463 0.427612 -0.264293  255 255 255 255
-60.136 -2.74074 252.347 0.94302 -0.166105 0.28831  255 255 255 255
-60.4788 3.46033 252.997 0.935039 0.209717 0.28587  255 255 255 255
-54.3116 8.57903 225.852 0.816877 0.519941 0.249744  255 255 255 255
-54.1917 -8.56007 225.499 0.817545 -0.518792 0.249949  255 255 255 255
-54.8976 -9.56296 225.552 0.779312 -0.579574 0.23826  255 255 255 255
-55.9695 -10.6271 226.239 0.731542 -0.644069 0.223655  255 255 255 255
-57.6773 12.5818 225.165 0.618682 0.762532 0.18915  255 255 255 255
-57.3658 -12.37 224.982 0.632863 -0.749698 0.193486  255 255 255 255
-63.3252 -7.97479 256.533 0.837191 -0.48332 0.255955  255 255 255 255
-68.827 -1.72674 168.998 -0.951054 -0.104651 -0.290766  255 255 255 255
-68.827 1.72674 168.998 -0.951054 0.104651 -0.290766  255 255 255 255
-53.604 7.33239 225.887 0.856691 0.444387 0.261917  255 255 255 255
-133.939 -4.80703 384.108 -0.914821 -0.291335 -0.279689  255 255 255 255
-133.939 4.80709 384.108 -0.91482 0.291339 -0.279689  255 255 255 255
-114.79 -1.83982 319.379 -0.950341 -0.111504 -0.290548  255 255 255 255
-114.79 1.83982 319.379 -0.950341 0.111504 -0.290548  255 255 255 255
-78.8982 10.4034 214.261 -0.742266 0.63051 -0.226934  255 255 255 255
-78.8982 -10.4034 214.261 -0.742266 -0.63051 -0.226933  255 255 255 255
-76.8837 13.742 220.238 -0.529319 0.832846 -0.161829  255 255 255 255
-76.8836 -13.742 220.238 -0.529314 -0.832849 -0.161828  255 255 255 255
-20.5878 -4.1999 121.916 0.924806 -0.254539 0.282742  255 255 255 255
-36.4949 0.096111 175.804 0.956289 0.005825 0.292367  255 255 255 255
-104.095 -6.14392 288.104 -0.887536 -0.372359 -0.271347  255 255 255 255
-104.095 6.14392 288.104 -0.887536 0.372359 -0.271347  255 255 255 255
-150.626 -8.19542 443.695 -0.830003 -0.496692 -0.253757  255 255 255 255
-150.626 8.19402 443.692 -0.830049 0.496607 -0.253771  255 255 255 255
-143.703 -3.89942 415.196 -0.929216 -0.236328 -0.28409  255 255 255 255
-143.703 3.89947 415.196 -0.929215 0.236331 -0.28409  255 255 255 255
-56.3438 -1.89163 240.355 0.949999 -0.114644 0.290444  255 255 255 255
-81.8826 -0.26144 324.254 0.956185 -0.015845 0.292335  255 255 255 255
-44.4815 4.43028 91.1298 -0.921188 0.268502 -0.281636  255 255 255 255
-44.4815 -4.43029 91.1298 -0.921188 -0.268502 -0.281636  255 255 255 255
-125.153 -5.46408 356.106 -0.902346 -0.331156 -0.275875  255 255 255 255
-125.153 5.46409 356.106 -0.902346 0.331157 -0.275875  255 255 255 255
-145.316 -8.12975 426.198 -0.832169 -0.492712 -0.25442  255 255 255 255
-145.315 8.13045 426.197 -0.832146 0.492755 -0.254413  255 255 255 255
-105.77 1.81134 402.051 0.950525 0.109778 0.290605  255 255 255 255
-52.9503 -5.53088 226.363 0.900978 -0.335205 0.275457  255 255 255 255
-146.517 -6.4901 427.351 -0.87922 -0.393339 -0.268805  255 255 255 255
-146.516 6.49192 427.348 -0.879175 0.39345 -0.268791  255 255 255 255
-112.816 -0.929029 312.659 -0.954788 -0.056305 -0.291908  255 255 255 255
-112.816 0.929029 312.659 -0.954788 0.056305 -0.291908  255 255 255 255
-60.7614 1.88409 254.807 0.95005 0.114187 0.290459  255 255 255 255
-74.5517 -0.550786 187.444 -0.955772 -0.033381 -0.292209  255 255 255 255
-74.5517 0.550786 187.444 -0.955772 0.033381 -0.292209  255 255 255 255
-20.3556 3.78058 121.514 0.930864 0.229126 0.284594  255 255 255 255
-69.9778 7.05311 177.868 -0.864532 0.427461 -0.264314  255 255 255 255
-69.9778 -7.05311 177.868 -0.864532 -0.427462 -0.264314  255 255 255 255
-57.7686 9.31081 142.361 -0.789502 0.564291 -0.241375  255 255 255 255
-57.7686 -9.31087 142.361 -0.7895 -0.564295 -0.241374  255 255 255 255
-127.664 -2.29895 361.686 -0.946977 -0.13933 -0.28952  255 255 255 255
-127.664 2.29895 361.686 -0.946977 0.13933 -0.28952  255 255 255 255
-62.7213 12.8428 169.721 -0.600393 0.778354 -0.183559  255 255 255 255
-62.7213 -12.8428 169.721 -0.600392 -0.778354 -0.183558  255 255 255 255
-40.1945 9.89011 176.644 0.765474 0.5994 0.234029  255 255 255 255
-40.2794 -9.95235 176.761 0.762759 -0.603172 0.233199  255 255 255 255
-41.1382 11.0675 176.414 0.709271 0.670755 0.216846  255 255 255 255
-41.1942 -11.1033 176.486 0.707385 -0.67293 0.216269  255 255 255 255
-42.1555 12.1304 176.14 0.648254 0.735179 0.198191  255 255 255 255
-42.1881 -12.147 176.185 0.647212 -0.736182 0.197872  255 255 255 255
-39.3306 8.58988 176.829 0.816495 0.520598 0.249627  255 255 255 255
-43.2407 13.0814 175.829 0.582836 0.792812 0.178191  255 255 255 255
-43.2563 -13.0867 175.857 0.582435 -0.793134 0.178068  255 255 255 255
-39.4399 -8.67328 177.011 0.813527 -0.525653 0.24872  255 255 255 255
-44.3899 13.9209 175.488 0.513369 0.843693 0.156953  255 255 255 255
-44.3944 -13.9206 175.505 0.513397 -0.843675 0.156961  255 255 255 255
-45.5984 14.6478 175.124 0.440217 0.887747 0.134588  255 255 255 255
-45.5964 -14.6453 175.134 0.440496 -0.887596 0.134673  255 255 255 255
-73.9014 4.98772 295.515 0.911566 0.302286 0.278694  255 255 255 255
-46.8596 15.2593 174.741 0.363816 0.924806 0.11123  255 255 255 255
-46.8544 -15.2565 174.747 0.364205 -0.924639 0.111349  255 255 255 255
-48.1649 15.7519 174.341 0.284688 0.954661 0.087038  255 255 255 255
-48.159 -15.7498 174.345 0.285083 -0.954532 0.087159  255 255 255 255
-49.5038 16.1223 173.926 0.20345 0.977107 0.062201  255 255 255 255
-49.4985 -16.121 173.928 0.203789 -0.97703 0.062305  255 255 255 255
-50.8638 16.3677 173.499 0.120836 0.991985 0.036943  255 255 255 255
-50.8597 -16.3672 173.501 0.121092 -0.991951 0.037022  255 255 255 255
-52.2318 16.4872 173.064 0.037649 0.999225 0.011511  255 255 255 255
-52.2289 -16.4871 173.065 0.037824 -0.999217 0.011564  255 255 255 255
-53.5966 16.4814 172.628 -0.04538 0.998873 -0.013874  255 255 255 255
-53.5948 -16.4815 172.629 -0.045271 -0.998879 -0.013841  255 255 255 255
-54.951 16.3522 172.199 -0.127729 0.99104 -0.039051  255 255 255 255
-54.95 -16.3523 172.199 -0.127666 -0.991049 -0.039031  255 255 255 255
-56.2908 16.1009 171.782 -0.209055 0.975813 -0.063914  255 255 255 255
-56.2903 -16.101 171.782 -0.209021 -0.975821 -0.063904  255 255 255 255
-57.6111 15.7285 171.382 -0.28901 0.95324 -0.088359  255 255 255 255
-57.6108 -15.7285 171.382 -0.288993 -0.953245 -0.088354  255 255 255 255
-58.9017 15.2371 171.005 -0.366924 0.923462 -0.11218  255 255 255 255
-58.9016 -15.2372 171.005 -0.366915 -0.923466 -0.112177  255 255 255 255
-60.156 14.6313 170.674 -0.442055 0.886748 -0.13515  255 255 255 255
-60.156 -14.6314 170.674 -0.442051 -0.88675 -0.135149  255 255 255 255
-61.3869 13.8995 170.376 -0.515319 0.842392 -0.157549  255 255 255 255
-61.3868 -13.8995 170.376 -0.515317 -0.842393 -0.157548  255 255 255 255
-38.5297 7.07405 177.01 0.863957 0.428731 0.264138  255 255 255 255
-38.6339 -7.17929 177.179 0.861036 -0.435108 0.263245  255 255 255 255
-37.6567 5.56671 176.296 0.900237 0.337376 0.27523  255 255 255 255
-106.622 -5.79744 295.909 -0.895331 -0.35136 -0.27373  255 255 255 255
-106.622 5.79744 295.909 -0.895331 0.35136 -0.27373  255 255 255 255
-103.129 -12.1087 298.982 -0.64962 -0.733859 -0.198609  255 255 255 255
-103.128 12.1089 298.982 -0.649604 0.733874 -0.198604  255 255 255 255
-77.0681 4.77782 306.096 0.915335 0.289565 0.279846  255 255 255 255
-46.6904 9.49332 106.559 -0.782167 0.575353 -0.239132  255 255 255 255
-46.6903 -9.49349 106.559 -0.78216 -0.575363 -0.23913  255 255 255 255
-24.8827 3.23552 26.0482 -0.937739 0.196092 -0.286695  255 255 255 255
-24.8827 -3.23552 26.0482 -0.937739 -0.196092 -0.286695  255 255 255 255
-49.929 5.40335 216.634 0.903574 0.327476 0.27625  255 255 255 255
-48.3302 0.925904 214.427 0.954798 0.056115 0.291911  255 255 255 255
-51.0567 8.61158 215.138 0.815726 0.521914 0.249393  255 255 255 255
-50.8588 -8.03735 215.638 0.835179 -0.487112 0.25534  255 255 255 255
-149.705 -3.22595 434.316 -0.937849 -0.195512 -0.286729  255 255 255 255
-149.672 3.25609 434.231 -0.937499 0.197339 -0.286622  255 255 255 255
-50.5121 7.25186 215.91 0.858991 0.439506 0.26262  255 255 255 255
-65.9226 3.16004 271.013 0.938603 0.191518 0.28696  255 255 255 255
-58.8295 -1.36365 136.181 -0.953033 -0.082645 -0.291372  255 255 255 255
-58.8295 1.36365 136.181 -0.953033 0.082645 -0.291372  255 255 255 255
-78.4734 7.16734 307.508 0.86137 0.434384 0.263347  255 255 255 255
-139.838 -1.56244 401.209 -0.952008 -0.094693 -0.291058  255 255 255 255
-139.838 1.56244 401.209 -0.952008 0.094693 -0.291058  255 255 255 255
-79.199 8.81505 306.754 0.808393 0.534245 0.24715  255 255 255 255
-79.9138 10.169 305.829 0.7531 0.616302 0.230246  255 255 255 255
-80.9999 11.3757 305.817 0.692698 0.689434 0.211779  255 255 255 255
-80.3607 -10.3806 306.715 0.743338 -0.629128 0.227261  255 255 255 255
-81.3222 -11.4093 306.762 0.690835 -0.691475 0.211209  255 255 255 255
-82.2415 12.419 306.157 0.62963 0.752669 0.192497  255 255 255 255
-82.2805 -12.3367 306.604 0.635042 -0.747681 0.194152  255 255 255 255
-83.3951 13.3091 306.131 0.565254 0.806612 0.172815  255 255 255 255
-83.2953 -13.2018 306.299 0.573645 -0.800108 0.175381  255 255 255 255
-84.5059 14.0645 305.916 0.50005 0.852395 0.152881  255 255 255 255
-84.4028 -13.9997 305.938 0.506126 -0.848465 0.154738  255 255 255 255
-85.5807 -14.6968 305.575 0.434704 -0.890713 0.132902  255 255 255 255
