ply
format ascii 1.0
comment VCGLIB generated
element vertex 1292
property float x
property float y
property float z
property float nx
property float ny
property float nz
property uchar red
property uchar green
property uchar blue
property uchar alpha
element face 0
property list uchar int vertex_indices
end_header
0 -58 32.8 -1 0 0  255 255 255 255
0 -58 31.7 -1 0 0  255 255 255 255
0 -58 30.6 -1 0 0  255 255 255 255
0 -58 29.5 -1 0 0  255 255 255 255
0 -58 28.4 -1 0 0  255 255 255 255
0 -58 27.3 -1 0 0  255 255 255 255
0 -58 26.2 -1 0 0  255 255 255 255
0 -58 25.1 -1 0 0  255 255 255 255
0 -58 24 -1 0 0  255 255 255 255
0 -58 22.9 -1 0 0  255 255 255 255
0 -58 21.8 -1 0 0  255 255 255 255
0 -58 20.7 -1 0 0  255 255 255 255
0 -58 19.6 -1 0 0  255 255 255 255
0 -58 18.5 -1 0 0  255 255 255 255
0 -58 17.4 -1 0 0  255 255 255 255
0 -58 16.3 -1 0 0  255 255 255 255
0 -58 15.2 -1 0 0  255 255 255 255
0 -58 14.1 -1 0 0  255 255 255 255
0 -58 13 -1 0 0  255 255 255 255
0 -58 11.9 -1 0 0  255 255 255 255
0 -58 10.8 -1 0 0  255 255 255 255
0 -58 9.7 -1 0 0  255 255 255 255
0 -58 8.6 -1 0 0  255 255 255 255
0 -58 7.5 -1 0 0  255 255 255 255
0 -58 6.4 -1 0 0  255 255 255 255
0 -58 5.3 -1 0 0  255 255 255 255
0 -58 4.2 -1 0 0  255 255 255 255
0 -58 3.1 -1 0 0  255 255 255 255
0 -55 90 -1 0 0  255 255 255 255
0 -56 90 -1 0 0  255 255 255 255
0 -57 90 -1 0 0  255 255 255 255
0 -54 88.9054 -1 0 0  255 255 255 255
0 -54 87.8108 -1 0 0  255 255 255 255
0 -54 86.7162 -1 0 0  255 255 255 255
0 -54 85.6216 -1 0 0  255 255 255 255
0 -54 84.527 -1 0 0  255 255 255 255
0 -54 83.4324 -1 0 0  255 255 255 255
0 -54 82.3378 -1 0 0  255 255 255 255
0 -54 81.2432 -1 0 0  255 255 255 255
0 -54 80.1487 -1 0 0  255 255 255 255
0 -54 79.0541 -1 0 0  255 255 255 255
0 -54 77.9595 -1 0 0  255 255 255 255
0 -54 76.8649 -1 0 0  255 255 255 255
0 -54 75.7703 -1 0 0  255 255 255 255
0 -54 74.6757 -1 0 0  255 255 255 255
0 -54 73.5811 -1 0 0  255 255 255 255
0 -54 72.4865 -1 0 0  255 255 255 255
0 -54 71.3919 -1 0 0  255 255 255 255
0 -54 70.2973 -1 0 0  255 255 255 255
0 -54 69.2027 -1 0 0  255 255 255 255
0 -54 68.1081 -1 0 0  255 255 255 255
0 -54 67.0135 -1 0 0  255 255 255 255
0 -54 65.9189 -1 0 0  255 255 255 255
0 -54 64.8243 -1 0 0  255 255 255 255
0 -54 63.7297 -1 0 0  255 255 255 255
0 -54 62.6351 -1 0 0  255 255 255 255
0 -54 61.5405 -1 0 0  255 255 255 255
0 -54 60.4459 -1 0 0  255 255 255 255
0 -54 59.3514 -1 0 0  255 255 255 255
0 -54 58.2568 -1 0 0  255 255 255 255
0 -54 57.1622 -1 0 0  255 255 255 255
0 -54 56.0676 -1 0 0  255 255 255 255
0 -54 54.973 -1 0 0  255 255 255 255
0 -54 53.8784 -1 0 0  255 255 255 255
0 -54 52.7838 -1 0 0  255 255 255 255
0 -54 51.6892 -1 0 0  255 255 255 255
0 -54 50.5946 -1 0 0  255 255 255 255
0 -54 49.5 -1 0 0  255 255 255 255
0 -54 48.4054 -1 0 0  255 255 255 255
0 -54 47.3108 -1 0 0  255 255 255 255
0 -54 46.2162 -1 0 0  255 255 255 255
0 -54 45.1216 -1 0 0  255 255 255 255
0 -54 44.027 -1 0 0  255 255 255 255
0 -54 42.9324 -1 0 0  255 255 255 255
0 -54 41.8378 -1 0 0  255 255 255 255
0 -54 40.7432 -1 0 0  255 255 255 255
0 -54 39.6486 -1 0 0  255 255 255 255
0 -54 38.5541 -1 0 0  255 255 255 255
0 -54 37.4595 -1 0 0  255 255 255 255
0 -54 36.3649 -1 0 0  255 255 255 255
0 -54 35.2703 -1 0 0  255 255 255 255
0 -54 34.1757 -1 0 0  255 255 255 255
0 -54 33.0811 -1 0 0  255 255 255 255
0 -54 31.9865 -1 0 0  255 255 255 255
0 -54 30.8919 -1 0 0  255 255 255 255
0 -54 29.7973 -1 0 0  255 255 255 255
0 -54 28.7027 -1 0 0  255 255 255 255
0 -54 27.6081 -1 0 0  255 255 255 255
0 -54 26.5135 -1 0 0  255 255 255 255
0 -54 25.4189 -1 0 0  255 255 255 255
0 -54 24.3243 -1 0 0  255 255 255 255
0 -54 23.2297 -1 0 0  255 255 255 255
0 -54 22.1351 -1 0 0  255 255 255 255
0 -54 21.0405 -1 0 0  255 255 255 255
0 -54 19.9459 -1 0 0  255 255 255 255
0 -54 18.8514 -1 0 0  255 255 255 255
0 -54 17.7568 -1 0 0  255 255 255 255
0 -54 16.6622 -1 0 0  255 255 255 255
0 -54 15.5676 -1 0 0  255 255 255 255
0 -54 14.473 -1 0 0  255 255 255 255
0 -54 13.3784 -1 0 0  255 255 255 255
0 -54 12.2838 -1 0 0  255 255 255 255
0 -54 11.1892 -1 0 0  255 255 255 255
0 -54 10.0946 -1 0 0  255 255 255 255
0 -50.2311 9 -1 0 0  255 255 255 255
0 -51.1733 9 -1 0 0  255 255 255 255
0 -52.1156 9 -1 0 0  255 0 0 255
0 -53.0578 9 -1 0 0  255 255 255 255
6 -3.09804 0 0 0 -1  255 255 255 255
6 -4.19608 0 0 0 -1  255 255 255 255
6 -5.29412 0 0 0 -1  255 255 255 255
6 -6.39216 0 0 0 -1  255 255 255 255
6 -7.4902 0 0 0 -1  255 255 255 255
6 -8.58823 0 0 0 -1  255 255 255 255
6 -9.68627 0 0 0 -1  255 255 255 255
6 -10.7843 0 0 0 -1  255 255 255 255
6 -11.8824 0 0 0 -1  255 255 255 255
6 -12.9804 0 0 0 -1  255 255 255 255
6 -14.0784 0 0 0 -1  255 255 255 255
6 -15.1765 0 0 0 -1  255 255 255 255
6 -16.2745 0 0 0 -1  255 255 255 255
6 -17.3725 0 0 0 -1  255 255 255 255
6 -18.4706 0 0 0 -1  255 255 255 255
6 -19.5686 0 0 0 -1  255 255 255 255
6 -20.6667 0 0 0 -1  255 255 255 255
6 -21.7647 0 0 0 -1  255 255 255 255
6 -22.8627 0 0 0 -1  255 255 255 255
6 -23.9608 0 0 0 -1  255 255 255 255
6 -25.0588 0 0 0 -1  255 255 255 255
6 -26.1569 0 0 0 -1  255 255 255 255
6 -27.2549 0 0 0 -1  255 255 255 255
6 -28.3529 0 0 0 -1  255 255 255 255
6 -29.451 0 0 0 -1  255 255 255 255
6 -30.549 0 0 0 -1  255 255 255 255
6 -31.6471 0 0 0 -1  255 255 255 255
6 -32.7451 0 0 0 -1  255 255 255 255
6 -33.8431 0 0 0 -1  255 255 255 255
6 -34.9412 0 0 0 -1  255 255 255 255
6 -36.0392 0 0 0 -1  255 255 255 255
6 -37.1373 0 0 0 -1  255 255 255 255
6 -38.2353 0 0 0 -1  255 255 255 255
6 -39.3333 0 0 0 -1  255 255 255 255
6 -40.4314 0 0 0 -1  255 255 255 255
6 -41.5294 0 0 0 -1  255 255 255 255
6 -42.6275 0 0 0 -1  255 255 255 255
6 -43.7255 0 0 0 -1  255 255 255 255
6 -44.8235 0 0 0 -1  255 255 255 255
6 -45.9216 0 0 0 -1  255 255 255 255
6 -47.0196 0 0 0 -1  255 255 255 255
6 -48.1176 0 0 0 -1  255 255 255 255
6 -49.2157 0 0 0 -1  255 255 255 255
6 -50.3137 0 0 0 -1  255 255 255 255
6 -51.4118 0 0 0 -1  255 255 255 255
6 -52.5098 0 0 0 -1  255 255 255 255
6 -53.6078 0 0 0 -1  255 255 255 255
6 -54.7059 0 0 0 -1  255 255 255 255
6 -55.8039 0 0 0 -1  255 255 255 255
6 -56.902 0 0 0 -1  255 255 255 255
3 -58 0 0 0 -1  255 255 255 255
4 -58 0 0 0 -1  255 255 255 255
5 -58 0 0 0 -1  255 255 255 255
2 -3.09804 0 0 0 -1  255 255 255 255
2 -4.19608 0 0 0 -1  255 255 255 255
2 -5.29412 0 0 0 -1  255 255 255 255
2 -6.39216 0 0 0 -1  255 255 255 255
2 -7.4902 0 0 0 -1  255 255 255 255
2 -8.58823 0 0 0 -1  255 255 255 255
2 -9.68627 0 0 0 -1  255 255 255 255
2 -10.7843 0 0 0 -1  255 255 255 255
2 -11.8824 0 0 0 -1  255 255 255 255
2 -12.9804 0 0 0 -1  255 255 255 255
2 -14.0784 0 0 0 -1  255 255 255 255
2 -15.1765 0 0 0 -1  255 255 255 255
2 -16.2745 0 0 0 -1  255 255 255 255
2 -17.3725 0 0 0 -1  255 255 255 255
2 -18.4706 0 0 0 -1  255 255 255 255
2 -19.5686 0 0 0 -1  255 255 255 255
2 -20.6667 0 0 0 -1  255 255 255 255
2 -21.7647 0 0 0 -1  255 255 255 255
2 -22.8627 0 0 0 -1  255 255 255 255
2 -23.9608 0 0 0 -1  255 255 255 255
2 -25.0588 0 0 0 -1  255 255 255 255
2 -26.1569 0 0 0 -1  255 255 255 255
2 -27.2549 0 0 0 -1  255 255 255 255
2 -28.3529 0 0 0 -1  255 255 255 255
2 -29.451 0 0 0 -1  255 255 255 255
2 -30.549 0 0 0 -1  255 255 255 255
2 -31.6471 0 0 0 -1  255 255 255 255
2 -32.7451 0 0 0 -1  255 255 255 255
2 -33.8431 0 0 0 -1  255 255 255 255
2 -34.9412 0 0 0 -1  255 255 255 255
2 -36.0392 0 0 0 -1  255 255 255 255
2 -37.1373 0 0 0 -1  255 255 255 255
2 -38.2353 0 0 0 -1  255 255 255 255
2 -39.3333 0 0 0 -1  255 255 255 255
2 -40.4314 0 0 0 -1  255 255 255 255
2 -41.5294 0 0 0 -1  255 255 255 255
2 -42.6275 0 0 0 -1  255 255 255 255
2 -43.7255 0 0 0 -1  255 255 255 255
2 -44.8235 0 0 0 -1  255 255 255 255
2 -45.9216 0 0 0 -1  255 255 255 255
2 -47.0196 0 0 0 -1  255 255 255 255
2 -48.1176 0 0 0 -1  255 255 255 255
2 -49.2157 0 0 0 -1  255 255 255 255
2 -50.3137 0 0 0 -1  255 255 255 255
2 -51.4118 0 0 0 -1  255 255 255 255
2 -52.5098 0 0 0 -1  255 255 255 255
2 -53.6078 0 0 0 -1  255 255 255 255
2 -54.7059 0 0 0 -1  255 255 255 255
2 -55.8039 0 0 0 -1  255 255 255 255
2 -56.902 0 0 0 -1  255 255 255 255
3 -2 0 0 0 -1  255 255 255 255
4 -2 0 0 0 -1  255 255 255 255
5 -2 0 0 0 -1  255 255 255 255
8 -8 9.10145 1 0 0  255 255 255 255
8 -8 10.2029 1 0 0  255 255 255 255
8 -8 11.3043 1 0 0  255 255 255 255
8 -8 12.4058 1 0 0  255 255 255 255
8 -8 13.5072 1 0 0  255 255 255 255
8 -8 14.6087 1 0 0  255 255 255 255
8 -8 15.7101 1 0 0  255 255 255 255
8 -8 16.8116 1 0 0  255 255 255 255
8 -8 17.913 1 0 0  255 255 255 255
8 -8 19.0145 1 0 0  255 255 255 255
8 -8 20.1159 1 0 0  255 255 255 255
8 -8 21.2174 1 0 0  255 255 255 255
8 -8 22.3188 1 0 0  255 255 255 255
8 -8 23.4203 1 0 0  255 255 255 255
8 -8 24.5217 1 0 0  255 255 255 255
8 -8 25.6232 1 0 0  255 255 255 255
8 -8 26.7246 1 0 0  255 255 255 255
8 -8 27.8261 1 0 0  255 255 255 255
8 -8 28.9275 1 0 0  255 255 255 255
8 -8 30.029 1 0 0  255 255 255 255
8 -8 31.1304 1 0 0  255 255 255 255
8 -8 32.2319 1 0 0  255 255 255 255
8 -8 33.3333 1 0 0  255 255 255 255
8 -8 34.4348 1 0 0  255 255 255 255
8 -8 35.5362 1 0 0  255 255 255 255
8 -8 36.6377 1 0 0  255 255 255 255
8 -8 37.7391 1 0 0  255 255 255 255
8 -8 38.8406 1 0 0  255 255 255 255
8 -8 39.942 1 0 0  255 255 255 255
8 -8 41.0435 1 0 0  255 255 255 255
8 -8 42.1449 1 0 0  255 255 255 255
8 -8 43.2464 1 0 0  255 255 255 255
8 -8 44.3478 1 0 0  255 255 255 255
8 -8 45.4493 1 0 0  255 255 255 255
8 -8 46.5507 1 0 0  255 255 255 255
8 -8 47.6522 1 0 0  255 255 255 255
8 -8 48.7536 1 0 0  255 255 255 255
8 -8 49.8551 1 0 0  255 255 255 255
8 -8 50.9565 1 0 0  255 255 255 255
8 -8 52.058 1 0 0  255 255 255 255
8 -8 53.1594 1 0 0  255 255 255 255
8 -8 54.2609 1 0 0  255 255 255 255
8 -8 55.3623 1 0 0  255 255 255 255
8 -8 56.4638 1 0 0  255 255 255 255
8 -8 57.5652 1 0 0  255 255 255 255
8 -8 58.6667 1 0 0  255 255 255 255
8 -8 59.7681 1 0 0  255 255 255 255
8 -8 60.8696 1 0 0  255 255 255 255
8 -8 61.971 1 0 0  255 255 255 255
8 -8 63.0725 1 0 0  255 255 255 255
8 -8 64.1739 1 0 0  255 255 255 255
8 -8 65.2754 1 0 0  255 255 255 255
8 -8 66.3768 1 0 0  255 255 255 255
8 -8 67.4783 1 0 0  255 255 255 255
8 -8 68.5797 1 0 0  255 255 255 255
8 -8 69.6812 1 0 0  255 255 255 255
8 -8 70.7826 1 0 0  255 255 255 255
8 -8 71.8841 1 0 0  255 255 255 255
8 -8 72.9855 1 0 0  255 255 255 255
8 -8 74.087 1 0 0  255 255 255 255
8 -8 75.1884 1 0 0  255 255 255 255
8 -8 76.2899 1 0 0  255 255 255 255
8 -8 77.3913 1 0 0  255 255 255 255
8 -8 78.4928 1 0 0  255 255 255 255
8 -8 79.5942 1 0 0  255 255 255 255
8 -8 80.6956 1 0 0  255 255 255 255
8 -8 81.7971 1 0 0  255 255 255 255
8 -8 82.8986 1 0 0  255 255 255 255
8 -50.9 8 1 0 0  255 255 255 255
8 -49.8 8 1 0 0  255 255 255 255
8 -48.7 8 1 0 0  255 255 255 255
8 -47.6 8 1 0 0  255 255 255 255
8 -46.5 8 1 0 0  255 255 255 255
8 -45.4 8 1 0 0  255 255 255 255
8 -44.3 8 1 0 0  255 255 255 255
8 -43.2 8 1 0 0  255 255 255 255
8 -42.1 8 1 0 0  255 255 255 255
8 -41 8 1 0 0  255 255 255 255
8 -39.9 8 1 0 0  255 255 255 255
8 -38.8 8 1 0 0  255 255 255 255
8 -37.7 8 1 0 0  255 255 255 255
8 -36.6 8 1 0 0  255 255 255 255
8 -35.5 8 1 0 0  255 255 255 255
8 -34.4 8 1 0 0  255 255 255 255
8 -33.3 8 1 0 0  255 255 255 255
8 -32.2 8 1 0 0  255 255 255 255
8 -31.1 8 1 0 0  255 255 255 255
8 -30 8 1 0 0  255 255 255 255
8 -28.9 8 1 0 0  255 255 255 255
8 -27.8 8 1 0 0  255 255 255 255
8 -26.7 8 1 0 0  255 255 255 255
8 -25.6 8 1 0 0  255 255 255 255
8 -24.5 8 1 0 0  255 255 255 255
8 -23.4 8 1 0 0  255 255 255 255
8 -22.3 8 1 0 0  255 255 255 255
8 -21.2 8 1 0 0  255 255 255 255
8 -20.1 8 1 0 0  255 255 255 255
8 -19 8 1 0 0  255 255 255 255
8 -17.9 8 1 0 0  255 255 255 255
8 -16.8 8 1 0 0  255 255 255 255
8 -15.7 8 1 0 0  255 255 255 255
8 -14.6 8 1 0 0  255 255 255 255
8 -13.5 8 1 0 0  255 255 255 255
8 -12.4 8 1 0 0  255 255 255 255
8 -11.3 8 1 0 0  255 255 255 255
8 -10.2 8 1 0 0  255 255 255 255
8 -9.1 8 1 0 0  255 255 255 255
8 -52 9.10145 1 0 0  255 255 255 255
8 -52 10.2029 1 0 0  255 255 255 255
8 -52 11.3043 1 0 0  255 255 255 255
8 -52 12.4058 1 0 0  255 255 255 255
8 -52 13.5072 1 0 0  255 255 255 255
8 -52 14.6087 1 0 0  255 255 255 255
8 -52 15.7101 1 0 0  255 255 255 255
8 -52 16.8116 1 0 0  255 255 255 255
8 -52 17.913 1 0 0  255 255 255 255
8 -52 19.0145 1 0 0  255 255 255 255
8 -52 20.1159 1 0 0  255 255 255 255
8 -52 21.2174 1 0 0  255 255 255 255
8 -52 22.3188 1 0 0  255 255 255 255
8 -52 23.4203 1 0 0  255 255 255 255
8 -52 24.5217 1 0 0  255 255 255 255
8 -52 25.6232 1 0 0  255 255 255 255
8 -52 26.7246 1 0 0  255 255 255 255
8 -52 27.8261 1 0 0  255 255 255 255
8 -52 28.9275 1 0 0  255 255 255 255
8 -52 30.029 1 0 0  255 255 255 255
8 -52 31.1304 1 0 0  255 255 255 255
8 -52 32.2319 1 0 0  255 255 255 255
8 -52 33.3333 1 0 0  255 255 255 255
8 -52 34.4348 1 0 0  255 255 255 255
8 -52 35.5362 1 0 0  255 255 255 255
8 -52 36.6377 1 0 0  255 255 255 255
8 -52 37.7391 1 0 0  255 255 255 255
8 -52 38.8406 1 0 0  255 255 255 255
8 -52 39.942 1 0 0  255 255 255 255
8 -52 41.0435 1 0 0  255 255 255 255
8 -52 42.1449 1 0 0  255 255 255 255
8 -52 43.2464 1 0 0  255 255 255 255
8 -52 44.3478 1 0 0  255 255 255 255
8 -52 45.4493 1 0 0  255 255 255 255
8 -52 46.5507 1 0 0  255 255 255 255
8 -52 47.6522 1 0 0  255 255 255 255
8 -52 48.7536 1 0 0  255 255 255 255
8 -52 49.8551 1 0 0  255 255 255 255
8 -52 50.9565 1 0 0  255 255 255 255
8 -52 52.058 1 0 0  255 255 255 255
8 -52 53.1594 1 0 0  255 255 255 255
8 -52 54.2609 1 0 0  255 255 255 255
8 -52 55.3623 1 0 0  255 255 255 255
8 -52 56.4638 1 0 0  255 255 255 255
8 -52 57.5652 1 0 0  255 255 255 255
8 -52 58.6667 1 0 0  255 255 255 255
8 -52 59.7681 1 0 0  255 255 255 255
8 -52 60.8696 1 0 0  255 255 255 255
8 -52 61.971 1 0 0  255 255 255 255
8 -52 63.0725 1 0 0  255 255 255 255
8 -52 64.1739 1 0 0  255 255 255 255
8 -52 65.2754 1 0 0  255 255 255 255
8 -52 66.3768 1 0 0  255 255 255 255
8 -52 67.4783 1 0 0  255 255 255 255
8 -52 68.5797 1 0 0  255 255 255 255
8 -52 69.6812 1 0 0  255 255 255 255
8 -52 70.7826 1 0 0  255 255 255 255
8 -52 71.8841 1 0 0  255 255 255 255
8 -52 72.9855 1 0 0  255 255 255 255
8 -52 74.087 1 0 0  255 255 255 255
8 -52 75.1884 1 0 0  255 255 255 255
8 -52 76.2899 1 0 0  255 255 255 255
8 -52 77.3913 1 0 0  255 255 255 255
8 -52 78.4928 1 0 0  255 255 255 255
8 -52 79.5942 1 0 0  255 255 255 255
8 -52 80.6956 1 0 0  255 255 255 255
8 -52 81.7971 1 0 0  255 255 255 255
8 -52 82.8986 1 0 0  255 255 255 255
8 -50.9 84 1 0 0  255 255 255 255
8 -49.8 84 1 0 0  255 255 255 255
8 -48.7 84 1 0 0  255 255 255 255
8 -47.6 84 1 0 0  255 255 255 255
8 -46.5 84 1 0 0  255 255 255 255
8 -45.4 84 1 0 0  255 255 255 255
8 -44.3 84 1 0 0  255 255 255 255
8 -43.2 84 1 0 0  255 255 255 255
8 -42.1 84 1 0 0  255 255 255 255
8 -41 84 1 0 0  255 255 255 255
8 -39.9 84 1 0 0  255 255 255 255
8 -38.8 84 1 0 0  255 255 255 255
8 -37.7 84 1 0 0  255 255 255 255
8 -36.6 84 1 0 0  255 255 255 255
8 -35.5 84 1 0 0  255 255 255 255
8 -34.4 84 1 0 0  255 255 255 255
8 -33.3 84 1 0 0  255 255 255 255
8 -32.2 84 1 0 0  255 255 255 255
8 -31.1 84 1 0 0  255 255 255 255
8 -30 84 1 0 0  255 255 255 255
8 -28.9 84 1 0 0  255 255 255 255
8 -27.8 84 1 0 0  255 255 255 255
8 -26.7 84 1 0 0  255 255 255 255
8 -25.6 84 1 0 0  255 255 255 255
8 -24.5 84 1 0 0  255 255 255 255
8 -23.4 84 1 0 0  255 255 255 255
8 -22.3 84 1 0 0  255 255 255 255
8 -21.2 84 1 0 0  255 255 255 255
8 -20.1 84 1 0 0  255 255 255 255
8 -19 84 1 0 0  255 255 255 255
8 -17.9 84 1 0 0  255 255 255 255
8 -16.8 84 1 0 0  255 255 255 255
8 -15.7 84 1 0 0  255 255 255 255
8 -14.6 84 1 0 0  255 255 255 255
8 -13.5 84 1 0 0  255 255 255 255
8 -12.4 84 1 0 0  255 255 255 255
8 -11.3 84 1 0 0  255 255 255 255
8 -10.2 84 1 0 0  255 255 255 255
8 -9.1 84 1 0 0  255 255 255 255
8 -58 88.9 1 0 0  255 255 255 255
8 -58 87.8 1 0 0  255 255 255 255
8 -58 86.7 1 0 0  255 255 255 255
8 -58 85.6 1 0 0  255 255 255 255
8 -58 84.5 1 0 0  255 255 255 255
8 -58 83.4 1 0 0  255 255 255 255
8 -58 82.3 1 0 0  255 255 255 255
8 -58 81.2 1 0 0  255 255 255 255
8 -58 80.1 1 0 0  255 255 255 255
8 -58 79 1 0 0  255 255 255 255
8 -58 77.9 1 0 0  255 255 255 255
8 -58 76.8 1 0 0  255 255 255 255
8 -58 75.7 1 0 0  255 255 255 255
8 -58 74.6 1 0 0  255 255 255 255
8 -58 73.5 1 0 0  255 255 255 255
8 -58 72.4 1 0 0  255 255 255 255
8 -58 71.3 1 0 0  255 255 255 255
8 -58 70.2 1 0 0  255 255 255 255
8 -58 69.1 1 0 0  255 255 255 255
8 -58 68 1 0 0  255 255 255 255
8 -58 66.9 1 0 0  255 255 255 255
8 -58 65.8 1 0 0  255 255 255 255
8 -58 64.7 1 0 0  255 255 255 255
8 -58 63.6 1 0 0  255 255 255 255
8 -58 62.5 1 0 0  255 255 255 255
8 -58 61.4 1 0 0  255 255 255 255
8 -58 60.3 1 0 0  255 255 255 255
8 -58 59.2 1 0 0  255 255 255 255
8 -58 58.1 1 0 0  255 255 255 255
8 -58 57 1 0 0  255 255 255 255
8 -58 55.9 1 0 0  255 255 255 255
8 -58 54.8 1 0 0  255 255 255 255
8 -58 53.7 1 0 0  255 255 255 255
8 -58 52.6 1 0 0  255 255 255 255
8 -58 51.5 1 0 0  255 255 255 255
8 -58 50.4 1 0 0  255 255 255 255
8 -58 49.3 1 0 0  255 255 255 255
8 -58 48.2 1 0 0  255 255 255 255
8 -58 47.1 1 0 0  255 255 255 255
8 -58 46 1 0 0  255 255 255 255
8 -58 44.9 1 0 0  255 255 255 255
8 -58 43.8 1 0 0  255 255 255 255
8 -58 42.7 1 0 0  255 255 255 255
8 -58 41.6 1 0 0  255 255 255 255
8 -58 40.5 1 0 0  255 255 255 255
8 -58 39.4 1 0 0  255 255 255 255
8 -58 38.3 1 0 0  255 255 255 255
8 -58 37.2 1 0 0  255 255 255 255
8 -58 36.1 1 0 0  255 255 255 255
8 -58 35 1 0 0  255 255 255 255
8 -58 33.9 1 0 0  255 255 255 255
8 -58 32.8 1 0 0  255 255 255 255
8 -58 31.7 1 0 0  255 255 255 255
8 -58 30.6 1 0 0  255 255 255 255
8 -58 29.5 1 0 0  255 255 255 255
8 -58 28.4 1 0 0  255 255 255 255
8 -58 27.3 1 0 0  255 255 255 255
8 -58 26.2 1 0 0  255 255 255 255
8 -58 25.1 1 0 0  255 255 255 255
8 -58 24 1 0 0  255 255 255 255
8 -58 22.9 1 0 0  255 255 255 255
8 -58 21.8 1 0 0  255 255 255 255
8 -58 20.7 1 0 0  255 255 255 255
8 -58 19.6 1 0 0  255 255 255 255
8 -58 18.5 1 0 0  255 255 255 255
8 -58 17.4 1 0 0  255 255 255 255
8 -58 16.3 1 0 0  255 255 255 255
8 -58 15.2 1 0 0  255 255 255 255
8 -58 14.1 1 0 0  255 255 255 255
8 -58 13 1 0 0  255 255 255 255
8 -58 11.9 1 0 0  255 255 255 255
8 -58 10.8 1 0 0  255 255 255 255
8 -58 9.7 1 0 0  255 255 255 255
8 -58 8.6 1 0 0  255 255 255 255
8 -58 7.5 1 0 0  255 255 255 255
8 -58 6.4 1 0 0  255 255 255 255
8 -58 5.3 1 0 0  255 255 255 255
8 -58 4.2 1 0 0  255 255 255 255
8 -58 3.1 1 0 0  255 255 255 255
8 -3.09804 2 1 0 0  255 255 255 255
8 -4.19608 2 1 0 0  255 255 255 255
8 -5.29412 2 1 0 0  255 255 255 255
8 -6.39216 2 1 0 0  255 255 255 255
8 -7.4902 2 1 0 0  255 255 255 255
8 -8.58823 2 1 0 0  255 255 255 255
8 -9.68627 2 1 0 0  255 255 255 255
8 -10.7843 2 1 0 0  255 255 255 255
8 -11.8824 2 1 0 0  255 255 255 255
8 -12.9804 2 1 0 0  255 255 255 255
8 -14.0784 2 1 0 0  255 255 255 255
8 -15.1765 2 1 0 0  255 255 255 255
8 -16.2745 2 1 0 0  255 255 255 255
8 -17.3725 2 1 0 0  255 255 255 255
8 -18.4706 2 1 0 0  255 255 255 255
8 -19.5686 2 1 0 0  255 255 255 255
8 -20.6667 2 1 0 0  255 255 255 255
8 -21.7647 2 1 0 0  255 255 255 255
8 -22.8627 2 1 0 0  255 255 255 255
8 -23.9608 2 1 0 0  255 255 255 255
8 -25.0588 2 1 0 0  255 255 255 255
8 -26.1569 2 1 0 0  255 255 255 255
8 -27.2549 2 1 0 0  255 255 255 255
8 -28.3529 2 1 0 0  255 255 255 255
8 -29.451 2 1 0 0  255 255 255 255
8 -30.549 2 1 0 0  255 255 255 255
8 -31.6471 2 1 0 0  255 255 255 255
8 -32.7451 2 1 0 0  255 255 255 255
8 -33.8431 2 1 0 0  255 255 255 255
8 -34.9412 2 1 0 0  255 255 255 255
8 -36.0392 2 1 0 0  255 255 255 255
8 -37.1373 2 1 0 0  255 255 255 255
8 -38.2353 2 1 0 0  255 255 255 255
8 -39.3333 2 1 0 0  255 255 255 255
8 -40.4314 2 1 0 0  255 255 255 255
8 -41.5294 2 1 0 0  255 255 255 255
8 -42.6275 2 1 0 0  255 255 255 255
8 -43.7255 2 1 0 0  255 255 255 255
8 -44.8235 2 1 0 0  255 255 255 255
8 -45.9216 2 1 0 0  255 255 255 255
8 -47.0196 2 1 0 0  255 255 255 255
8 -48.1176 2 1 0 0  255 255 255 255
8 -49.2157 2 1 0 0  255 255 255 255
8 -50.3137 2 1 0 0  255 255 255 255
8 -51.4118 2 1 0 0  255 255 255 255
8 -52.5098 2 1 0 0  255 255 255 255
8 -53.6078 2 1 0 0  255 255 255 255
8 -54.7059 2 1 0 0  255 255 255 255
8 -55.8039 2 1 0 0  255 255 255 255
8 -56.902 2 1 0 0  255 255 255 255
8 -2 88.9 1 0 0  255 255 255 255
8 -2 87.8 1 0 0  255 255 255 255
8 -2 86.7 1 0 0  255 255 255 255
8 -2 85.6 1 0 0  255 255 255 255
8 -2 84.5 1 0 0  255 255 255 255
8 -2 83.4 1 0 0  255 255 255 255
8 -2 82.3 1 0 0  255 255 255 255
8 -2 81.2 1 0 0  255 255 255 255
8 -2 80.1 1 0 0  255 255 255 255
8 -2 79 1 0 0  255 255 255 255
8 -2 77.9 1 0 0  255 255 255 255
8 -2 76.8 1 0 0  255 255 255 255
8 -2 75.7 1 0 0  255 255 255 255
8 -2 74.6 1 0 0  255 255 255 255
8 -2 73.5 1 0 0  255 255 255 255
8 -2 72.4 1 0 0  255 255 255 255
8 -2 71.3 1 0 0  255 255 255 255
8 -2 70.2 1 0 0  255 255 255 255
8 -2 69.1 1 0 0  255 255 255 255
8 -2 68 1 0 0  255 255 255 255
8 -2 66.9 1 0 0  255 255 255 255
8 -2 65.8 1 0 0  255 255 255 255
8 -2 64.7 1 0 0  255 255 255 255
8 -2 63.6 1 0 0  255 255 255 255
8 -2 62.5 1 0 0  255 255 255 255
8 -2 61.4 1 0 0  255 255 255 255
8 -2 60.3 1 0 0  255 255 255 255
8 -2 59.2 1 0 0  255 255 255 255
8 -2 58.1 1 0 0  255 255 255 255
8 -2 57 1 0 0  255 255 255 255
8 -2 55.9 1 0 0  255 255 255 255
8 -2 54.8 1 0 0  255 255 255 255
8 -2 53.7 1 0 0  255 255 255 255
8 -2 52.6 1 0 0  255 255 255 255
8 -2 51.5 1 0 0  255 255 255 255
8 -2 50.4 1 0 0  255 255 255 255
8 -2 49.3 1 0 0  255 255 255 255
8 -2 48.2 1 0 0  255 255 255 255
8 -2 47.1 1 0 0  255 255 255 255
8 -2 46 1 0 0  255 255 255 255
8 -2 44.9 1 0 0  255 255 255 255
8 -2 43.8 1 0 0  255 255 255 255
8 -2 42.7 1 0 0  255 255 255 255
8 -2 41.6 1 0 0  255 255 255 255
8 -2 40.5 1 0 0  255 255 255 255
8 -2 39.4 1 0 0  255 255 255 255
8 -2 38.3 1 0 0  255 255 255 255
8 -2 37.2 1 0 0  255 255 255 255
8 -2 36.1 1 0 0  255 255 255 255
8 -2 35 1 0 0  255 255 255 255
8 -2 33.9 1 0 0  255 255 255 255
8 -2 32.8 1 0 0  255 255 255 255
8 -2 31.7 1 0 0  255 255 255 255
8 -2 30.6 1 0 0  255 255 255 255
8 -2 29.5 1 0 0  255 255 255 255
8 -2 28.4 1 0 0  255 255 255 255
8 -2 27.3 1 0 0  255 255 255 255
8 -2 26.2 1 0 0  255 255 255 255
8 -2 25.1 1 0 0  255 255 255 255
8 -2 24 1 0 0  255 255 255 255
8 -2 22.9 1 0 0  255 255 255 255
8 -2 21.8 1 0 0  255 255 255 255
8 -2 20.7 1 0 0  255 255 255 255
8 -2 19.6 1 0 0  255 255 255 255
8 -2 18.5 1 0 0  255 255 255 255
8 -2 17.4 1 0 0  255 255 255 255
8 -2 16.3 1 0 0  255 255 255 255
8 -2 15.2 1 0 0  255 255 255 255
8 -2 14.1 1 0 0  255 255 255 255
8 -2 13 1 0 0  255 255 255 255
8 -2 11.9 1 0 0  255 255 255 255
8 -2 10.8 1 0 0  255 255 255 255
8 -2 9.7 1 0 0  255 255 255 255
8 -2 8.6 1 0 0  255 255 255 255
8 -2 7.5 1 0 0  255 255 255 255
8 -2 6.4 1 0 0  255 255 255 255
8 -2 5.3 1 0 0  255 255 255 255
8 -2 4.2 1 0 0  255 255 255 255
8 -2 3.1 1 0 0  255 255 255 255
8 -3.09804 90 1 0 0  255 255 255 255
8 -4.19608 90 1 0 0  255 255 255 255
8 -5.29412 90 1 0 0  255 255 255 255
8 -6.39216 90 1 0 0  255 255 255 255
8 -7.4902 90 1 0 0  255 255 255 255
8 -8.58823 90 1 0 0  255 255 255 255
8 -9.68627 90 1 0 0  255 255 255 255
8 -10.7843 90 1 0 0  255 255 255 255
8 -11.8824 90 1 0 0  255 255 255 255
8 -12.9804 90 1 0 0  255 255 255 255
8 -14.0784 90 1 0 0  255 255 255 255
8 -15.1765 90 1 0 0  255 255 255 255
8 -16.2745 90 1 0 0  255 255 255 255
8 -17.3725 90 1 0 0  255 255 255 255
8 -18.4706 90 1 0 0  255 255 255 255
8 -19.5686 90 1 0 0  255 255 255 255
8 -20.6667 90 1 0 0  255 255 255 255
8 -21.7647 90 1 0 0  255 255 255 255
8 -22.8627 90 1 0 0  255 255 255 255
8 -23.9608 90 1 0 0  255 255 255 255
8 -25.0588 90 1 0 0  255 255 255 255
8 -26.1569 90 1 0 0  255 255 255 255
8 -27.2549 90 1 0 0  255 255 255 255
8 -28.3529 90 1 0 0  255 255 255 255
8 -29.451 90 1 0 0  255 255 255 255
8 -30.549 90 1 0 0  255 255 255 255
8 -31.6471 90 1 0 0  255 255 255 255
8 -32.7451 90 1 0 0  255 255 255 255
8 -33.8431 90 1 0 0  255 255 255 255
8 -34.9412 90 1 0 0  255 255 255 255
8 -36.0392 90 1 0 0  255 255 255 255
8 -37.1373 90 1 0 0  255 255 255 255
8 -38.2353 90 1 0 0  255 255 255 255
8 -39.3333 90 1 0 0  255 255 255 255
8 -40.4314 90 1 0 0  255 255 255 255
8 -41.5294 90 1 0 0  255 255 255 255
8 -42.6275 90 1 0 0  255 255 255 255
8 -43.7255 90 1 0 0  255 255 255 255
8 -44.8235 90 1 0 0  255 255 255 255
8 -45.9216 90 1 0 0  255 255 255 255
8 -47.0196 90 1 0 0  255 255 255 255
8 -48.1176 90 1 0 0  255 255 255 255
8 -49.2157 90 1 0 0  255 255 255 255
8 -50.3137 90 1 0 0  255 255 255 255
8 -51.4118 90 1 0 0  255 255 255 255
8 -52.5098 90 1 0 0  255 255 255 255
8 -53.6078 90 1 0 0  255 255 255 255
8 -54.7059 90 1 0 0  255 255 255 255
8 -55.8039 90 1 0 0  255 255 255 255
8 -56.902 90 1 0 0  255 255 255 255
2 -60 88.9 0 -1 0  255 255 255 255
2 -60 87.8 0 -1 0  255 255 255 255
2 -60 86.7 0 -1 0  255 255 255 255
2 -60 85.6 0 -1 0  255 255 255 255
2 -60 84.5 0 -1 0  255 255 255 255
2 -60 83.4 0 -1 0  255 255 255 255
2 -60 82.3 0 -1 0  255 255 255 255
2 -60 81.2 0 -1 0  255 255 255 255
2 -60 80.1 0 -1 0  255 255 255 255
2 -60 79 0 -1 0  255 255 255 255
2 -60 77.9 0 -1 0  255 255 255 255
2 -60 76.8 0 -1 0  255 255 255 255
2 -60 75.7 0 -1 0  255 255 255 255
2 -60 74.6 0 -1 0  255 255 255 255
2 -60 73.5 0 -1 0  255 255 255 255
2 -60 72.4 0 -1 0  255 255 255 255
2 -60 71.3 0 -1 0  255 255 255 255
2 -60 70.2 0 -1 0  255 255 255 255
2 -60 69.1 0 -1 0  255 255 255 255
2 -60 68 0 -1 0  255 255 255 255
2 -60 66.9 0 -1 0  255 255 255 255
2 -60 65.8 0 -1 0  255 255 255 255
2 -60 64.7 0 -1 0  255 255 255 255
2 -60 63.6 0 -1 0  255 255 255 255
2 -60 62.5 0 -1 0  255 255 255 255
2 -60 61.4 0 -1 0  255 255 255 255
2 -60 60.3 0 -1 0  255 255 255 255
2 -60 59.2 0 -1 0  255 255 255 255
2 -60 58.1 0 -1 0  255 255 255 255
2 -60 57 0 -1 0  255 255 255 255
2 -60 55.9 0 -1 0  255 255 255 255
2 -60 54.8 0 -1 0  255 255 255 255
2 -60 53.7 0 -1 0  255 255 255 255
2 -60 52.6 0 -1 0  255 255 255 255
2 -60 51.5 0 -1 0  255 255 255 255
2 -60 50.4 0 -1 0  255 255 255 255
2 -60 49.3 0 -1 0  255 255 255 255
2 -60 48.2 0 -1 0  255 255 255 255
2 -60 47.1 0 -1 0  255 255 255 255
2 -60 46 0 -1 0  255 255 255 255
2 -60 44.9 0 -1 0  255 255 255 255
2 -60 43.8 0 -1 0  255 255 255 255
2 -60 42.7 0 -1 0  255 255 255 255
2 -60 41.6 0 -1 0  255 255 255 255
2 -60 40.5 0 -1 0  255 255 255 255
2 -60 39.4 0 -1 0  255 255 255 255
2 -60 38.3 0 -1 0  255 255 255 255
2 -60 37.2 0 -1 0  255 255 255 255
2 -60 36.1 0 -1 0  255 255 255 255
2 -60 35 0 -1 0  255 255 255 255
2 -60 33.9 0 -1 0  255 255 255 255
2 -60 32.8 0 -1 0  255 255 255 255
2 -60 31.7 0 -1 0  255 255 255 255
2 -60 30.6 0 -1 0  255 255 255 255
2 -60 29.5 0 -1 0  255 255 255 255
2 -60 28.4 0 -1 0  255 255 255 255
2 -60 27.3 0 -1 0  255 255 255 255
2 -60 26.2 0 -1 0  255 255 255 255
2 -60 25.1 0 -1 0  255 255 255 255
2 -60 24 0 -1 0  255 255 255 255
2 -60 22.9 0 -1 0  255 255 255 255
2 -60 21.8 0 -1 0  255 255 255 255
2 -60 20.7 0 -1 0  255 255 255 255
2 -60 19.6 0 -1 0  255 255 255 255
2 -60 18.5 0 -1 0  255 255 255 255
2 -60 17.4 0 -1 0  255 255 255 255
2 -60 16.3 0 -1 0  255 255 255 255
2 -60 15.2 0 -1 0  255 255 255 255
2 -60 14.1 0 -1 0  255 255 255 255
2 -60 13 0 -1 0  255 255 255 255
2 -60 11.9 0 -1 0  255 255 255 255
2 -60 10.8 0 -1 0  255 255 255 255
2 -60 9.7 0 -1 0  255 255 255 255
2 -60 8.6 0 -1 0  255 255 255 255
2 -60 7.5 0 -1 0  255 255 255 255
2 -60 6.4 0 -1 0  255 255 255 255
2 -60 5.3 0 -1 0  255 255 255 255
2 -60 4.2 0 -1 0  255 255 255 255
2 -60 3.1 0 -1 0  255 255 255 255
3 -60 2 0 -1 0  255 255 255 255
4 -60 2 0 -1 0  255 255 255 255
5 -60 2 0 -1 0  255 255 255 255
6 -60 88.9 0 -1 0  255 255 255 255
6 -60 87.8 0 -1 0  255 255 255 255
6 -60 86.7 0 -1 0  255 255 255 255
6 -60 85.6 0 -1 0  255 255 255 255
6 -60 84.5 0 -1 0  255 255 255 255
6 -60 83.4 0 -1 0  255 255 255 255
6 -60 82.3 0 -1 0  255 255 255 255
6 -60 81.2 0 -1 0  255 255 255 255
6 -60 80.1 0 -1 0  255 255 255 255
6 -60 79 0 -1 0  255 255 255 255
6 -60 77.9 0 -1 0  255 255 255 255
6 -60 76.8 0 -1 0  255 255 255 255
6 -60 75.7 0 -1 0  255 255 255 255
6 -60 74.6 0 -1 0  255 255 255 255
6 -60 73.5 0 -1 0  255 255 255 255
6 -60 72.4 0 -1 0  255 255 255 255
6 -60 71.3 0 -1 0  255 255 255 255
6 -60 70.2 0 -1 0  255 255 255 255
6 -60 69.1 0 -1 0  255 255 255 255
6 -60 68 0 -1 0  255 255 255 255
6 -60 66.9 0 -1 0  255 255 255 255
6 -60 65.8 0 -1 0  255 255 255 255
6 -60 64.7 0 -1 0  255 255 255 255
6 -60 63.6 0 -1 0  255 255 255 255
6 -60 62.5 0 -1 0  255 255 255 255
6 -60 61.4 0 -1 0  255 255 255 255
6 -60 60.3 0 -1 0  255 255 255 255
6 -60 59.2 0 -1 0  255 255 255 255
6 -60 58.1 0 -1 0  255 255 255 255
6 -60 57 0 -1 0  255 255 255 255
6 -60 55.9 0 -1 0  255 255 255 255
6 -60 54.8 0 -1 0  255 255 255 255
6 -60 53.7 0 -1 0  255 255 255 255
6 -60 52.6 0 -1 0  255 255 255 255
6 -60 51.5 0 -1 0  255 255 255 255
6 -60 50.4 0 -1 0  255 255 255 255
6 -60 49.3 0 -1 0  255 255 255 255
6 -60 48.2 0 -1 0  255 255 255 255
6 -60 47.1 0 -1 0  255 255 255 255
6 -60 46 0 -1 0  255 255 255 255
6 -60 44.9 0 -1 0  255 255 255 255
6 -60 43.8 0 -1 0  255 255 255 255
6 -60 42.7 0 -1 0  255 255 255 255
6 -60 41.6 0 -1 0  255 255 255 255
6 -60 40.5 0 -1 0  255 255 255 255
6 -60 39.4 0 -1 0  255 255 255 255
6 -60 38.3 0 -1 0  255 255 255 255
6 -60 37.2 0 -1 0  255 255 255 255
6 -60 36.1 0 -1 0  255 255 255 255
6 -60 35 0 -1 0  255 255 255 255
6 -60 33.9 0 -1 0  255 255 255 255
6 -60 32.8 0 -1 0  255 255 255 255
6 -60 31.7 0 -1 0  255 255 255 255
6 -60 30.6 0 -1 0  255 255 255 255
6 -60 29.5 0 -1 0  255 255 255 255
6 -60 28.4 0 -1 0  255 255 255 255
6 -60 27.3 0 -1 0  255 255 255 255
6 -60 26.2 0 -1 0  255 255 255 255
6 -60 25.1 0 -1 0  255 255 255 255
6 -60 24 0 -1 0  255 255 255 255
6 -60 22.9 0 -1 0  255 255 255 255
6 -60 21.8 0 -1 0  255 255 255 255
6 -60 20.7 0 -1 0  255 255 255 255
6 -60 19.6 0 -1 0  255 255 255 255
6 -60 18.5 0 -1 0  255 255 255 255
6 -60 17.4 0 -1 0  255 255 255 255
6 -60 16.3 0 -1 0  255 255 255 255
6 -60 15.2 0 -1 0  255 255 255 255
6 -60 14.1 0 -1 0  255 255 255 255
6 -60 13 0 -1 0  255 255 255 255
6 -60 11.9 0 -1 0  255 255 255 255
6 -60 10.8 0 -1 0  255 255 255 255
6 -60 9.7 0 -1 0  255 255 255 255
6 -60 8.6 0 -1 0  255 255 255 255
6 -60 7.5 0 -1 0  255 255 255 255
6 -60 6.4 0 -1 0  255 255 255 255
6 -60 5.3 0 -1 0  255 255 255 255
6 -60 4.2 0 -1 0  255 255 255 255
6 -60 3.1 0 -1 0  255 255 255 255
3 -60 90 0 -1 0  255 255 255 255
4 -60 90 0 -1 0  255 255 255 255
5 -60 90 0 -1 0  255 255 255 255
6 0 88.9 0 1 0  255 255 255 255
6 0 87.8 0 1 0  255 255 255 255
6 0 86.7 0 1 0  255 255 255 255
6 0 85.6 0 1 0  255 255 255 255
6 0 84.5 0 1 0  255 255 255 255
6 0 83.4 0 1 0  255 255 255 255
6 0 82.3 0 1 0  255 255 255 255
6 0 81.2 0 1 0  255 255 255 255
6 0 80.1 0 1 0  255 255 255 255
6 0 79 0 1 0  255 255 255 255
6 0 77.9 0 1 0  255 255 255 255
6 0 76.8 0 1 0  255 255 255 255
6 0 75.7 0 1 0  255 255 255 255
6 0 74.6 0 1 0  255 255 255 255
6 0 73.5 0 1 0  255 255 255 255
6 0 72.4 0 1 0  255 255 255 255
6 0 71.3 0 1 0  255 255 255 255
6 0 70.2 0 1 0  255 255 255 255
6 0 69.1 0 1 0  255 255 255 255
6 0 68 0 1 0  255 255 255 255
6 0 66.9 0 1 0  255 255 255 255
6 0 65.8 0 1 0  255 255 255 255
6 0 64.7 0 1 0  255 255 255 255
6 0 63.6 0 1 0  255 255 255 255
6 0 62.5 0 1 0  255 255 255 255
6 0 61.4 0 1 0  255 255 255 255
6 0 60.3 0 1 0  255 255 255 255
6 0 59.2 0 1 0  255 255 255 255
6 0 58.1 0 1 0  255 255 255 255
6 0 57 0 1 0  255 255 255 255
6 0 55.9 0 1 0  255 255 255 255
6 0 54.8 0 1 0  255 255 255 255
6 0 53.7 0 1 0  255 255 255 255
6 0 52.6 0 1 0  255 255 255 255
6 0 51.5 0 1 0  255 255 255 255
6 0 50.4 0 1 0  255 255 255 255
6 0 49.3 0 1 0  255 255 255 255
6 0 48.2 0 1 0  255 255 255 255
6 0 47.1 0 1 0  255 255 255 255
6 0 46 0 1 0  255 255 255 255
6 0 44.9 0 1 0  255 255 255 255
6 0 43.8 0 1 0  255 255 255 255
6 0 42.7 0 1 0  255 255 255 255
6 0 41.6 0 1 0  255 255 255 255
6 0 40.5 0 1 0  255 255 255 255
6 0 39.4 0 1 0  255 255 255 255
6 0 38.3 0 1 0  255 255 255 255
6 0 37.2 0 1 0  255 255 255 255
6 0 36.1 0 1 0  255 255 255 255
6 0 35 0 1 0  255 255 255 255
6 0 33.9 0 1 0  255 255 255 255
6 0 32.8 0 1 0  255 255 255 255
6 0 31.7 0 1 0  255 255 255 255
6 0 30.6 0 1 0  255 255 255 255
6 0 29.5 0 1 0  255 255 255 255
6 0 28.4 0 1 0  255 255 255 255
6 0 27.3 0 1 0  255 255 255 255
6 0 26.2 0 1 0  255 255 255 255
6 0 25.1 0 1 0  255 255 255 255
6 0 24 0 1 0  255 255 255 255
6 0 22.9 0 1 0  255 255 255 255
6 0 21.8 0 1 0  255 255 255 255
6 0 20.7 0 1 0  255 255 255 255
6 0 19.6 0 1 0  255 255 255 255
6 0 18.5 0 1 0  255 255 255 255
6 0 17.4 0 1 0  255 255 255 255
6 0 16.3 0 1 0  255 255 255 255
6 0 15.2 0 1 0  255 255 255 255
6 0 14.1 0 1 0  255 255 255 255
6 0 13 0 1 0  255 255 255 255
6 0 11.9 0 1 0  255 255 255 255
6 0 10.8 0 1 0  255 255 255 255
6 0 9.7 0 1 0  255 255 255 255
6 0 8.6 0 1 0  255 255 255 255
6 0 7.5 0 1 0  255 255 255 255
6 0 6.4 0 1 0  255 255 255 255
6 0 5.3 0 1 0  255 255 255 255
6 0 4.2 0 1 0  255 255 255 255
6 0 3.1 0 1 0  255 255 255 255
3 0 2 0 1 0  255 255 255 255
4 0 2 0 1 0  255 255 255 255
5 0 2 0 1 0  255 255 255 255
2 0 88.9 0 1 0  255 255 255 255
2 0 87.8 0 1 0  255 255 255 255
2 0 86.7 0 1 0  255 255 255 255
2 0 85.6 0 1 0  255 255 255 255
2 0 84.5 0 1 0  255 255 255 255
2 0 83.4 0 1 0  255 255 255 255
2 0 82.3 0 1 0  255 255 255 255
2 0 81.2 0 1 0  255 255 255 255
2 0 80.1 0 1 0  255 255 255 255
2 0 79 0 1 0  255 255 255 255
2 0 77.9 0 1 0  255 255 255 255
2 0 76.8 0 1 0  255 255 255 255
2 0 75.7 0 1 0  255 255 255 255
2 0 74.6 0 1 0  255 255 255 255
2 0 73.5 0 1 0  255 255 255 255
2 0 72.4 0 1 0  255 255 255 255
2 0 71.3 0 1 0  255 255 255 255
2 0 70.2 0 1 0  255 255 255 255
2 0 69.1 0 1 0  255 255 255 255
2 0 68 0 1 0  255 255 255 255
2 0 66.9 0 1 0  255 255 255 255
2 0 65.8 0 1 0  255 255 255 255
2 0 64.7 0 1 0  255 255 255 255
2 0 63.6 0 1 0  255 255 255 255
2 0 62.5 0 1 0  255 255 255 255
2 0 61.4 0 1 0  255 255 255 255
2 0 60.3 0 1 0  255 255 255 255
2 0 59.2 0 1 0  255 255 255 255
2 0 58.1 0 1 0  255 255 255 255
2 0 57 0 1 0  255 255 255 255
2 0 55.9 0 1 0  255 255 255 255
2 0 54.8 0 1 0  255 255 255 255
2 0 53.7 0 1 0  255 255 255 255
2 0 52.6 0 1 0  255 255 255 255
2 0 51.5 0 1 0  255 255 255 255
2 0 50.4 0 1 0  255 255 255 255
2 0 49.3 0 1 0  255 255 255 255
2 0 48.2 0 1 0  255 255 255 255
2 0 47.1 0 1 0  255 255 255 255
2 0 46 0 1 0  255 255 255 255
2 0 44.9 0 1 0  255 255 255 255
2 0 43.8 0 1 0  255 255 255 255
2 0 42.7 0 1 0  255 255 255 255
2 0 41.6 0 1 0  255 255 255 255
2 0 40.5 0 1 0  255 255 255 255
2 0 39.4 0 1 0  255 255 255 255
2 0 38.3 0 1 0  255 255 255 255
2 0 37.2 0 1 0  255 255 255 255
2 0 36.1 0 1 0  255 255 255 255
2 0 35 0 1 0  255 255 255 255
2 0 33.9 0 1 0  255 255 255 255
2 0 32.8 0 1 0  255 255 255 255
2 0 31.7 0 1 0  255 255 255 255
2 0 30.6 0 1 0  255 255 255 255
2 0 29.5 0 1 0  255 255 255 255
2 0 28.4 0 1 0  255 255 255 255
2 0 27.3 0 1 0  255 255 255 255
2 0 26.2 0 1 0  255 255 255 255
2 0 25.1 0 1 0  255 255 255 255
2 0 24 0 1 0  255 255 255 255
2 0 22.9 0 1 0  255 255 255 255
2 0 21.8 0 1 0  255 255 255 255
2 0 20.7 0 1 0  255 255 255 255
2 0 19.6 0 1 0  255 255 255 255
2 0 18.5 0 1 0  255 255 255 255
2 0 17.4 0 1 0  255 255 255 255
2 0 16.3 0 1 0  255 255 255 255
2 0 15.2 0 1 0  255 255 255 255
2 0 14.1 0 1 0  255 255 255 255
2 0 13 0 1 0  255 255 255 255
2 0 11.9 0 1 0  255 255 255 255
2 0 10.8 0 1 0  255 255 255 255
2 0 9.7 0 1 0  255 255 255 255
2 0 8.6 0 1 0  255 255 255 255
2 0 7.5 0 1 0  255 255 255 255
2 0 6.4 0 1 0  255 255 255 255
2 0 5.3 0 1 0  255 255 255 255
2 0 4.2 0 1 0  255 255 255 255
2 0 3.1 0 1 0  255 255 255 255
3 0 90 0 1 0  255 255 255 255
4 0 90 0 1 0  255 255 255 255
5 0 90 0 1 0  255 255 255 255
2 -55 92 0.571429 0 0.428571  255 0 0 255
2 -56 92 0.4 0 0.6  255 0 0 255
2 -57 92 0.571429 0 0.428571  255 0 0 255
0.267949 -54 91 -0.866025 0 0.5  255 255 255 255
1 -54 91.732 -0.5 0 0.866025  255 255 255 255
1 -58 91.732 -0.5 0 0.866025  255 255 255 255
0.267949 -58 91 -0.866025 0 0.5  255 255 255 255
0.267949 -59 90 -0.866025 -0.5 0  255 255 255 255
1 -59.7321 90 -0.5 -0.866025 0  255 255 255 255
2 -59.7321 91 0 -0.866025 0.5  255 255 255 255
2 -59 91.732 0 -0.5 0.866025  255 255 255 255
1 -59.7321 2 -0.5 -0.866025 0  255 255 255 255
0.267949 -59 2 -0.866025 -0.5 0  255 255 255 255
6 -59 91.732 0 -0.5 0.866025  255 255 255 255
6 -59.7321 91 0 -0.866025 0.5  255 255 255 255
3 -58 92 0 0.5 0.5  255 0 0 255
4 -58 92 0 0.5 0.5  255 0 0 255
5 -58 92 0 0.5 0.5  255 0 0 255
7 -59.7321 90 0.5 -0.866025 0  255 255 255 255
7.73205 -59 90 0.866025 -0.5 0  255 255 255 255
7.73205 -58 91 0.866025 0 0.5  255 255 255 255
7 -58 91.732 0.5 0 0.866025  255 255 255 255
7 -59.7321 2 0.5 -0.866025 0  255 255 255 255
7.73205 -59 2 0.866025 -0.5 0  255 255 255 255
7 -2 91.732 0.5 0 0.866025  255 255 255 255
7.73205 -2 91 0.866025 0 0.5  255 255 255 255
6 -3.09804 92 -0.5 0 0.5  255 0 0 255
6 -4.19608 92 -0.4 0 0.6  255 0 0 255
6 -5.29412 92 -0.571429 0 0.428571  255 0 0 255
6 -6.39216 92 -0.5 0 0.5  255 0 0 255
6 -7.4902 92 -0.5 0 0.5  255 0 0 255
6 -8.58823 92 -0.5 0 0.5  255 0 0 255
6 -9.68627 92 -0.5 0 0.5  255 0 0 255
6 -10.7843 92 -0.5 0 0.5  255 255 255 255
6 -11.8824 92 -0.5 0 0.5  255 0 0 255
6 -12.9804 92 -0.5 0 0.5  255 0 0 255
6 -14.0784 92 -0.5 0 0.5  255 0 0 255
6 -15.1765 92 -0.5 0 0.5  255 0 0 255
6 -16.2745 92 -0.571429 0 0.428571  255 0 0 255
6 -17.3725 92 -0.5 0 0.5  255 0 0 255
6 -18.4706 92 -0.5 0 0.5  255 0 0 255
6 -19.5686 92 -0.5 0 0.5  255 0 0 255
6 -20.6667 92 -0.5 0 0.5  255 0 0 255
6 -21.7647 92 -0.571429 0 0.428571  255 0 0 255
6 -22.8627 92 -0.5 0 0.5  255 255 255 255
6 -23.9608 92 -0.5 0 0.5  255 0 0 255
6 -25.0588 92 -0.5 0 0.5  255 0 0 255
6 -26.1569 92 -0.5 0 0.5  255 255 255 255
6 -27.2549 92 -0.571429 0 0.428571  255 0 0 255
6 -28.3529 92 -0.5 0 0.5  255 0 0 255
6 -29.451 92 -0.5 0 0.5  255 0 0 255
6 -30.549 92 -0.5 0 0.5  255 0 0 255
6 -31.6471 92 -0.5 0 0.5  255 0 0 255
6 -32.7451 92 -0.571429 0 0.428571  255 0 0 255
6 -33.8431 92 -0.5 0 0.5  255 0 0 255
6 -34.9412 92 -0.5 0 0.5  255 0 0 255
6 -36.0392 92 -0.5 0 0.5  255 0 0 255
6 -37.1373 92 -0.5 0 0.5  255 0 0 255
6 -38.2353 92 -0.571429 0 0.428571  255 0 0 255
6 -39.3333 92 -0.5 0 0.5  255 0 0 255
6 -40.4314 92 -0.5 0 0.5  255 0 0 255
6 -41.5294 92 -0.5 0 0.5  255 0 0 255
6 -42.6275 92 -0.5 0 0.5  255 0 0 255
6 -43.7255 92 -0.571429 0 0.428571  255 0 0 255
6 -44.8235 92 -0.5 0 0.5  255 0 0 255
6 -45.9216 92 -0.5 0 0.5  255 0 0 255
6 -47.0196 92 -0.5 0 0.5  255 0 0 255
6 -48.1176 92 -0.5 0 0.5  255 0 0 255
6 -49.2157 92 -0.5 0 0.5  255 255 255 255
6 -50.3137 92 -0.5 0 0.5  255 0 0 255
6 -51.4118 92 -0.5 0 0.5  255 0 0 255
6 -52.5098 92 -0.5 0 0.5  255 0 0 255
6 -53.6078 92 -0.5 0 0.5  255 0 0 255
6 -54.7059 92 -0.571429 0 0.428571  255 0 0 255
6 -55.8039 92 -0.4 0 0.6  255 0 0 255
6 -56.902 92 -0.428571 0 0.571429  255 0 0 255
7.73205 -1 90 0.866025 0.5 0  255 255 255 255
7 -0.267949 90 0.5 0.866025 0  255 255 255 255
6 -0.267949 91 0 0.866025 0.5  255 255 255 255
6 -1 91.732 0 0.5 0.866025  255 255 255 255
7 -0.267949 2 0.5 0.866025 0  255 255 255 255
7.73205 -1 2 0.866025 0.5 0  255 255 255 255
2 -1 91.732 0 0.5 0.866025  255 255 255 255
2 -0.267949 91 0 0.866025 0.5  255 255 255 255
3 -2 92 0 -0.5 0.5  255 0 0 255
4 -2 92 0 -0.5 0.5  255 0 0 255
5 -2 92 0 -0.5 0.5  255 0 0 255
1 -0.267949 90 -0.5 0.866025 0  255 255 255 255
0.267949 -1 90 -0.866025 0.5 0  255 255 255 255
0.267949 -2 91 -0.866025 0 0.5  255 255 255 255
1 -2 91.732 -0.5 0 0.866025  255 255 255 255
1 -0.267949 2 -0.5 0.866025 0  255 255 255 255
0.267949 -1 2 -0.866025 0.5 0  255 255 255 255
0.267949 -6 91 -0.866025 0 0.5  255 255 255 255
1 -6 91.732 -0.5 0 0.866025  255 255 255 255
2 -3 92 0.666667 0 0.333333  255 0 0 255
2 -4 92 0.333333 0 0.666667  255 0 0 255
2 -5 92 0.571429 0 0.428571  255 0 0 255
3.71354 -11 91.0488 -0.851458 0 0.524423  255 255 255 255
4.44118 -11 91.7461 -0.487636 0 0.873047  255 255 255 255
3.41827 -12.0857 90.0853 -0.99909 0 0.042644  255 255 255 255
3.41827 -13.1714 90.0853 -0.99909 0 0.042644  255 255 255 255
3.41827 -14.2571 90.0853 -0.99909 0 0.042644  255 255 255 255
3.41827 -15.3429 90.0853 -0.99909 0 0.042644  255 255 255 255
3.41827 -16.4286 90.0853 -0.99909 0 0.042644  255 255 255 255
3.41827 -17.5143 90.0853 -0.99909 0 0.042644  255 255 255 255
3.41827 -18.6 90.0853 -0.99909 0 0.042644  255 255 255 255
3.41827 -19.6857 90.0853 -0.99909 0 0.042644  255 255 255 255
3.41827 -20.7714 90.0853 -0.99909 0 0.042644  255 255 255 255
3.41827 -21.8571 90.0853 -0.99909 0 0.042644  255 255 255 255
3.41827 -22.9429 90.0853 -0.99909 0 0.042644  255 255 255 255
3.41827 -24.0286 90.0853 -0.99909 0 0.042644  255 255 255 255
3.41827 -25.1143 90.0853 -0.99909 0 0.042644  255 255 255 255
3.41827 -26.2 90.0853 -0.99909 0 0.042644  255 255 255 255
3.41827 -27.2857 90.0853 -0.99909 0 0.042644  255 255 255 255
3.41827 -28.3714 90.0853 -0.99909 0 0.042644  255 255 255 255
3.41827 -29.4571 90.0853 -0.99909 0 0.042644  255 255 255 255
3.41827 -30.5429 90.0853 -0.99909 0 0.042644  255 255 255 255
3.41827 -31.6286 90.0853 -0.99909 0 0.042644  255 255 255 255
3.41827 -32.7143 90.0853 -0.99909 0 0.042644  255 255 255 255
3.41827 -33.8 90.0853 -0.99909 0 0.042644  255 255 255 255
3.41827 -34.8857 90.0853 -0.99909 0 0.042644  255 255 255 255
3.41827 -35.9714 90.0853 -0.99909 0 0.042644  255 255 255 255
3.41827 -37.0571 90.0853 -0.99909 0 0.042644  255 255 255 255
3.41827 -38.1429 90.0853 -0.99909 0 0.042644  255 255 255 255
3.41827 -39.2286 90.0853 -0.99909 0 0.042644  255 255 255 255
3.41827 -40.3143 90.0853 -0.99909 0 0.042644  255 255 255 255
3.41827 -41.4 90.0853 -0.99909 0 0.042644  255 255 255 255
3.41827 -42.4857 90.0853 -0.99909 0 0.042644  255 255 255 255
3.41827 -43.5714 90.0853 -0.99909 0 0.042644  255 255 255 255
3.41827 -44.6571 90.0853 -0.99909 0 0.042644  255 255 255 255
3.41827 -45.7429 90.0853 -0.99909 0 0.042644  255 255 255 255
3.41827 -46.8286 90.0853 -0.99909 0 0.042644  255 255 255 255
3.41827 -47.9143 90.0853 -0.99909 0 0.042644  255 255 255 255
1 -7.73205 90 -0.5 -0.866025 0  255 255 255 255
0.267949 -7 90 -0.866025 -0.5 0  255 255 255 255
0.429367 -7.2383 9.82136 -0.693262 -0.353787 0.351967  255 255 255 255
0.103869 -6.6364 9.44399 -0.922039 -0.159093 0.221977  255 255 255 255
1.48236 -7.93185 10 -0.12941 -0.482963 0.5  255 255 255 255
2 -8 88.9041 0.5 -0.5 0  255 0 0 255
2 -8 87.8082 0.5 -0.5 0  255 0 0 255
2 -8 86.7123 0.5 -0.5 0  255 0 0 255
2 -8 85.6164 0.5 -0.5 0  255 0 0 255
2 -8 84.5205 0.5 -0.5 0  255 0 0 255
2 -8 83.4247 0.5 -0.5 0  255 0 0 255
2 -8 82.3288 0.5 -0.5 0  255 0 0 255
2 -8 81.2329 0.5 -0.5 0  255 0 0 255
2 -8 80.137 0.5 -0.5 0  255 0 0 255
2 -8 79.0411 0.5 -0.5 0  255 0 0 255
2 -8 77.9452 0.5 -0.5 0  255 0 0 255
2 -8 76.8493 0.5 -0.5 0  255 0 0 255
2 -8 75.7534 0.428571 -0.571429 0  255 0 0 255
2 -8 74.6575 0.5 -0.5 0  255 0 0 255
2 -8 73.5616 0.5 -0.5 0  255 0 0 255
2 -8 72.4658 0.5 -0.5 0  255 0 0 255
2 -8 71.3699 0.428571 -0.571429 0  255 0 0 255
2 -8 70.274 0.5 -0.5 0  255 0 0 255
2 -8 69.1781 0.5 -0.5 0  255 0 0 255
2 -8 68.0822 0.5 -0.5 0  255 0 0 255
2 -8 66.9863 0.5 -0.5 0  255 0 0 255
2 -8 65.8904 0.5 -0.5 0  255 0 0 255
2 -8 64.7945 0.428571 -0.571429 0  255 0 0 255
2 -8 63.6986 0.428571 -0.571429 0  255 0 0 255
2 -8 62.6027 0.428571 -0.571429 0  255 0 0 255
2 -8 61.5068 0.5 -0.5 0  255 0 0 255
2 -8 60.411 0.5 -0.5 0  255 0 0 255
2 -8 59.3151 0.5 -0.5 0  255 0 0 255
2 -8 58.2192 0.428571 -0.571429 0  255 255 255 255
2 -8 57.1233 0.5 -0.5 0  255 0 0 255
2 -8 56.0274 0.5 -0.5 0  255 0 0 255
2 -8 54.9315 0.5 -0.5 0  255 0 0 255
2 -8 53.8356 0.5 -0.5 0  255 0 0 255
2 -8 52.7397 0.428571 -0.571429 0  255 0 0 255
2 -8 51.6438 0.428571 -0.571429 0  255 0 0 255
2 -8 50.5479 0.428571 -0.571429 0  255 0 0 255
2 -8 49.4521 0.428571 -0.571429 0  255 0 0 255
2 -8 48.3562 0.428571 -0.571429 0  255 0 0 255
2 -8 47.2603 0.428571 -0.571429 0  255 0 0 255
2 -8 46.1644 0.428571 -0.571429 0  255 0 0 255
2 -8 45.0685 0.375 -0.625 0  255 0 0 255
2 -8 43.9726 0.6 -0.4 0  255 0 0 255
2 -8 42.8767 0.333333 -0.666667 0  255 0 0 255
2 -8 41.7808 0.375 -0.625 0  255 0 0 255
2 -8 40.6849 0.428571 -0.571429 0  255 0 0 255
2 -8 39.589 0.428571 -0.571429 0  255 0 0 255
2 -8 38.4932 0.428571 -0.571429 0  255 0 0 255
2 -8 37.3973 0.428571 -0.571429 0  255 0 0 255
2 -8 36.3014 0.428571 -0.571429 0  255 0 0 255
2 -8 35.2055 0.428571 -0.571429 0  255 0 0 255
2 -8 34.1096 0.428571 -0.571429 0  255 0 0 255
2 -8 33.0137 0.428571 -0.571429 0  255 0 0 255
2 -8 31.9178 0.428571 -0.571429 0  255 0 0 255
2 -8 30.8219 0.5 -0.5 0  255 0 0 255
2 -8 29.726 0.428571 -0.571429 0  255 0 0 255
2 -8 28.6301 0.5 -0.5 0  255 0 0 255
2 -8 27.5342 0.428571 -0.571429 0  255 0 0 255
2 -8 26.4384 0.428571 -0.571429 0  255 0 0 255
2 -8 25.3425 0.375 -0.625 0  255 0 0 255
2 -8 24.2466 0.375 -0.625 0  255 0 0 255
2 -8 23.1507 0.428571 -0.571429 0  255 0 0 255
2 -8 22.0548 0.375 -0.625 0  255 0 0 255
2 -8 20.9589 0.375 -0.625 0  255 0 0 255
2 -8 19.863 0.428571 -0.571429 0  255 0 0 255
2 -8 18.7671 0.375 -0.625 0  255 0 0 255
2 -8 17.6712 0.428571 -0.571429 0  255 0 0 255
2 -8 16.5753 0.428571 -0.571429 0  255 0 0 255
2 -8 15.4795 0.375 -0.625 0  255 0 0 255
2 -8 14.3836 0.444444 -0.555556 0  255 0 0 255
2 -8 13.2877 0.375 -0.625 0  255 0 0 255
2 -8 12.1918 0.428571 -0.571429 0  255 0 0 255
2 -8 11.0959 0.5 -0.5 0  255 0 0 255
2 -7 91.732 0.375 -0.3125 0.541266  255 0 0 255
2 -7.73205 91 0.6 -0.34641 0.2  255 0 0 255
0.267949 -53 90 -0.866025 0.5 0  255 255 255 255
1 -52.2679 90 -0.5 0.866025 0  255 255 255 255
2 -52 88.9041 0.5 0.5 0  255 0 0 255
2 -52 87.8082 0.5 0.5 0  255 0 0 255
2 -52 86.7123 0.5 0.5 0  255 0 0 255
2 -52 85.6164 0.5 0.5 0  255 0 0 255
2 -52 84.5205 0.5 0.5 0  255 0 0 255
2 -52 83.4247 0.5 0.5 0  255 0 0 255
2 -52 82.3288 0.5 0.5 0  255 0 0 255
2 -52 81.2329 0.5 0.5 0  255 0 0 255
2 -52 80.137 0.5 0.5 0  255 0 0 255
2 -52 79.0411 0.5 0.5 0  255 0 0 255
2 -52 77.9452 0.5 0.5 0  255 0 0 255
2 -52 76.8493 0.5 0.5 0  255 0 0 255
2 -52 75.7534 0.428571 0.571429 0  255 0 0 255
2 -52 74.6575 0.5 0.5 0  255 0 0 255
2 -52 73.5616 0.5 0.5 0  255 0 0 255
2 -52 72.4658 0.5 0.5 0  255 0 0 255
2 -52 71.3699 0.428571 0.571429 0  255 0 0 255
2 -52 70.274 0.5 0.5 0  255 255 255 255
2 -52 69.1781 0.5 0.5 0  255 0 0 255
2 -52 68.0822 0.5 0.5 0  255 0 0 255
2 -52 66.9863 0.5 0.5 0  255 0 0 255
2 -52 65.8904 0.5 0.5 0  255 0 0 255
2 -52 64.7945 0.428571 0.571429 0  255 0 0 255
2 -52 63.6986 0.428571 0.571429 0  255 0 0 255
2 -52 62.6027 0.428571 0.571429 0  255 0 0 255
2 -52 61.5068 0.5 0.5 0  255 0 0 255
2 -52 60.411 0.5 0.5 0  255 0 0 255
2 -52 59.3151 0.5 0.5 0  255 0 0 255
2 -52 58.2192 0.428571 0.571429 0  255 0 0 255
2 -52 57.1233 0.5 0.5 0  255 255 255 255
2 -52 56.0274 0.5 0.5 0  255 0 0 255
2 -52 54.9315 0.5 0.5 0  255 0 0 255
2 -52 53.8356 0.5 0.5 0  255 0 0 255
2 -52 52.7397 0.428571 0.571429 0  255 0 0 255
2 -52 51.6438 0.428571 0.571429 0  255 0 0 255
2 -52 50.5479 0.428571 0.571429 0  255 0 0 255
2 -52 49.4521 0.428571 0.571429 0  255 0 0 255
2 -52 48.3562 0.428571 0.571429 0  255 0 0 255
2 -52 47.2603 0.428571 0.571429 0  255 0 0 255
2 -52 46.1644 0.428571 0.571429 0  255 0 0 255
2 -52 45.0685 0.375 0.625 0  255 0 0 255
2 -52 43.9726 0.6 0.4 0  255 0 0 255
2 -52 42.8767 0.333333 0.666667 0  255 0 0 255
2 -52 41.7808 0.375 0.625 0  255 0 0 255
2 -52 40.6849 0.428571 0.571429 0  255 0 0 255
2 -52 39.589 0.428571 0.571429 0  255 0 0 255
2 -52 38.4932 0.428571 0.571429 0  255 0 0 255
2 -52 37.3973 0.428571 0.571429 0  255 0 0 255
2 -52 36.3014 0.428571 0.571429 0  255 0 0 255
2 -52 35.2055 0.428571 0.571429 0  255 0 0 255
2 -52 34.1096 0.428571 0.571429 0  255 0 0 255
2 -52 33.0137 0.428571 0.571429 0  255 0 0 255
2 -52 31.9178 0.428571 0.571429 0  255 0 0 255
2 -52 30.8219 0.5 0.5 0  255 0 0 255
2 -52 29.726 0.428571 0.571429 0  255 0 0 255
2 -52 28.6301 0.5 0.5 0  255 0 0 255
2 -52 27.5342 0.428571 0.571429 0  255 0 0 255
2 -52 26.4384 0.428571 0.571429 0  255 0 0 255
2 -52 25.3425 0.375 0.625 0  255 0 0 255
2 -52 24.2466 0.375 0.625 0  255 0 0 255
2 -52 23.1507 0.428571 0.571429 0  255 0 0 255
2 -52 22.0548 0.375 0.625 0  255 0 0 255
2 -52 20.9589 0.375 0.625 0  255 0 0 255
