ply
format ascii 1.0
comment VCGLIB generated
element vertex 908
property float x
property float y
property float z
property float nx
property float ny
property float nz
property uchar red
property uchar green
property uchar blue
property uchar alpha
element face 0
property list uchar int vertex_indices
end_header
5.08788 31.343 2.75821 1 0 0  255 255 255 255
5.08788 19.8317 2.68998 1 0 0  255 255 255 255
5.08788 22.5851 2.80346 1 0 0  255 255 255 255
5.08788 9.58684 2.75 1 0 0  255 255 255 255
5.08788 11.7433 2.72705 1 0 0  255 255 255 255
5.08788 32.8273 2.80446 1 0 0  255 255 255 255
5.08788 28.5347 2.74991 1 0 0  255 255 255 255
5.08788 25.7924 2.80344 1 0 0  255 255 255 255
5.08788 5.32733 2.75 1 0 0  255 255 255 255
5.08788 8.13662 2.75 1 0 0  255 255 255 255
5.08788 29.9655 2.75 1 0 0  255 255 255 255
5.08788 27.2999 2.75009 1 0 0  255 255 255 255
5.08788 21.0777 2.74991 1 0 0  255 255 255 255
5.08788 44.7986 2.87257 1 0 0  255 255 255 255
5.08788 40.954 2.95892 1 0 0  255 255 255 255
5.08788 37.1683 2.95892 1 0 0  255 255 255 255
5.08788 10.666 2.95935 1 0 0  255 255 255 255
5.08788 42.8468 2.38823 1 0 0  255 255 255 255
5.08788 39.0611 2.38823 1 0 0  255 255 255 255
5.08788 17.4286 2.38823 1 0 0  255 255 255 255
5.08788 33.653 3.11177 1 0 0  255 255 255 255
5.08788 12.5613 2.38823 1 0 0  255 255 255 255
5.08788 23.3776 3.11177 1 0 0  255 255 255 255
5.08788 35.3376 3.13996 1 0 0  255 255 255 255
5.08788 19.0656 3.16969 1 0 0  255 255 255 255
5.08788 15.8062 2.38823 1 0 0  255 255 255 255
5.08788 14.1837 2.38823 1 0 0  255 255 255 255
5.08788 25 3.11177 1 0 0  255 255 255 255
5.08788 32.0306 3.11177 1 0 0  255 255 255 255
5.08788 6.10643 3.13284 1 0 0  255 255 255 255
5.08788 8.84346 2.31283 1 0 0  255 255 255 255
5.08788 21.823 3.18717 1 0 0  255 255 255 255
5.08788 29.2593 2.31275 1 0 0  255 255 255 255
5.08788 26.5238 2.31494 1 0 0  255 255 255 255
5.08788 21.8548 2.31423 1 0 0  255 255 255 255
5.08788 29.2588 3.18749 1 0 0  255 255 255 255
5.08788 8.85214 3.20896 1 0 0  255 255 255 255
5.08788 26.5541 3.18741 1 0 0  255 255 255 255
5.08788 6.12897 2.29854 1 0 0  255 255 255 255
5.08788 38.9369 3.23382 1 0 0  255 255 255 255
5.08788 18.9957 2.29347 1 0 0  255 255 255 255
5.08788 17.3017 3.19411 1 0 0  255 255 255 255
5.08788 15.7508 3.20653 1 0 0  255 255 255 255
5.08788 14.2391 3.20653 1 0 0  255 255 255 255
5.08788 42.9777 3.23 1 0 0  255 255 255 255
5.08788 35.1486 2.30589 1 0 0  255 255 255 255
5.08788 12.6882 3.19411 1 0 0  255 255 255 255
5.08788 24.9446 2.29347 1 0 0  255 255 255 255
5.08788 33.5261 2.30589 1 0 0  255 255 255 255
5.08788 23.4329 2.29347 1 0 0  255 255 255 255
5.08788 31.9754 2.29355 1 0 0  255 255 255 255
5.08788 4.7062 3.23469 1 0 0  255 255 255 255
5.08788 4.69828 2.26443 1 0 0  255 255 255 255
5.08788 45.3111 2.2643 1 0 0  255 255 255 255
5.08788 40.5399 2.28629 1 0 0  255 255 255 255
5.08788 41.368 2.28629 1 0 0  255 255 255 255
5.08788 37.5823 2.28629 1 0 0  255 255 255 255
5.08788 36.7251 2.27612 1 0 0  255 255 255 255
5.08788 11.0627 2.29176 1 0 0  255 255 255 255
5.08788 10.2544 2.28629 1 0 0  255 255 255 255
5.08788 44.4201 2.30457 1 0 0  255 255 255 255
5.08788 7.56599 2.2684 1 0 0  255 255 255 255
5.08788 7.56617 3.23166 1 0 0  255 255 255 255
5.08788 20.4432 2.21983 1 0 0  255 255 255 255
5.08788 27.8812 2.26855 1 0 0  255 255 255 255
5.08788 27.8812 3.23148 1 0 0  255 255 255 255
5.08788 20.4963 3.23145 1 0 0  255 255 255 255
5.08788 30.5361 2.2684 1 0 0  255 255 255 255
5.08788 30.5359 3.23166 1 0 0  255 255 255 255
5.08788 46.4839 3.25686 1 0 0  255 255 255 255
5.08788 46.5111 2.34715 1 0 0  255 255 255 255
5.08788 3.51974 3.25 1 0 0  255 255 255 255
5.08788 3.48892 2.34712 1 0 0  255 255 255 255
5.08788 44.188 3.27472 1 0 0  255 255 255 255
5.08788 45.4366 3.26117 1 0 0  255 255 255 255
5.08788 37.7612 3.2836 1 0 0  255 255 255 255
5.08788 40.4384 3.28024 1 0 0  255 255 255 255
5.08788 36.666 3.27803 1 0 0  255 255 255 255
5.08788 41.4695 3.28024 1 0 0  255 255 255 255
5.08788 11.1741 3.28195 1 0 0  255 255 255 255
5.08788 10.1709 3.28229 1 0 0  255 255 255 255
5.08788 39.5585 3.35644 1 0 0  255 255 255 255
5.08788 42.3497 3.35628 1 0 0  255 255 255 255
5.08788 34.183 2.23752 1 0 0  255 255 255 255
5.08788 17.9097 3.32478 1 0 0  255 255 255 255
5.08788 22.802 2.28385 1 0 0  255 255 255 255
5.08788 12.0657 3.35345 1 0 0  255 255 255 255
5.08788 35.7985 2.21593 1 0 0  255 255 255 255
5.08788 13.6465 3.28903 1 0 0  255 255 255 255
5.08788 25.5757 2.28399 1 0 0  255 255 255 255
5.08788 32.5679 2.21098 1 0 0  255 255 255 255
5.08788 19.5891 2.20846 1 0 0  255 255 255 255
5.08788 16.3435 3.28903 1 0 0  255 255 255 255
5.08788 38.2579 1.93164 1 0 0  255 255 255 255
5.08788 42.0448 1.94182 1 0 0  255 255 255 255
5.08788 39.8631 1.94182 1 0 0  255 255 255 255
5.08788 13.3737 2.08149 1 0 0  255 255 255 255
5.08788 14.995 2.08143 1 0 0  255 255 255 255
5.08788 24.1888 3.41857 1 0 0  255 255 255 255
5.08788 14.995 3.57882 1 0 0  255 255 255 255
5.08788 18.2358 1.94075 1 0 0  255 255 255 255
5.08788 16.6163 2.08149 1 0 0  255 255 255 255
5.08788 11.7593 1.94182 1 0 0  255 255 255 255
5.08788 22.5718 3.41882 1 0 0  255 255 255 255
5.08788 34.4631 3.41851 1 0 0  255 255 255 255
5.08788 9.5919 1.93047 1 0 0  255 255 255 255
5.08788 24.1888 1.92118 1 0 0  255 255 255 255
5.08788 25.8057 3.41881 1 0 0  255 255 255 255
5.08788 32.8406 3.41851 1 0 0  255 255 255 255
5.08788 43.6486 1.93049 1 0 0  255 255 255 255
5.08788 19.8501 3.55879 1 0 0  255 255 255 255
5.08788 28.5128 3.57011 1 0 0  255 255 255 255
5.08788 6.87354 1.92169 1 0 0  255 255 255 255
5.08788 28.5131 1.92989 1 0 0  255 255 255 255
5.08788 31.2307 3.56937 1 0 0  255 255 255 255
5.08788 31.227 1.92187 1 0 0  255 255 255 255
5.08788 6.87479 3.57098 1 0 0  255 255 255 255
5.08788 5.56092 2.21762 1 0 0  255 255 255 255
5.08788 35.8449 3.37302 1 0 0  255 255 255 255
5.08788 5.21265 3.51848 1 0 0  255 255 255 255
5.08788 29.8383 3.36887 1 0 0  255 255 255 255
5.08788 21.2584 2.15538 1 0 0  255 255 255 255
5.08788 27.1204 3.34469 1 0 0  255 255 255 255
5.08788 8.2638 3.36887 1 0 0  255 255 255 255
5.08788 8.26296 2.13107 1 0 0  255 255 255 255
5.08788 21.2565 3.34465 1 0 0  255 255 255 255
5.08788 29.8392 2.13107 1 0 0  255 255 255 255
5.08788 27.1199 2.15543 1 0 0  255 255 255 255
5.08788 43.6106 3.47046 1 0 0  255 255 255 255
5.08788 4.10863 3.42056 1 0 0  255 255 255 255
5.08788 4.2095 2.01709 1 0 0  255 255 255 255
5.08788 9.3339 3.29441 1 0 0  255 255 255 255
5.08788 45.8027 1.9999 1 0 0  255 255 255 255
5.08788 38.3163 3.4785 1 0 0  255 255 255 255
5.08788 44.6729 3.56945 1 0 0  255 255 255 255
5.08788 18.594 3.39006 1 0 0  255 255 255 255
5.08788 46.7195 2.76248 1 0 0  255 255 255 255
5.08788 3.2886 2.75866 1 0 0  255 255 255 255
5.08788 45.9536 3.45282 1 0 0  255 255 255 255
5.08788 37.1749 3.53192 1 0 0  255 255 255 255
5.08788 40.954 3.54356 1 0 0  255 255 255 255
5.08788 10.6693 3.56058 1 0 0  255 255 255 255
5.08788 44.8002 1.95592 1 0 0  255 255 255 255
5.08788 26.0592 2.0526 1 0 0  255 255 255 255
5.08788 22.319 2.052 1 0 0  255 255 255 255
5.08788 37.1683 1.96747 1 0 0  255 255 255 255
5.08788 40.954 1.96061 1 0 0  255 255 255 255
5.08788 10.6656 1.96139 1 0 0  255 255 255 255
5.08788 42.5322 2.86016 1 0 0  255 255 255 255
5.08788 23.1097 2.67875 1 0 0  255 255 255 255
5.08788 33.914 2.67675 1 0 0  255 255 255 255
5.08788 39.3768 2.86073 1 0 0  255 255 255 255
5.08788 17.7332 2.84458 1 0 0  255 255 255 255
5.08788 12.2447 2.85491 1 0 0  255 255 255 255
5.08788 25.2678 2.67876 1 0 0  255 255 255 255
5.08788 13.9132 2.83133 1 0 0  255 255 255 255
5.08788 35.5225 2.67275 1 0 0  255 255 255 255
5.08788 16.0767 2.83133 1 0 0  255 255 255 255
5.08788 19.3215 2.66607 1 0 0  255 255 255 255
5.08788 32.3011 2.66867 1 0 0  255 255 255 255
5.08788 34.6827 2.01485 1 0 0  255 255 255 255
5.08788 13.1537 3.4863 1 0 0  255 255 255 255
5.08788 16.8362 3.4863 1 0 0  255 255 255 255
5.08788 33.0606 2.0137 1 0 0  255 255 255 255
5.08788 37.7273 2.77718 1 0 0  255 255 255 255
5.08788 10.1082 2.78536 1 0 0  255 255 255 255
5.08788 11.2008 2.76769 1 0 0  255 255 255 255
5.08788 40.4009 2.76391 1 0 0  255 255 255 255
5.08788 36.6127 2.75594 1 0 0  255 255 255 255
5.08788 41.507 2.76391 1 0 0  255 255 255 255
5.08788 42.5958 1.95169 1 0 0  255 255 255 255
5.08788 38.8089 1.93995 1 0 0  255 255 255 255
5.08788 33.9205 3.52754 1 0 0  255 255 255 255
5.08788 23.6645 3.53452 1 0 0  255 255 255 255
5.08788 39.3209 1.94753 1 0 0  255 255 255 255
5.08788 12.3105 1.95184 1 0 0  255 255 255 255
5.08788 24.7131 3.53452 1 0 0  255 255 255 255
5.08788 15.5193 1.96548 1 0 0  255 255 255 255
5.08788 13.9162 1.97246 1 0 0  255 255 255 255
5.08788 17.6803 1.95166 1 0 0  255 255 255 255
5.08788 25.2693 3.52762 1 0 0  255 255 255 255
5.08788 23.1083 3.52762 1 0 0  255 255 255 255
5.08788 17.1383 1.96463 1 0 0  255 255 255 255
5.08788 12.8516 1.96464 1 0 0  255 255 255 255
5.08788 14.473 1.96589 1 0 0  255 255 255 255
5.08788 32.2984 3.52774 1 0 0  255 255 255 255
5.08788 33.3637 3.53411 1 0 0  255 255 255 255
5.08788 16.076 1.97242 1 0 0  255 255 255 255
5.08788 35.0088 3.54358 1 0 0  255 255 255 255
5.08788 43.1076 1.93729 1 0 0  255 255 255 255
5.08788 19.3545 3.5358 1 0 0  255 255 255 255
5.08788 31.7733 3.55935 1 0 0  255 255 255 255
5.08788 44.2884 2.78695 1 0 0  255 255 255 255
5.08788 5.80826 3.55593 1 0 0  255 255 255 255
5.08788 36.2849 1.98524 1 0 0  255 255 255 255
5.08788 5.83822 2.69429 1 0 0  255 255 255 255
5.08788 45.3559 2.78894 1 0 0  255 255 255 255
5.08788 20.049 1.9617 1 0 0  255 255 255 255
5.08788 4.80855 2.76792 1 0 0  255 255 255 255
5.08788 6.33587 3.56788 1 0 0  255 255 255 255
5.08788 7.63835 2.75 1 0 0  255 255 255 255
5.08788 27.8864 2.75005 1 0 0  255 255 255 255
5.08788 20.4476 2.73954 1 0 0  255 255 255 255
5.08788 30.4638 2.75 1 0 0  255 255 255 255
5.08788 5.09514 1.95377 1 0 0  255 255 255 255
5.08788 38.7876 2.77391 1 0 0  255 255 255 255
5.08788 43.1379 2.76465 1 0 0  255 255 255 255
5.08788 15.5396 2.75539 1 0 0  255 255 255 255
5.08788 23.6446 2.74629 1 0 0  255 255 255 255
5.08788 18.7131 2.82174 1 0 0  255 255 255 255
5.08788 34.9943 2.75022 1 0 0  255 255 255 255
5.08788 12.8633 2.75464 1 0 0  255 255 255 255
5.08788 24.7329 2.74629 1 0 0  255 255 255 255
5.08788 17.1037 2.75 1 0 0  255 255 255 255
5.08788 33.3638 2.74619 1 0 0  255 255 255 255
5.08788 14.4504 2.75539 1 0 0  255 255 255 255
5.08788 31.7856 2.72888 1 0 0  255 255 255 255
5.08788 6.3269 2.73584 1 0 0  255 255 255 255
5.08788 8.6199 2.75076 1 0 0  255 255 255 255
5.08788 29.4822 2.75076 1 0 0  255 255 255 255
5.08788 21.5847 2.74959 1 0 0  255 255 255 255
5.08788 26.7929 2.75064 1 0 0  255 255 255 255
5.08788 9.08531 2.78139 1 0 0  255 255 255 255
5.08788 26.3028 2.76519 1 0 0  255 255 255 255
5.08788 22.0748 2.76496 1 0 0  255 255 255 255
5.08788 29.0317 2.75006 1 0 0  255 255 255 255
5.08788 37.1661 2.48103 1 0 0  255 255 255 255
5.08788 40.954 2.48086 1 0 0  255 255 255 255
5.08788 10.6639 2.48357 1 0 0  255 255 255 255
5.08788 22.0737 3.55272 1 0 0  255 255 255 255
5.08788 9.10592 1.9328 1 0 0  255 255 255 255
5.08788 28.9897 1.93443 1 0 0  255 255 255 255
5.08788 26.3034 3.5528 1 0 0  255 255 255 255
5.08788 28.989 3.56579 1 0 0  255 255 255 255
5.08788 35.4566 3.61131 1 0 0  255 255 255 255
5.08788 34.0801 3.10781 1 0 0  255 255 255 255
5.08788 12.0195 2.38112 1 0 0  255 255 255 255
5.08788 39.6024 2.38105 1 0 0  255 255 255 255
5.08788 22.9505 3.10808 1 0 0  255 255 255 255
5.08788 32.4596 3.10623 1 0 0  255 255 255 255
5.08788 25.427 3.10808 1 0 0  255 255 255 255
5.08788 13.7548 2.39381 1 0 0  255 255 255 255
5.08788 17.9709 2.37094 1 0 0  255 255 255 255
5.08788 42.3072 2.38164 1 0 0  255 255 255 255
5.08788 16.2356 2.3938 1 0 0  255 255 255 255
5.08788 19.5887 3.1164 1 0 0  255 255 255 255
5.08788 8.97616 3.6241 1 0 0  255 255 255 255
5.08788 7.83961 3.55868 1 0 0  255 255 255 255
5.08788 27.5585 3.55868 1 0 0  255 255 255 255
5.08788 20.8189 1.93085 1 0 0  255 255 255 255
5.08788 30.2625 3.55868 1 0 0  255 255 255 255
5.08788 6.3581 1.90616 1 0 0  255 255 255 255
5.08788 7.83909 1.9412 1 0 0  255 255 255 255
5.08788 30.263 1.9412 1 0 0  255 255 255 255
5.08788 27.559 1.9412 1 0 0  255 255 255 255
5.08788 20.8186 3.5588 1 0 0  255 255 255 255
5.08788 38.812 3.66174 1 0 0  255 255 255 255
5.08788 18.7551 1.92184 1 0 0  255 255 255 255
5.08788 14.479 3.58143 1 0 0  255 255 255 255
5.08788 31.7602 1.87036 1 0 0  255 255 255 255
5.08788 15.5109 3.58143 1 0 0  255 255 255 255
5.08788 24.7047 1.91857 1 0 0  255 255 255 255
5.08788 23.6728 1.91857 1 0 0  255 255 255 255
5.08788 43.1011 3.65937 1 0 0  255 255 255 255
5.08788 41.915 3.58014 1 0 0  255 255 255 255
5.08788 39.993 3.58016 1 0 0  255 255 255 255
5.08788 11.6287 3.58005 1 0 0  255 255 255 255
5.08788 17.5954 3.59554 1 0 0  255 255 255 255
5.08788 12.4324 3.60821 1 0 0  255 255 255 255
5.08788 33.7854 1.90107 1 0 0  255 255 255 255
5.08788 35.4072 1.89887 1 0 0  255 255 255 255
5.08788 5.56128 3.11993 1 0 0  255 255 255 255
5.08788 21.6245 3.61691 1 0 0  255 255 255 255
5.08788 29.4479 1.90339 1 0 0  255 255 255 255
5.08788 26.747 1.89223 1 0 0  255 255 255 255
5.08788 8.65359 1.90323 1 0 0  255 255 255 255
5.08788 21.631 1.89205 1 0 0  255 255 255 255
5.08788 29.4475 3.59672 1 0 0  255 255 255 255
5.08788 26.7527 3.61698 1 0 0  255 255 255 255
5.08788 46.7585 1.91416 1 0 0  255 255 255 255
5.08788 46.7758 3.604 1 0 0  255 0 0 255
5.08788 3.2249 3.60295 1 0 0  255 0 0 255
5.08788 3.2415 1.91415 1 0 0  255 255 255 255
5.08788 41.5022 1.87005 1 0 0  255 255 255 255
5.08788 40.4057 1.87005 1 0 0  255 255 255 255
5.08788 37.7165 1.8699 1 0 0  255 255 255 255
5.08788 10.1207 1.86959 1 0 0  255 255 255 255
5.08788 11.2157 1.87032 1 0 0  255 255 255 255
5.08788 44.9119 2.44768 1 0 0  255 255 255 255
5.08788 44.1971 1.88988 1 0 0  255 255 255 255
5.08788 42.7067 3.63406 1 0 0  255 255 255 255
5.08788 39.203 3.63496 1 0 0  255 255 255 255
5.08788 19.2018 1.89014 1 0 0  255 255 255 255
5.08788 25.2502 1.88889 1 0 0  255 255 255 255
5.08788 14.033 3.60996 1 0 0  255 255 255 255
5.08788 32.1849 1.88316 1 0 0  255 255 255 255
5.08788 23.1276 1.88886 1 0 0  255 255 255 255
5.08788 15.957 3.60996 1 0 0  255 255 255 255
5.08788 28.0284 3.57306 1 0 0  255 255 255 255
5.08788 30.7265 3.57296 1 0 0  255 255 255 255
5.08788 7.41656 3.65517 1 0 0  255 255 255 255
5.08788 46.3309 3.64732 1 0 0  255 255 255 255
5.08788 7.37582 1.92554 1 0 0  255 255 255 255
5.08788 28.0285 1.92693 1 0 0  255 255 255 255
5.08788 20.3466 3.57119 1 0 0  255 255 255 255
5.08788 30.686 1.84505 1 0 0  255 255 255 255
5.08788 3.66981 3.64791 1 0 0  255 255 255 255
5.08788 3.68302 1.94645 1 0 0  255 255 255 255
5.08788 46.319 1.94361 1 0 0  255 255 255 255
5.08788 18.9151 3.61911 1 0 0  255 255 255 255
5.08788 5.93006 1.88446 1 0 0  255 255 255 255
5.08788 4.70615 3.6505 1 0 0  255 255 255 255
5.08788 45.2805 1.83258 1 0 0  255 255 255 255
5.08788 36.2509 3.58021 1 0 0  255 255 255 255
5.08788 7.90421 3.12457 1 0 0  255 255 255 255
5.08788 20.835 2.36593 1 0 0  255 255 255 255
5.08788 30.1979 3.12457 1 0 0  255 255 255 255
5.08788 27.5143 3.1221 1 0 0  255 255 255 255
5.08788 7.90391 2.37561 1 0 0  255 255 255 255
5.08788 27.5145 2.37812 1 0 0  255 255 255 255
5.08788 30.1982 2.37561 1 0 0  255 255 255 255
5.08788 20.8585 3.12082 1 0 0  255 255 255 255
5.08788 38.5285 2.36769 1 0 0  255 255 255 255
5.08788 15.3454 2.35883 1 0 0  255 255 255 255
5.08788 34.8258 3.1385 1 0 0  255 255 255 255
5.08788 14.6447 2.35886 1 0 0  255 255 255 255
5.08788 23.8384 3.14129 1 0 0  255 255 255 255
5.08788 13.0158 2.37037 1 0 0  255 255 255 255
5.08788 16.9709 2.36971 1 0 0  255 255 255 255
5.08788 24.5392 3.14129 1 0 0  255 255 255 255
5.08788 33.2005 3.12956 1 0 0  255 255 255 255
5.08788 6.54181 3.14753 1 0 0  255 255 255 255
5.08788 45.2793 3.64935 1 0 0  255 255 255 255
5.08788 43.3835 2.36458 1 0 0  255 255 255 255
5.08788 31.5596 3.1472 1 0 0  255 255 255 255
5.08788 4.68839 1.84706 1 0 0  255 255 255 255
5.08788 5.09804 2.39075 1 0 0  255 255 255 255
5.08788 36.6771 1.85814 1 0 0  255 255 255 255
5.08788 8.61542 3.63374 1 0 0  255 255 255 255
5.08788 9.34209 2.35506 1 0 0  255 255 255 255
5.08788 22.2257 3.14543 1 0 0  255 255 255 255
5.08788 26.1517 3.14553 1 0 0  255 255 255 255
5.08788 18.1837 3.62926 1 0 0  255 255 255 255
5.08788 28.7662 2.34983 1 0 0  255 255 255 255
5.08788 28.766 3.15024 1 0 0  255 255 255 255
5.08788 36.3056 2.39461 1 0 0  255 255 255 255
5.08788 4.38644 2.56504 1 0 0  255 255 255 255
5.08788 39.9478 3.15639 1 0 0  255 255 255 255
5.08788 11.6746 3.15639 1 0 0  255 255 255 255
5.08788 41.9602 3.15639 1 0 0  255 255 255 255
5.08788 40.1133 2.32803 1 0 0  255 255 255 255
5.08788 38.0117 2.33037 1 0 0  255 255 255 255
5.08788 11.5002 2.32996 1 0 0  255 255 255 255
5.08788 41.7949 2.32813 1 0 0  255 255 255 255
5.08788 9.83549 2.35615 1 0 0  255 255 255 255
5.08788 20.0721 2.3639 1 0 0  255 255 255 255
5.08788 4.32024 3.06851 1 0 0  255 255 255 255
5.08788 45.6827 2.43009 1 0 0  255 255 255 255
5.08788 20.4243 1.82689 1 0 0  255 255 255 255
5.08788 18.4826 2.34267 1 0 0  255 255 255 255
5.08788 14.7394 3.14573 1 0 0  255 255 255 255
5.08788 24.4443 2.35455 1 0 0  255 255 255 255
5.08788 23.9287 2.34812 1 0 0  255 255 255 255
5.08788 15.2551 3.15221 1 0 0  255 255 255 255
5.08788 43.932 2.33682 1 0 0  255 255 255 255
5.08788 7.12914 2.42193 1 0 0  255 255 255 255
5.08788 7.12914 3.07807 1 0 0  255 255 255 255
5.08788 20.0935 3.15123 1 0 0  255 255 255 255
5.08788 28.2685 2.35569 1 0 0  255 255 255 255
5.08788 30.973 3.07807 1 0 0  255 255 255 255
5.08788 30.973 2.42193 1 0 0  255 255 255 255
5.08788 28.2684 3.14431 1 0 0  255 255 255 255
5.08788 6.59569 2.34009 1 0 0  255 255 255 255
5.08788 31.5107 2.33247 1 0 0  255 255 255 255
5.08788 46.2087 2.86621 1 0 0  255 255 255 255
5.08788 3.71808 2.87754 1 0 0  255 255 255 255
5.08788 5.10936 3.0753 1 0 0  255 255 255 255
5.08788 44.1897 3.68479 1 0 0  255 255 255 255
5.08788 41.4948 3.70025 1 0 0  255 255 255 255
5.08788 37.7182 3.68514 1 0 0  255 255 255 255
5.08788 36.6574 3.68438 1 0 0  255 255 255 255
5.08788 40.4132 3.70025 1 0 0  255 255 255 255
5.08788 10.1383 3.69869 1 0 0  255 255 255 255
5.08788 11.2093 3.70025 1 0 0  255 255 255 255
5.08788 35.0416 1.83404 1 0 0  255 255 255 255
5.08788 12.8012 3.67386 1 0 0  255 255 255 255
5.08788 17.2099 3.65519 1 0 0  255 255 255 255
5.08788 33.4193 1.83419 1 0 0  255 255 255 255
5.08788 13.1477 3.08392 1 0 0  255 255 255 255
5.08788 16.8376 3.083 1 0 0  255 255 255 255
5.08788 33.0691 2.41624 1 0 0  255 255 255 255
5.08788 34.7074 2.43232 1 0 0  255 255 255 255
5.08788 46.8626 2.28658 1 0 0  255 255 255 255
5.08788 46.8652 3.22467 1 0 0  255 255 255 255
5.08788 3.13732 3.22232 1 0 0  255 255 255 255
5.08788 3.13901 2.28018 1 0 0  255 255 255 255
5.08788 3.915 2.41069 1 0 0  255 255 255 255
5.08788 46.1007 2.39579 1 0 0  255 255 255 255
5.08788 21.9993 1.81766 1 0 0  255 255 255 255
5.08788 26.3787 1.81798 1 0 0  255 255 255 255
5.08788 45.0316 3.19205 1 0 0  255 255 255 255
5.08788 43.8271 3.10741 1 0 0  255 255 255 255
5.08788 36.1939 3.12996 1 0 0  255 255 255 255
5.08788 45.7723 3.08328 1 0 0  255 255 255 255
5.08788 22.3271 2.4437 1 0 0  255 255 255 255
5.08788 26.0508 2.44403 1 0 0  255 255 255 255
5.08788 35.7719 2.98046 1 0 0  255 255 255 255
5.08788 25.7263 1.83934 1 0 0  255 255 255 255
5.08788 22.6518 1.83928 1 0 0  255 255 255 255
5.08788 38.1295 3.11897 1 0 0  255 255 255 255
5.08788 9.75423 3.56554 1 0 0  255 255 255 255
5.08788 9.79082 3.13552 1 0 0  255 255 255 255
5.08788 43.4149 3.0468 1 0 0  255 255 255 255
5.08788 18.2673 3.13247 1 0 0  255 255 255 255
5.08788 44.5553 3.14482 1 0 0  255 255 255 255
5.08788 38.5074 3.05716 1 0 0  255 255 255 255
18.7547 42.6449 1.99987 0.974178 0.225782 0  255 255 255 255
18.4753 43.6135 1.99988 0.944767 0.327742 0  255 255 255 255
18.3171 44.0369 1.9999 0.928111 0.372304 0  255 255 255 255
18.143 44.4432 1.99991 0.909789 0.415071 0  255 255 255 255
17.9591 44.8236 1.99993 0.890435 0.455111 0  255 255 255 255
17.7638 45.1861 1.99995 0.869875 0.493273 0  255 255 255 255
17.5214 45.59 1.99996 0.844353 0.535787 0  255 255 255 255
17.229 46.0238 1.99997 0.813579 0.581455 0  255 255 255 255
16.9117 46.4428 1.99998 0.780177 0.625559 0  255 255 255 255
16.5705 46.845 1.99999 0.744258 0.667892 0  255 255 255 255
16.2061 47.2289 1.99999 0.705909 0.708302 0  255 255 255 255
15.82 47.5928 1.99999 0.665262 0.74661 0  255 255 255 255
15.4134 47.9352 2 0.622465 0.782648 0  255 255 255 255
14.9879 48.2546 2 0.577671 0.816269 0  255 255 255 255
14.5448 48.5498 2 0.531036 0.84735 0  255 255 255 255
14.0858 48.8199 2 0.482713 0.875778 0  255 255 255 255
13.6122 49.0639 2 0.432863 0.90146 0  255 255 255 255
13.1256 49.2809 2 0.381644 0.924309 0  255 255 255 255
12.6276 49.4704 2 0.329222 0.944253 0  255 255 255 255
12.1197 49.6316 2 0.275761 0.961226 0  255 255 255 255
11.6036 49.7642 2 0.221432 0.975176 0  255 255 255 255
11.0809 49.8675 2 0.166406 0.986057 0  255 255 255 255
10.5531 49.9414 2 0.110856 0.993837 0  255 255 255 255
10.0221 49.9856 2 0.054957 0.998489 0  255 255 255 255
9.4894 50 2 -0.001115 0.999999 0  255 255 255 255
8.95675 49.9845 2 -0.057184 0.998364 0  255 255 255 255
8.42581 49.9391 2 -0.113073 0.993587 0  255 255 255 255
7.89824 49.864 2 -0.168606 0.985684 0  255 255 255 255
7.37572 49.7595 2 -0.223608 0.974679 0  255 255 255 255
6.85988 49.6258 2 -0.277907 0.960608 0  255 255 255 255
6.35235 49.4634 2 -0.331332 0.943514 0  255 255 255 255
5.85471 49.2728 2 -0.383714 0.923452 0  255 255 255 255
5.36855 49.0546 2 -0.43489 0.900484 0  255 255 255 255
4.89537 48.8095 2 -0.484698 0.874682 0  255 255 255 255
4.43667 48.5382 2 -0.532982 0.846127 0  255 255 255 255
3.99388 48.2416 2 -0.579592 0.814907 0  255 255 255 255
3.56838 47.9206 1.99999 -0.624382 0.781119 0  255 255 255 255
3.16148 47.5762 1.99999 -0.667213 0.744867 0  255 255 255 255
2.77444 47.2095 1.99999 -0.707954 0.706259 0  255 255 255 255
2.40844 46.8214 1.99998 -0.74648 0.665408 0  255 255 255 255
2.06457 46.4131 1.99997 -0.782677 0.622429 0  255 255 255 255
1.74384 45.9856 1.99995 -0.816438 0.577433 0  255 255 255 255
1.44709 45.5399 1.99994 -0.847674 0.530517 0  255 255 255 255
1.17496 45.0764 1.99992 -0.876321 0.481729 0  255 255 255 255
0.927538 44.5942 1.99991 -0.902364 0.430974 0  255 255 255 255
0.705054 44.0915 1.99989 -0.925784 0.378054 0  255 255 255 255
0.52483 43.6139 1.99988 -0.944755 0.327778 0  255 255 255 255
0.268844 42.744 1.99987 -0.971701 0.236216 0  255 255 255 255
18.9093 41.8093 1.9999 0.990457 0.137823 0  255 255 255 255
18.6297 43.1265 1.99987 0.961021 0.276476 0  255 255 255 255
0.385097 43.1774 1.99988 -0.959463 0.281833 0  255 255 255 255
0.097808 41.8597 1.9999 -0.989704 0.143126 0  255 255 255 255
18.8835 41.9835 3.0823 0.987733 0.156154 0  255 255 255 255
0.123293 42.0256 3.09323 -0.987022 0.160586 0  255 255 255 255
18.8835 41.9835 0.91755 0.987733 0.156154 0  255 255 255 255
0.123293 42.0256 0.906638 -0.987022 0.160586 0  255 255 255 255
18.9459 41.5125 2.95035 0.994304 0.10658 0  255 255 255 255
0.056808 41.5374 2.95461 -0.99402 0.109196 0  255 255 255 255
18.9459 41.5125 1.04954 0.994304 0.10658 0  255 255 255 255
0.056808 41.5374 1.04528 -0.99402 0.109196 0  255 255 255 255
18.9596 41.3748 3.48907 0.995751 0.092087 0  255 255 255 255
0.041222 41.384 3.49088 -0.995661 0.093056 0  255 255 255 255
18.9596 41.3748 0.51089 0.995751 0.092087 0  255 255 255 255
0.041222 41.384 0.509075 -0.995661 0.093056 0  255 255 255 255
18.9928 40.8706 3.53297 0.999239 0.039012 0  255 255 255 255
0.007351 40.8737 3.5335 -0.999226 0.039333 0  255 255 255 255
18.9928 40.8706 0.467012 0.999239 0.039012 0  255 255 255 255
0.007351 40.8737 0.46648 -0.999226 0.039333 0  255 255 255 255
18.8024 42.4277 2.91862 0.979196 0.202915 0  255 255 255 255
0.216528 42.5167 2.94643 -0.977208 0.212286 0  255 255 255 255
18.8024 42.4277 1.08119 0.979196 0.202915 0  255 255 255 255
0.216528 42.5167 1.0534 -0.977208 0.212286 0  255 255 255 255
18.7178 42.7983 3.04368 0.970294 0.24193 0  255 255 255 255
18.6181 43.1664 2.9147 0.959803 0.280676 0  255 255 255 255
18.4698 43.6292 2.94651 0.944193 0.329394 0  255 255 255 255
18.306 44.0642 2.92015 0.926951 0.375183 0  255 255 255 255
18.161 44.4034 2.84107 0.911686 0.410887 0  255 255 255 255
18.0375 44.6667 2.9756 0.898683 0.438598 0  255 255 255 255
17.8817 44.9717 2.79793 0.882289 0.470708 0  255 255 255 255
17.7314 45.2428 3.04323 0.866465 0.499238 0  255 255 255 255
17.5141 45.6014 3.01363 0.843588 0.536991 0  255 255 255 255
17.2305 46.0217 3.00516 0.813741 0.581228 0  255 255 255 255
16.9152 46.4385 3.00205 0.780544 0.625101 0  255 255 255 255
16.574 46.841 3.00082 0.744631 0.667476 0  255 255 255 255
16.2094 47.2256 3.00033 0.706251 0.707962 0  255 255 255 255
15.823 47.5901 3.00013 0.665577 0.746329 0  255 255 255 255
15.4163 47.9329 3.00005 0.622764 0.782409 0  255 255 255 255
14.9907 48.2526 3.00002 0.577964 0.816062 0  255 255 255 255
14.5476 48.5481 3.00001 0.531327 0.847167 0  255 255 255 255
14.0886 48.8184 3 0.483008 0.875616 0  255 255 255 255
13.615 49.0625 3 0.433162 0.901316 0  255 255 255 255
13.1285 49.2797 3 0.381949 0.924184 0  255 255 255 255
12.6305 49.4694 3 0.329531 0.944145 0  255 255 255 255
12.1227 49.6308 3 0.276076 0.961136 0  255 255 255 255
11.6066 49.7635 3 0.221751 0.975103 0  255 255 255 255
11.0839 49.867 3 0.166728 0.986003 0  255 255 255 255
10.5562 49.9411 3 0.111181 0.9938 0  255 255 255 255
10.0252 49.9855 3 0.055283 0.998471 0  255 255 255 255
9.49251 50 3 -0.000789 1 0  255 255 255 255
8.95985 49.9846 3 -0.056858 0.998382 0  255 255 255 255
8.42889 49.9394 3 -0.112748 0.993624 0  255 255 255 255
7.9013 49.8645 3 -0.168284 0.985739 0  255 255 255 255
7.37875 49.7601 3 -0.22329 0.974752 0  255 255 255 255
6.86286 49.6266 3 -0.277593 0.960699 0  255 255 255 255
6.35528 49.4644 3 -0.331024 0.943622 0  255 255 255 255
5.85758 49.274 3 -0.383412 0.923577 0  255 255 255 255
5.37135 49.0559 3 -0.434595 0.900626 0  255 255 255 255
4.8981 48.811 3 -0.484411 0.874841 0  255 255 255 255
4.43931 48.5399 3 -0.532704 0.846302 0  255 255 255 255
3.99644 48.2434 3 -0.579322 0.815099 0  255 255 255 255
3.57086 47.9226 3.00001 -0.62412 0.781328 0  255 255 255 255
3.16389 47.5784 3.00002 -0.666959 0.745094 0  255 255 255 255
2.7768 47.2118 3.00005 -0.707706 0.706507 0  255 255 255 255
2.41078 46.824 3.00012 -0.746234 0.665684 0  255 255 255 255
2.06695 46.4161 3.00032 -0.782427 0.622743 0  255 255 255 255
1.74636 45.9892 3.00082 -0.816173 0.577808 0  255 255 255 255
1.45002 45.5446 3.00208 -0.847366 0.531009 0  255 255 255 255
1.17899 45.0838 3.00519 -0.875895 0.482501 0  255 255 255 255
0.934797 44.6094 3.01293 -0.9016 0.43257 0  255 255 255 255
0.721617 44.1318 3.03239 -0.92404 0.382295 0  255 255 255 255
0.563932 43.7244 3.08393 -0.940639 0.339409 0  255 255 255 255
0.446466 43.3781 2.86019 -0.953004 0.302959 0  255 255 255 255
0.330116 42.9826 3.14079 -0.965251 0.261325 0  255 255 255 255
18.7178 42.7983 0.956141 0.970294 0.24193 0  255 255 255 255
18.6181 43.1664 1.08511 0.959803 0.280676 0  255 255 255 255
18.4698 43.6292 1.05332 0.944193 0.329394 0  255 255 255 255
18.306 44.0642 1.0797 0.926951 0.375183 0  255 255 255 255
18.161 44.4034 1.15879 0.911686 0.410887 0  255 255 255 255
18.0375 44.6667 1.02429 0.898683 0.438598 0  255 255 255 255
17.8817 44.9717 1.20197 0.882289 0.470708 0  255 255 255 255
17.7314 45.2428 0.956698 0.866465 0.499238 0  255 255 255 255
17.5141 45.6014 0.986312 0.843588 0.536991 0  255 255 255 255
17.2305 46.0217 0.994804 0.813741 0.581228 0  255 255 255 255
16.9152 46.4385 0.997925 0.780544 0.625101 0  255 255 255 255
16.574 46.841 0.999161 0.744631 0.667476 0  255 255 255 255
16.2094 47.2256 0.99966 0.706251 0.707962 0  255 255 255 255
15.823 47.5901 0.999862 0.665577 0.746329 0  255 255 255 255
15.4163 47.9329 0.999944 0.622764 0.782409 0  255 255 255 255
14.9907 48.2526 0.999978 0.577964 0.816062 0  255 255 255 255
14.5476 48.5481 0.999991 0.531327 0.847167 0  255 255 255 255
14.0886 48.8184 0.999997 0.483008 0.875616 0  255 255 255 255
13.615 49.0625 0.999999 0.433162 0.901316 0  255 255 255 255
13.1285 49.2797 1 0.381949 0.924184 0  255 255 255 255
12.6305 49.4694 1 0.329531 0.944145 0  255 255 255 255
12.1227 49.6308 1 0.276076 0.961136 0  255 255 255 255
11.6066 49.7635 1 0.221751 0.975103 0  255 255 255 255
11.0839 49.867 1 0.166728 0.986003 0  255 255 255 255
10.5562 49.9411 1 0.111181 0.9938 0  255 255 255 255
10.0252 49.9855 1 0.055283 0.998471 0  255 255 255 255
9.49251 50 1 -0.000789 1 0  255 255 255 255
8.95985 49.9846 1 -0.056858 0.998382 0  255 255 255 255
8.42889 49.9394 1 -0.112748 0.993624 0  255 255 255 255
7.9013 49.8645 1 -0.168284 0.985739 0  255 255 255 255
7.37875 49.7601 1 -0.22329 0.974752 0  255 255 255 255
6.86286 49.6266 1 -0.277593 0.960699 0  255 255 255 255
6.35528 49.4644 1 -0.331024 0.943622 0  255 255 255 255
5.85758 49.274 1 -0.383412 0.923577 0  255 255 255 255
5.37135 49.0559 1 -0.434595 0.900626 0  255 255 255 255
4.8981 48.811 1 -0.484411 0.874841 0  255 255 255 255
4.43931 48.5399 0.999999 -0.532704 0.846302 0  255 255 255 255
3.99644 48.2434 0.999996 -0.579322 0.815099 0  255 255 255 255
3.57086 47.9226 0.999989 -0.62412 0.781328 0  255 255 255 255
3.16389 47.5784 0.999972 -0.666959 0.745094 0  255 255 255 255
2.7768 47.2118 0.999935 -0.707706 0.706507 0  255 255 255 255
2.41078 46.824 0.999845 -0.746234 0.665684 0  255 255 255 255
2.06695 46.4161 0.999631 -0.782427 0.622743 0  255 255 255 255
1.74636 45.9892 0.99911 -0.816173 0.577808 0  255 255 255 255
1.45002 45.5446 0.997836 -0.847366 0.531009 0  255 255 255 255
1.17899 45.0838 0.994701 -0.875895 0.482501 0  255 255 255 255
0.934797 44.6094 0.986939 -0.9016 0.43257 0  255 255 255 255
0.721617 44.1318 0.967461 -0.92404 0.382295 0  255 255 255 255
0.563932 43.7244 0.915912 -0.940639 0.339409 0  255 255 255 255
0.446466 43.3781 1.13962 -0.953004 0.302959 0  255 255 255 255
0.330116 42.9826 0.859058 -0.965251 0.261325 0  255 255 255 255
0.067987 41.6345 2.44564 -0.992844 0.119423 0  255 255 255 255
0.067987 41.6345 1.55421 -0.992844 0.119423 0  255 255 255 255
18.9364 41.5972 2.44228 0.993308 0.115492 0  255 255 255 255
18.9364 41.5972 1.55756 0.993308 0.115492 0  255 255 255 255
18.9127 41.7847 3.4609 0.990814 0.135232 0  255 255 255 255
0.089717 41.8025 3.46535 -0.990556 0.137108 0  255 255 255 255
18.9127 41.7847 0.539028 0.990814 0.135232 0  255 255 255 255
0.089717 41.8025 0.53458 -0.990556 0.137108 0  255 255 255 255
18.8286 42.2964 3.48156 0.981958 0.189097 0  255 255 255 255
0.178478 42.3328 3.49878 -0.981213 0.192928 0  255 255 255 255
18.8286 42.2964 0.518352 0.981958 0.189097 0  255 255 255 255
0.178478 42.3328 0.501133 -0.981213 0.192928 0  255 255 255 255
0.019252 41.1045 2.44632 -0.997973 0.063632 0  255 255 255 255
0.019252 41.1045 1.5536 -0.997973 0.063632 0  255 255 255 255
18.9818 41.0873 2.445 0.998088 0.061817 0  255 255 255 255
18.9818 41.0873 1.55492 0.998088 0.061817 0  255 255 255 255
0.012322 40.9837 2.98755 -0.998703 0.050915 0  255 255 255 255
0.012322 40.9837 1.01241 -0.998703 0.050915 0  255 255 255 255
18.9881 40.9746 2.98623 0.998751 0.049959 0  255 255 255 255
18.9881 40.9746 1.01373 0.998751 0.049959 0  255 255 255 255
18.8745 42.0393 3.50619 0.986786 0.162029 0  255 255 255 255
0.129522 42.0634 3.51434 -0.986366 0.164566 0  255 255 255 255
18.8745 42.0393 0.493733 0.986786 0.162029 0  255 255 255 255
0.129522 42.0634 0.485588 -0.986366 0.164566 0  255 255 255 255
18.9234 41.7041 3.73749 0.991935 0.126749 0  255 255 255 255
0.077485 41.7109 3.73906 -0.991844 0.12746 0  255 255 255 255
18.9234 41.7041 0.26248 0.991935 0.126749 0  255 255 255 255
0.077485 41.7109 0.260914 -0.991844 0.12746 0  255 255 255 255
18.9734 41.2107 3.75551 0.997197 0.074815 0  255 255 255 255
0.026855 41.2138 3.7561 -0.997173 0.075138 0  255 255 255 255
18.9734 41.2107 0.244475 0.997197 0.074815 0  255 255 255 255
0.026855 41.2138 0.243889 -0.997173 0.075138 0  255 255 255 255
18.8405 42.2336 1.99988 0.983209 0.182484 0  255 255 255 255
0.17406 42.3102 1.99989 -0.981678 0.190548 0  255 255 255 255
18.7606 42.6192 3.38222 0.974803 0.22307 0  255 255 255 255
0.254016 42.6821 3.4387 -0.973262 0.2297 0  255 255 255 255
18.7606 42.6192 0.617663 0.974803 0.22307 0  255 255 255 255
0.254016 42.6821 0.561199 -0.973262 0.2297 0  255 255 255 255
18.677 42.9562 3.46726 0.966 0.258542 0  255 255 255 255
18.677 42.9562 0.532639 0.966 0.258542 0  255 255 255 255
18.7124 42.8198 2.53561 0.969727 0.244191 0  255 255 255 255
18.7124 42.8198 1.46416 0.969727 0.244191 0  255 255 255 255
18.546 43.4016 3.46298 0.952216 0.305427 0  255 255 255 255
18.546 43.4016 0.536926 0.952216 0.305427 0  255 255 255 255
18.379 43.8783 3.44942 0.934636 0.355606 0  255 255 255 255
18.1688 44.3862 3.36689 0.912503 0.409069 0  255 255 255 255
17.9137 44.9114 3.38196 0.885649 0.464356 0  255 255 255 255
17.6563 45.3709 3.4901 0.858555 0.512722 0  255 255 255 255
17.3849 45.7988 3.50175 0.829993 0.557773 0  255 255 255 255
17.0822 46.2237 3.50163 0.798123 0.602495 0  255 255 255 255
16.7524 46.6362 3.50081 0.763413 0.645911 0  255 255 255 255
16.3986 47.0314 3.50035 0.726166 0.687519 0  255 255 255 255
16.0224 47.4071 3.50014 0.686572 0.727062 0  255 255 255 255
15.6254 47.7615 3.50006 0.644784 0.764365 0  255 255 255 255
15.209 48.0932 3.50002 0.600947 0.799289 0  255 255 255 255
14.7745 48.4013 3.50001 0.555206 0.831713 0  255 255 255 255
14.3233 48.6845 3.5 0.507711 0.861528 0  255 255 255 255
13.8568 48.942 3.5 0.458613 0.888636 0  255 255 255 255
13.3767 49.173 3.5 0.408069 0.912951 0  255 255 255 255
12.8843 49.3767 3.5 0.35624 0.934394 0  255 255 255 255
12.3812 49.5525 3.5 0.303289 0.952899 0  255 255 255 255
11.8691 49.6998 3.5 0.249383 0.968405 0  255 255 255 255
11.3496 49.8182 3.5 0.194692 0.980864 0  255 255 255 255
10.8242 49.9073 3.5 0.139389 0.990238 0  255 255 255 255
10.2946 49.9667 3.5 0.083647 0.996495 0  255 255 255 255
9.76259 49.9964 3.5 0.027641 0.999618 0  255 255 255 255
9.22971 49.9962 3.5 -0.028451 0.999595 0  255 255 255 255
8.69768 49.9661 3.5 -0.084454 0.996427 0  255 255 255 255
8.16818 49.9062 3.5 -0.140192 0.990124 0  255 255 255 255
7.64287 49.8167 3.5 -0.195488 0.980706 0  255 255 255 255
7.12339 49.6979 3.5 -0.250169 0.968202 0  255 255 255 255
6.6114 49.5502 3.5 -0.304063 0.952652 0  255 255 255 255
6.1085 49.374 3.5 -0.357 0.934104 0  255 255 255 255
5.61626 49.1699 3.5 -0.408815 0.912617 0  255 255 255 255
5.13624 48.9385 3.5 -0.459343 0.888259 0  255 255 255 255
4.66995 48.6805 3.5 -0.508426 0.861106 0  255 255 255 255
4.21885 48.3968 3.5 -0.55591 0.831242 0  255 255 255 255
3.78435 48.0882 3.5 -0.601647 0.798762 0  255 255 255 255
3.36783 47.7558 3.50001 -0.645492 0.763767 0  255 255 255 255
2.97056 47.4005 3.50002 -0.687309 0.726365 0  255 255 255 255
2.59381 47.0234 3.50006 -0.726968 0.686672 0  255 255 255 255
2.23873 46.6257 3.50014 -0.764344 0.644809 0  255 255 255 255
1.90644 46.2086 3.50037 -0.799322 0.600903 0  255 255 255 255
1.59799 45.7733 3.50092 -0.831791 0.555089 0  255 255 255 255
1.31444 45.3215 3.50223 -0.861637 0.507524 0  255 255 255 255
1.05708 44.8551 3.50519 -0.888728 0.458435 0  255 255 255 255
0.827951 44.3789 3.51078 -0.912847 0.408301 0  255 255 255 255
0.63008 43.9021 3.5142 -0.933676 0.358119 0  255 255 255 255
0.450278 43.3901 3.45809 -0.952602 0.304218 0  255 255 255 255
18.379 43.8783 0.550496 0.934636 0.355606 0  255 255 255 255
18.1688 44.3862 0.633036 0.912503 0.409069 0  255 255 255 255
17.9137 44.9114 0.61798 0.885649 0.464356 0  255 255 255 255
17.6563 45.3709 0.509869 0.858555 0.512722 0  255 255 255 255
17.3849 45.7988 0.498224 0.829993 0.557773 0  255 255 255 255
17.0822 46.2237 0.498356 0.798123 0.602495 0  255 255 255 255
16.7524 46.6362 0.499181 0.763413 0.645911 0  255 255 255 255
16.3986 47.0314 0.499642 0.726166 0.687519 0  255 255 255 255
16.0224 47.4071 0.49985 0.686572 0.727062 0  255 255 255 255
15.6254 47.7615 0.499939 0.644784 0.764365 0  255 255 255 255
15.209 48.0932 0.499975 0.600947 0.799289 0  255 255 255 255
14.7745 48.4013 0.49999 0.555206 0.831713 0  255 255 255 255
14.3233 48.6845 0.499996 0.507711 0.861528 0  255 255 255 255
13.8568 48.942 0.499999 0.458613 0.888636 0  255 255 255 255
13.3767 49.173 0.5 0.408069 0.912951 0  255 255 255 255
12.8843 49.3767 0.5 0.35624 0.934394 0  255 255 255 255
12.3812 49.5525 0.500001 0.303289 0.952899 0  255 255 255 255
11.8691 49.6998 0.500001 0.249383 0.968405 0  255 255 255 255
11.3496 49.8182 0.500001 0.194692 0.980864 0  255 255 255 255
10.8242 49.9073 0.500001 0.139389 0.990238 0  255 255 255 255
10.2946 49.9667 0.500001 0.083647 0.996495 0  255 255 255 255
9.76259 49.9964 0.500001 0.027641 0.999618 0  255 255 255 255
9.22971 49.9962 0.500001 -0.028451 0.999595 0  255 255 255 255
8.69768 49.9661 0.500001 -0.084454 0.996427 0  255 255 255 255
8.16818 49.9062 0.500001 -0.140192 0.990124 0  255 255 255 255
7.64287 49.8167 0.500001 -0.195488 0.980706 0  255 255 255 255
7.12339 49.6979 0.500001 -0.250169 0.968202 0  255 255 255 255
6.6114 49.5502 0.500001 -0.304063 0.952652 0  255 255 255 255
6.1085 49.374 0.500001 -0.357 0.934104 0  255 255 255 255
5.61626 49.1699 0.500001 -0.408815 0.912617 0  255 255 255 255
5.13624 48.9385 0.5 -0.459343 0.888259 0  255 255 255 255
4.66995 48.6805 0.5 -0.508426 0.861106 0  255 255 255 255
4.21885 48.3968 0.499998 -0.55591 0.831242 0  255 255 255 255
3.78435 48.0882 0.499995 -0.601647 0.798762 0  255 255 255 255
3.36783 47.7558 0.499988 -0.645492 0.763767 0  255 255 255 255
2.97056 47.4005 0.499971 -0.687309 0.726365 0  255 255 255 255
2.59381 47.0234 0.499931 -0.726968 0.686672 0  255 255 255 255
2.23873 46.6257 0.499835 -0.764344 0.644809 0  255 255 255 255
1.90644 46.2086 0.499603 -0.799322 0.600903 0  255 255 255 255
1.59799 45.7733 0.499045 -0.831791 0.555089 0  255 255 255 255
1.31444 45.3215 0.497721 -0.861637 0.507524 0  255 255 255 255
1.05708 44.8551 0.49475 -0.888728 0.458435 0  255 255 255 255
0.827951 44.3789 0.489144 -0.912847 0.408301 0  255 255 255 255
0.63008 43.9021 0.485721 -0.933676 0.358119 0  255 255 255 255
0.450278 43.3901 0.541817 -0.952602 0.304218 0  255 255 255 255
0.324287 42.961 3.60752 -0.965865 0.259048 0  255 255 255 255
0.324287 42.961 0.392415 -0.965865 0.259048 0  255 255 255 255
0.324279 42.9609 2.53383 -0.965865 0.259045 0  255 255 255 255
0.324279 42.9609 1.46595 -0.965865 0.259045 0  255 255 255 255
18.5405 43.4188 2.46746 0.951631 0.307244 0  255 255 255 255
18.5405 43.4188 1.53232 0.951631 0.307244 0  255 255 255 255
18.3951 43.8358 2.46441 0.936324 0.351137 0  255 255 255 255
18.3951 43.8358 1.53539 0.936324 0.351137 0  255 255 255 255
0.040779 41.3793 1.99994 -0.995708 0.092556 0  255 255 255 255
18.9619 41.3505 1.99994 0.995985 0.089522 0  255 255 255 255
18.8745 42.039 2.51183 0.986791 0.161997 0  255 255 255 255
18.8745 42.039 1.48797 0.986791 0.161997 0  255 255 255 255
0.135804 42.1006 2.51976 -0.985705 0.168481 0  255 255 255 255
0.135804 42.1006 1.48005 -0.985705 0.168481 0  255 255 255 255
18.8011 42.4339 2.39316 0.979061 0.203565 0  255 255 255 255
18.8011 42.4339 1.60661 0.979061 0.203565 0  255 255 255 255
0.218897 42.5276 2.39996 -0.976958 0.21343 0  255 255 255 255
0.218897 42.5276 1.59983 -0.976958 0.21343 0  255 255 255 255
18.6277 43.1336 2.47941 0.960806 0.277222 0  255 255 255 255
18.6277 43.1336 1.52037 0.960806 0.277222 0  255 255 255 255
0.450348 43.3903 2.38972 -0.952595 0.304241 0  255 255 255 255
0.450348 43.3903 1.61006 -0.952595 0.304241 0  255 255 255 255
18.2323 44.2412 2.4526 0.919193 0.393808 0  255 255 255 255
18.2323 44.2412 1.54723 0.919193 0.393808 0  255 255 255 255
18.0447 44.6518 2.49016 0.899446 0.437033 0  255 255 255 255
18.0447 44.6518 1.5097 0.899446 0.437033 0  255 255 255 255
17.8678 44.9978 2.3641 0.880817 0.473456 0  255 255 255 255
17.8678 44.9978 1.63578 0.880817 0.473456 0  255 255 255 255
17.6712 45.3458 2.53255 0.860126 0.510082 0  255 255 255 255
17.6712 45.3458 1.46737 0.860126 0.510082 0  255 255 255 255
17.3794 45.807 2.50902 0.829415 0.558632 0  255 255 255 255
17.3794 45.807 1.49092 0.829415 0.558632 0  255 255 255 255
17.0742 46.2342 2.50287 0.797285 0.603603 0  255 255 255 255
17.0742 46.2342 1.49709 0.797285 0.603603 0  255 255 255 255
16.7451 46.6448 2.50101 0.762644 0.646818 0  255 255 255 255
16.7451 46.6448 1.49896 0.762644 0.646818 0  255 255 255 255
16.3922 47.0381 2.50038 0.725499 0.688224 0  255 255 255 255
16.3922 47.0381 1.4996 0.725499 0.688224 0  255 255 255 255
16.0168 47.4124 2.50015 0.68598 0.727621 0  255 255 255 255
16.0168 47.4124 1.49984 0.68598 0.727621 0  255 255 255 255
15.6203 47.7658 2.50006 0.644237 0.764826 0  255 255 255 255
15.6203 47.7658 1.49994 0.644237 0.764826 0  255 255 255 255
15.204 48.097 2.50002 0.600423 0.799683 0  255 255 255 255
15.204 48.097 1.49997 0.600423 0.799683 0  255 255 255 255
14.7696 48.4045 2.50001 0.554691 0.832057 0  255 255 255 255
14.7696 48.4045 1.49999 0.554691 0.832057 0  255 255 255 255
14.3183 48.6874 2.5 0.507195 0.861832 0  255 255 255 255
14.3183 48.6874 1.5 0.507195 0.861832 0  255 255 255 255
13.8519 48.9446 2.5 0.458091 0.888905 0  255 255 255 255
13.8519 48.9446 1.5 0.458091 0.888905 0  255 255 255 255
13.3716 49.1753 2.5 0.407539 0.913188 0  255 255 255 255
13.3716 49.1753 1.5 0.407539 0.913188 0  255 255 255 255
12.8792 49.3787 2.5 0.355701 0.9346 0  255 255 255 255
12.8792 49.3787 1.5 0.355701 0.9346 0  255 255 255 255
12.376 49.5542 2.5 0.302741 0.953073 0  255 255 255 255
12.376 49.5542 1.5 0.302741 0.953073 0  255 255 255 255
11.8639 49.7012 2.5 0.248827 0.968548 0  255 255 255 255
11.8639 49.7012 1.5 0.248827 0.968548 0  255 255 255 255
11.3442 49.8193 2.5 0.19413 0.980976 0  255 255 255 255
11.3442 49.8193 1.5 0.19413 0.980976 0  255 255 255 255
10.8188 49.908 2.5 0.138821 0.990318 0  255 255 255 255
10.8188 49.908 1.5 0.138821 0.990318 0  255 255 255 255
10.2892 49.9672 2.5 0.083075 0.996543 0  255 255 255 255
10.2892 49.9672 1.5 0.083075 0.996543 0  255 255 255 255
9.75714 49.9965 2.5 0.027068 0.999634 0  255 255 255 255
9.75714 49.9965 1.5 0.027068 0.999634 0  255 255 255 255
9.22427 49.996 2.5 -0.029025 0.999579 0  255 255 255 255
9.22427 49.996 1.5 -0.029025 0.999579 0  255 255 255 255
8.69226 49.9656 2.5 -0.085026 0.996379 0  255 255 255 255
8.69226 49.9656 1.5 -0.085026 0.996379 0  255 255 255 255
8.16279 49.9054 2.5 -0.140759 0.990044 0  255 255 255 255
8.16279 49.9054 1.5 -0.140759 0.990044 0  255 255 255 255
7.63752 49.8156 2.5 -0.19605 0.980594 0  255 255 255 255
7.63752 49.8156 1.5 -0.19605 0.980594 0  255 255 255 255
7.11812 49.6966 2.5 -0.250724 0.968059 0  255 255 255 255
7.11812 49.6966 1.5 -0.250724 0.968059 0  255 255 255 255
6.60621 49.5485 2.5 -0.304609 0.952477 0  255 255 255 255
6.60621 49.5485 1.5 -0.304609 0.952477 0  255 255 255 255
6.10341 49.372 2.5 -0.357536 0.933899 0  255 255 255 255
6.10341 49.372 1.5 -0.357536 0.933899 0  255 255 255 255
5.61129 49.1676 2.5 -0.409338 0.912383 0  255 255 255 255
5.61129 49.1676 1.5 -0.409338 0.912383 0  255 255 255 255
5.1314 48.936 2.5 -0.459853 0.887995 0  255 255 255 255
5.1314 48.936 1.5 -0.459853 0.887995 0  255 255 255 255
4.66524 48.6777 2.5 -0.508922 0.860813 0  255 255 255 255
4.66524 48.6777 1.5 -0.508922 0.860813 0  255 255 255 255
4.21428 48.3937 2.5 -0.556391 0.83092 0  255 255 255 255
4.21428 48.3937 1.5 -0.556391 0.83092 0  255 255 255 255
3.77993 48.0849 2.5 -0.602113 0.798411 0  255 255 255 255
3.77993 48.0849 1.49999 -0.602113 0.798411 0  255 255 255 255
3.36352 47.7522 2.5 -0.645945 0.763384 0  255 255 255 255
3.36352 47.7522 1.49998 -0.645945 0.763384 0  255 255 255 255
2.96637 47.3965 2.50002 -0.687751 0.725947 0  255 255 255 255
2.96637 47.3965 1.49996 -0.687751 0.725947 0  255 255 255 255
2.58968 47.019 2.50005 -0.727402 0.686211 0  255 255 255 255
2.58968 47.019 1.49992 -0.727402 0.686211 0  255 255 255 255
2.23459 46.6208 2.50013 -0.76478 0.644292 0  255 255 255 255
2.23459 46.6208 1.49982 -0.76478 0.644292 0  255 255 255 255
1.90218 46.2029 2.50035 -0.799771 0.600305 0  255 255 255 255
1.90218 46.2029 1.49958 -0.799771 0.600305 0  255 255 255 255
1.5934 45.7665 2.50092 -0.832274 0.554365 0  255 255 255 255
1.5934 45.7665 1.49898 -0.832274 0.554365 0  255 255 255 255
1.3091 45.3124 2.5024 -0.8622 0.506567 0  255 255 255 255
1.3091 45.3124 1.49748 -0.8622 0.506567 0  255 255 255 255
1.04984 44.8411 2.50634 -0.88949 0.456955 0  255 255 255 255
1.04984 44.8411 1.49351 -0.88949 0.456955 0  255 255 255 255
0.81515 44.3501 2.51771 -0.914195 0.405275 0  255 255 255 255
0.81515 44.3501 1.48211 -0.914195 0.405275 0  255 255 255 255
0.596814 43.8141 2.55482 -0.937177 0.348853 0  255 255 255 255
0.596814 43.8141 1.44499 -0.937177 0.348853 0  255 255 255 255
18.9129 41.7834 2.74669 0.990832 0.135097 0  255 255 255 255
0.092847 41.8249 2.75331 -0.990227 0.139468 0  255 255 255 255
18.9129 41.7834 1.25315 0.990832 0.135097 0  255 255 255 255
0.092847 41.8249 1.24655 -0.990227 0.139468 0  255 255 255 255
0.009956 40.9348 1.99997 -0.998952 0.045771 0  255 255 255 255
0.003557 40.7599 1.76339 -0.999626 0.027362 0  255 255 255 255
18.9906 40.9217 1.99997 0.999014 0.044394 0  255 255 255 255
0.003557 40.7599 2.23657 -0.999626 0.027362 0  255 255 255 255
18.9966 40.7523 1.76372 0.999647 0.026563 0  255 255 255 255
18.9966 40.7523 2.23624 0.999647 0.026563 0  255 255 255 255
19 38.5047 1.96859 1 0 0  255 255 255 255
19 11.4953 1.97638 1 0 0  255 255 255 255
19 36.4793 2 1 0 0  255 255 255 255
19 13.5207 2 1 0 0  255 255 255 255
19 30.6121 2 1 0 0  255 255 255 255
19 34.3534 2 1 0 0  255 255 255 255
19 19.9224 2 1 0 0  255 255 255 255
19 25.8017 2 1 0 0  255 255 255 255
19 22.1475 1.98819 1 0 0  255 255 255 255
19 15.6469 2.0005 1 0 0  255 255 255 255
19 17.7845 2.05014 1 0 0  255 255 255 255
19 27.9834 1.92097 1 0 0  255 255 255 255
19 32.4828 1.87487 1 0 0  255 255 255 255
19 23.9445 1.88672 1 0 0  255 255 255 255
19 29.2183 2.53492 1 0 0  255 255 255 255
19 29.4874 1.33317 1 0 0  255 255 255 255
19 21.0752 1.3248 1 0 0  255 255 255 255
19 20.9225 2.73525 1 0 0  255 255 255 255
19 16.8296 2.71033 1 0 0  255 255 255 255
19 16.7844 1.26475 1 0 0  255 255 255 255
19 18.9884 2.69377 1 0 0  255 255 255 255
19 18.8326 1.27006 1 0 0  255 255 255 255
19 26.7437 2.70486 1 0 0  255 255 255 255
19 26.8707 1.26782 1 0 0  255 255 255 255
19 35.5364 2.71168 1 0 0  255 255 255 255
19 35.5833 1.23469 1 0 0  255 255 255 255
19 14.4636 1.28832 1 0 0  255 255 255 255
19 14.5836 2.7346 1 0 0  255 255 255 255
19 37.5128 2.74764 1 0 0  255 255 255 255
19 37.4983 1.26661 1 0 0  255 255 255 255
19 12.5017 2.73339 1 0 0  255 255 255 255
19 12.4872 1.25236 1 0 0  255 255 255 255
19 31.6186 2.73949 1 0 0  255 255 255 255
19 33.3628 2.76359 1 0 0  255 255 255 255
19 22.9913 2.73067 1 0 0  255 255 255 255
19 24.8111 2.76359 1 0 0  255 255 255 255
19 39.385 2.73114 1 0 0  255 255 255 255
19 39.3604 1.30715 1 0 0  255 255 255 255
19 10.615 2.73114 1 0 0  255 255 255 255
19 10.6396 1.30715 1 0 0  255 255 255 255
19 31.5256 1.2243 1 0 0  255 255 255 255
19 33.4224 1.19556 1 0 0  255 255 255 255
19 24.9161 1.19433 1 0 0  255 255 255 255
19 23.0288 1.1999 1 0 0  255 255 255 255
19 28.4683 1.05278 1 0 0  255 255 255 255
19 30.2229 2.99069 1 0 0  255 255 255 255
19 28.3878 3.00974 1 0 0  255 255 255 255
19 36.6286 1.03297 1 0 0  255 255 255 255
19 13.4082 0.983426 1 0 0  255 255 255 255
19 13.3714 2.96703 1 0 0  255 255 255 255
19 36.5918 3.01657 1 0 0  255 255 255 255
19 34.3589 2.99417 1 0 0  255 255 255 255
19 19.9224 3.01785 1 0 0  255 255 255 255
19 22.0603 3.01785 1 0 0  255 255 255 255
19 25.8017 3.01785 1 0 0  255 255 255 255
19 20.0082 1.03523 1 0 0  255 255 255 255
19 15.5526 1.02397 1 0 0  255 255 255 255
19 15.6728 2.95984 1 0 0  255 255 255 255
19 17.869 2.98272 1 0 0  255 255 255 255
19 17.869 1.01728 1 0 0  255 255 255 255
19 30.4794 0.984687 1 0 0  255 255 255 255
19 25.9026 0.994451 1 0 0  255 255 255 255
19 21.9437 0.995962 1 0 0  255 255 255 255
19 34.5151 0.965836 1 0 0  255 255 255 255
