ply
format ascii 1.0
comment VCGLIB generated
element vertex 759
property float x
property float y
property float z
property float nx
property float ny
property float nz
property uchar red
property uchar green
property uchar blue
property uchar alpha
element face 0
property list uchar int vertex_indices
end_header
-2.82253 -2.83431 100.09 -0.705633 -0.708577 0  255 255 255 255
-3.51027 -1.91782 229.231 -0.877567 -0.479454 0  255 255 255 255
-3.51052 1.91736 100.769 -0.877629 0.47934 0  255 255 255 255
0.753132 -3.92846 228.924 0.188283 -0.982115 0  255 255 255 255
0.752785 3.92853 101.076 0.188196 0.982131 0  255 255 255 255
-0.107839 3.99855 137.675 -0.02696 0.999637 0  255 255 255 255
-0.117441 -3.99828 192.316 -0.02936 -0.999569 0  255 255 255 255
-3.70876 -1.49836 194.922 -0.927191 -0.374589 0  255 255 255 255
-3.70485 1.50802 135.073 -0.926212 0.377004 0  255 255 255 255
-0.426459 -3.9772 301.794 -0.106615 -0.9943 0  255 255 255 255
-0.426459 3.9772 28.2056 -0.106615 0.9943 0  255 255 255 255
0.280356 3.99016 144.318 0.070089 0.997541 0  255 255 255 255
0.260651 -3.9915 185.659 0.065163 -0.997875 0  255 255 255 255
-3.4998 -1.93685 237.603 -0.87495 -0.484213 0  255 255 255 255
-3.49995 1.93658 92.3968 -0.874988 0.484144 0  255 255 255 255
0.506818 3.96776 237.483 0.126704 0.991941 0  255 255 255 255
0.50704 -3.96773 92.5171 0.12676 -0.991933 0  255 255 255 255
-3.95035 0.628274 309.621 -0.987588 0.157068 0  255 255 255 255
-3.95035 -0.628274 20.3788 -0.987588 -0.157068 0  255 255 255 255
-2.85321 2.80343 308.847 -0.713302 0.700857 0  255 255 255 255
-2.85321 -2.80343 21.1531 -0.713302 -0.700857 0  255 255 255 255
-1.97082 -3.48079 309.772 -0.492704 -0.870197 0  255 255 255 255
-1.97082 3.48079 20.2282 -0.492704 0.870197 0  255 255 255 255
1.94328 -3.49623 220.287 0.485821 -0.874058 0  255 255 255 255
1.94301 3.49639 109.713 0.485753 0.874096 0  255 255 255 255
-0.009335 -3.99999 308.22 -0.002334 -0.999997 0  255 255 255 255
-0.009335 3.99999 21.7805 -0.002334 0.999997 0  255 255 255 255
1.83833 -3.55254 306.507 0.459581 -0.888136 0  255 255 255 255
1.83833 3.55254 23.4935 0.459581 0.888136 0  255 255 255 255
-3.87651 -0.986221 272.384 -0.969129 -0.246555 0  255 255 255 255
-3.87652 0.986217 57.6156 -0.969129 0.246554 0  255 255 255 255
-3.22552 2.36559 271.158 -0.80638 0.591398 0  255 255 255 255
-3.22552 -2.3656 58.8422 -0.806379 -0.591399 0  255 255 255 255
0.110548 3.99847 271.802 0.027637 0.999618 0  255 255 255 255
0.110551 -3.99847 58.1978 0.027638 -0.999618 0  255 255 255 255
-3.84107 1.11631 184.964 -0.960269 0.279077 0  255 255 255 255
-3.85245 -1.0764 145.027 -0.963112 -0.2691 0  255 255 255 255
-1.54253 3.69061 184.316 -0.385633 0.922652 0  255 255 255 255
-1.57753 -3.67579 145.696 -0.394382 -0.918947 0  255 255 255 255
-3.4114 2.08862 143.46 -0.85285 0.522155 0  255 255 255 255
-3.4271 -2.06277 186.521 -0.856774 -0.515692 0  255 255 255 255
-3.96778 0.506671 229.736 -0.991945 0.126668 0  255 255 255 255
-3.96772 -0.507184 100.264 -0.991929 -0.126796 0  255 255 255 255
-1.56183 -3.68249 228.622 -0.390457 -0.920621 0  255 255 255 255
-1.56225 3.68231 101.378 -0.390562 0.920576 0  255 255 255 255
-3.99819 -0.120354 260.576 -0.999547 -0.030088 0  255 255 255 255
-3.99819 0.120327 69.424 -0.999547 0.030082 0  255 255 255 255
-2.9341 2.71865 259.658 -0.733526 0.679661 0  255 255 255 255
-2.93408 -2.71867 70.3423 -0.733521 -0.679667 0  255 255 255 255
-1.923 3.50743 170.357 -0.480749 0.876858 0  255 255 255 255
-2.18487 -3.35057 159.531 -0.546218 -0.837643 0  255 255 255 255
2.51834 3.10772 150.433 0.629586 0.776931 0  255 255 255 255
2.50323 -3.11991 179.529 0.625808 -0.779977 0  255 255 255 255
-1.99933 -3.46449 281.115 -0.499831 -0.866123 0  255 255 255 255
-1.99933 3.46449 48.8852 -0.499831 0.866123 0  255 255 255 255
1.06236 -3.85634 206.18 0.26559 -0.964086 0  255 255 255 255
1.06307 3.85615 123.819 0.265769 0.964037 0  255 255 255 255
0.646201 3.94746 175.001 0.16155 0.986864 0  255 255 255 255
0.558109 -3.96087 155.162 0.139527 -0.990218 0  255 255 255 255
2.47607 3.14151 313.704 0.619018 0.785377 0  255 255 255 255
2.47607 -3.14151 16.2963 0.619018 -0.785377 0  255 255 255 255
3.5268 -1.88725 296.721 0.881699 -0.471812 0  255 255 255 255
3.5268 1.88725 33.2795 0.881699 0.471812 0  255 255 255 255
3.49039 1.95375 316.602 0.872598 0.488438 0  255 255 255 255
3.26954 -2.30437 316.381 0.817385 -0.576092 0  255 255 255 255
3.49039 -1.95375 13.3984 0.872598 -0.488438 0  255 255 255 255
3.26954 2.30437 13.6186 0.817385 0.576092 0  255 255 255 255
3.55669 1.83028 263.145 0.889174 0.45757 0  255 255 255 255
3.5567 -1.83028 66.8547 0.889174 -0.457569 0  255 255 255 255
3.42464 -2.06685 263.002 0.856159 -0.516712 0  255 255 255 255
3.42463 2.06685 66.9978 0.856159 0.516713 0  255 255 255 255
2.86052 -2.79596 266.782 0.715131 -0.69899 0  255 255 255 255
2.86052 2.79596 63.2179 0.715131 0.698991 0  255 255 255 255
2.96526 2.68462 291.716 0.741316 0.671156 0  255 255 255 255
2.96526 -2.68462 38.2835 0.741316 -0.671156 0  255 255 255 255
3.63778 -1.66329 202.805 0.909446 -0.415823 0  255 255 255 255
3.52255 -1.89516 127.294 0.880638 -0.473789 0  255 255 255 255
3.63801 1.66279 127.195 0.909502 0.415699 0  255 255 255 255
3.52293 1.89446 202.707 0.880732 0.473615 0  255 255 255 255
3.49078 1.95306 244.114 0.872695 0.488265 0  255 255 255 255
3.49081 -1.95302 85.8858 0.872702 -0.488254 0  255 255 255 255
3.63998 -1.65848 245.6 0.909994 -0.41462 0  255 255 255 255
3.63997 1.65851 84.3998 0.909991 0.414627 0  255 255 255 255
3.55312 -1.83722 181.346 0.888279 -0.459304 0  255 255 255 255
3.55699 1.8297 148.639 0.889248 0.457426 0  255 255 255 255
2.10868 3.39904 204.548 0.527169 0.849761 0  255 255 255 255
2.1077 -3.39965 125.452 0.526926 -0.849911 0  255 255 255 255
3.80649 -1.22907 261.236 0.951623 -0.307268 0  255 255 255 255
3.80649 1.22908 68.7639 0.951623 0.307269 0  255 255 255 255
3.56622 -1.81166 111.484 0.891554 -0.452914 0  255 255 255 255
3.56618 1.81174 218.517 0.891544 0.452934 0  255 255 255 255
3.72889 -1.44755 199.868 0.932221 -0.361888 0  255 255 255 255
3.72917 1.44683 130.131 0.932292 0.361707 0  255 255 255 255
3.58449 -1.77523 135.326 0.896122 -0.443809 0  255 255 255 255
3.58552 1.77314 194.675 0.89638 0.443286 0  255 255 255 255
1.68973 3.62558 297.25 0.422432 0.906395 0  255 255 255 255
1.68973 -3.62558 32.7504 0.422432 -0.906395 0  255 255 255 255
3.36284 -2.16595 176.603 0.840709 -0.541487 0  255 255 255 255
3.36979 2.15512 153.36 0.842446 0.53878 0  255 255 255 255
3.54958 1.84404 321.082 0.887395 0.461009 0  255 255 255 255
3.68719 -1.55069 321.807 0.921797 -0.387673 0  255 255 255 255
3.54958 -1.84404 8.91761 0.887395 -0.461009 0  255 255 255 255
3.68719 1.55069 8.19281 0.921797 0.387673 0  255 255 255 255
3.61189 -1.71879 192.905 0.902974 -0.429696 0  255 255 255 255
3.61291 1.71665 137.092 0.903227 0.429163 0  255 255 255 255
3.58364 -1.77694 209.585 0.895911 -0.444234 0  255 255 255 255
3.55587 -1.83189 120.23 0.888967 -0.457972 0  255 255 255 255
3.58368 1.77686 120.415 0.89592 0.444215 0  255 255 255 255
3.55593 1.83176 209.77 0.888983 0.45794 0  255 255 255 255
3.56438 -1.81526 229.41 0.891096 -0.453816 0  255 255 255 255
3.70033 -1.51907 101.673 0.925082 -0.379768 0  255 255 255 255
3.56433 1.81537 100.59 0.891081 0.453844 0  255 255 255 255
3.70029 1.51917 228.327 0.925072 0.379791 0  255 255 255 255
-3.76008 1.36449 273.822 -0.940019 0.341121 0  255 255 255 255
-3.76008 -1.36449 56.1783 -0.940019 -0.341122 0  255 255 255 255
-2.86849 -2.78779 274.475 -0.717123 -0.696947 0  255 255 255 255
-2.86849 2.78779 55.5253 -0.717123 0.696946 0  255 255 255 255
-2.2678 3.29501 273.137 -0.56695 0.823752 0  255 255 255 255
-2.2678 -3.29501 56.8626 -0.566949 -0.823753 0  255 255 255 255
2.36387 -3.22678 118.172 0.590969 -0.806694 0  255 255 255 255
2.36397 3.22671 211.829 0.590993 0.806677 0  255 255 255 255
3.53608 -1.86979 213.568 0.884021 -0.467447 0  255 255 255 255
3.62714 -1.68637 116.859 0.906785 -0.421593 0  255 255 255 255
3.53607 1.86983 116.432 0.884016 0.467456 0  255 255 255 255
3.62715 1.68635 213.141 0.906787 0.421589 0  255 255 255 255
3.82224 -1.17919 73.9536 0.95556 -0.294797 0  255 255 255 255
3.82224 1.1792 256.046 0.955559 0.294799 0  255 255 255 255
3.03519 -2.6053 188.327 0.758798 -0.651326 0  255 255 255 255
3.03942 2.60037 141.664 0.759854 0.650093 0  255 255 255 255
3.68176 -1.56354 93.8827 0.92044 -0.390885 0  255 255 255 255
3.68173 1.56361 236.117 0.920432 0.390902 0  255 255 255 255
3.33647 -2.20634 143.455 0.834119 -0.551585 0  255 255 255 255
3.34136 2.19894 186.552 0.83534 0.549734 0  255 255 255 255
0.168659 -3.99644 239.413 0.042165 -0.999111 0  255 255 255 255
0.168473 3.99645 90.587 0.042118 0.999113 0  255 255 255 255
3.21937 -2.37395 300.86 0.804844 -0.593487 0  255 255 255 255
3.21937 2.37395 29.1396 0.804844 0.593487 0  255 255 255 255
2.70198 2.94946 294.773 0.675495 0.737365 0  255 255 255 255
2.70198 -2.94946 35.2274 0.675495 -0.737365 0  255 255 255 255
1.77267 3.58576 289.774 0.443168 0.896439 0  255 255 255 255
1.77267 -3.58576 40.2265 0.443168 -0.896439 0  255 255 255 255
3.84273 -1.11061 259.054 0.960682 -0.277651 0  255 255 255 255
3.84273 1.11061 70.9461 0.960682 0.277652 0  255 255 255 255
3.47962 1.97287 297.325 0.869906 0.493217 0  255 255 255 255
3.47962 -1.97287 32.6754 0.869906 -0.493217 0  255 255 255 255
3.56141 -1.82108 268.57 0.890353 -0.45527 0  255 255 255 255
3.56141 1.82108 61.4296 0.890353 0.455271 0  255 255 255 255
-3.99426 0.214226 209.159 -0.998565 0.053556 0  255 255 255 255
-3.99429 -0.213584 120.841 -0.998573 -0.053396 0  255 255 255 255
2.43642 -3.17235 231.45 0.609106 -0.793089 0  255 255 255 255
2.43626 3.17249 98.5501 0.609064 0.793121 0  255 255 255 255
3.89405 -0.914521 292.083 0.973513 -0.22863 0  255 255 255 255
3.8182 -1.1922 38.0871 0.95455 -0.298049 0  255 255 255 255
3.89405 0.914521 37.9172 0.973513 0.22863 0  255 255 255 255
3.8182 1.1922 291.913 0.95455 0.298049 0  255 255 255 255
-3.10487 -2.52186 307.939 -0.776218 -0.630465 0  255 255 255 255
-3.10487 2.52186 22.0613 -0.776218 0.630465 0  255 255 255 255
-1.88003 -3.53065 306.616 -0.470007 -0.882663 0  255 255 255 255
-1.88003 3.53065 23.3835 -0.470007 0.882663 0  255 255 255 255
-0.556166 3.96115 309.198 -0.139041 0.990287 0  255 255 255 255
-0.556166 -3.96115 20.8021 -0.139041 -0.990287 0  255 255 255 255
0.323398 3.98691 149.829 0.080849 0.996726 0  255 255 255 255
0.287794 -3.98963 180.116 0.071949 -0.997408 0  255 255 255 255
-3.80164 1.24401 152.45 -0.950409 0.311004 0  255 255 255 255
-3.83148 -1.1488 177.478 -0.957871 -0.2872 0  255 255 255 255
0.473301 3.9719 186.148 0.118325 0.992975 0  255 255 255 255
0.450127 -3.97459 143.864 0.112532 -0.993648 0  255 255 255 255
-3.9245 0.773494 181.872 -0.981125 0.193374 0  255 255 255 255
-3.93599 -0.712707 148.109 -0.983998 -0.178177 0  255 255 255 255
-2.9063 2.74834 146.552 -0.726576 0.687086 0  255 255 255 255
-2.93505 -2.71762 183.413 -0.733763 -0.679406 0  255 255 255 255
-1.99305 3.4681 278.29 -0.498264 0.867026 0  255 255 255 255
-1.99305 -3.4681 51.7102 -0.498263 -0.867026 0  255 255 255 255
1.24012 3.80291 277.723 0.31003 0.950727 0  255 255 255 255
1.24012 -3.80291 52.2768 0.31003 -0.950727 0  255 255 255 255
-3.82857 1.15847 277.548 -0.957143 0.289616 0  255 255 255 255
-3.82857 -1.15847 52.4515 -0.957143 -0.289617 0  255 255 255 255
-3.32954 -2.21679 277.928 -0.832386 -0.554196 0  255 255 255 255
-3.32955 2.21678 52.0722 -0.832386 0.554196 0  255 255 255 255
-3.06158 2.57424 182.973 -0.765396 0.643559 0  255 255 255 255
-3.09469 -2.53435 147.029 -0.773672 -0.633586 0  255 255 255 255
-2.52556 3.10186 115.175 -0.631391 0.775464 0  255 255 255 255
-2.52529 -3.10208 214.824 -0.631323 -0.77552 0  255 255 255 255
-2.45556 3.15757 191.25 -0.613889 0.789392 0  255 255 255 255
-2.46881 -3.14721 138.751 -0.617203 -0.786804 0  255 255 255 255
-1.66804 -3.63561 241.412 -0.417009 -0.908902 0  255 255 255 255
-1.66821 3.63553 88.5878 -0.417053 0.908882 0  255 255 255 255
-2.76255 2.89281 166.917 -0.690637 0.723202 0  255 255 255 255
-2.72953 -2.92398 162.576 -0.682383 -0.730995 0  255 255 255 255
1.47039 3.71994 249.292 0.367596 0.929985 0  255 255 255 255
1.47045 -3.71992 80.7076 0.367611 -0.92998 0  255 255 255 255
-0.642228 -3.94811 250.632 -0.160557 -0.987027 0  255 255 255 255
-0.642294 3.9481 79.3685 -0.160574 0.987024 0  255 255 255 255
0.775556 3.92409 217.326 0.193889 0.981023 0  255 255 255 255
0.775777 -3.92405 112.674 0.193944 -0.981013 0  255 255 255 255
-0.349766 3.98468 264.725 -0.087441 0.99617 0  255 255 255 255
-0.349755 -3.98468 65.2755 -0.087439 -0.99617 0  255 255 255 255
-3.4478 2.02797 265.524 -0.861951 0.506992 0  255 255 255 255
-3.4478 -2.02798 64.4757 -0.861949 -0.506995 0  255 255 255 255
-3.86008 -1.04872 266.386 -0.965019 -0.26218 0  255 255 255 255
-3.86008 1.04871 63.6143 -0.96502 0.262178 0  255 255 255 255
-2.53512 -3.09406 232.083 -0.633779 -0.773514 0  255 255 255 255
-2.53544 3.0938 97.9174 -0.633859 0.773449 0  255 255 255 255
-1.85777 -3.54241 265.384 -0.464443 -0.885603 0  255 255 255 255
-1.85778 3.54241 64.6162 -0.464446 0.885602 0  255 255 255 255
0.718781 -3.93489 286.032 0.179695 -0.983722 0  255 255 255 255
0.718781 3.93489 43.968 0.179695 0.983722 0  255 255 255 255
-0.750855 3.92889 124.995 -0.187714 0.982224 0  255 255 255 255
-0.752188 -3.92864 205.004 -0.188047 -0.98216 0  255 255 255 255
-3.56332 1.81735 226.81 -0.89083 0.454336 0  255 255 255 255
-3.56307 -1.81784 103.19 -0.890767 -0.45446 0  255 255 255 255
1.17347 -3.824 244.23 0.293368 -0.956 0  255 255 255 255
1.17338 3.82403 85.7701 0.293344 0.956007 0  255 255 255 255
-3.71476 1.48343 243.885 -0.92869 0.370857 0  255 255 255 255
-3.71469 -1.4836 86.1153 -0.928673 -0.3709 0  255 255 255 255
-3.97357 -0.45911 205.409 -0.993391 -0.114778 0  255 255 255 255
-3.97336 0.460895 124.59 -0.99334 0.115224 0  255 255 255 255
1.70799 -3.61701 265.67 0.426998 -0.904253 0  255 255 255 255
1.70799 3.61701 64.3302 0.426997 0.904253 0  255 255 255 255
-3.99282 0.239517 288.278 -0.998206 0.059879 0  255 255 255 255
-3.99282 -0.239517 41.7225 -0.998206 -0.059879 0  255 255 255 255
-3.27259 -2.30003 288.45 -0.818148 -0.575008 0  255 255 255 255
-3.27259 2.30003 41.5497 -0.818148 0.575008 0  255 255 255 255
-2.1242 3.38936 288.591 -0.53105 0.84734 0  255 255 255 255
-2.1242 -3.38936 41.4091 -0.53105 -0.84734 0  255 255 255 255
-0.006172 3.99999 289.3 -0.001543 0.999999 0  255 255 255 255
-0.006172 -3.99999 40.6996 -0.001543 -0.999999 0  255 255 255 255
-2.37964 -3.21517 220.079 -0.594909 -0.803793 0  255 255 255 255
-2.38014 3.2148 109.921 -0.595034 0.803701 0  255 255 255 255
-0.867108 -3.90489 274.217 -0.216777 -0.976221 0  255 255 255 255
-0.86711 3.90488 55.7833 -0.216778 0.976221 0  255 255 255 255
2.20792 3.33543 229.536 0.551979 0.833858 0  255 255 255 255
2.20812 -3.3353 100.464 0.55203 -0.833824 0  255 255 255 255
1.58644 3.67195 274.433 0.39661 0.917987 0  255 255 255 255
1.58644 -3.67195 55.5671 0.39661 -0.917987 0  255 255 255 255
-1.0371 3.86321 228.364 -0.259275 0.965804 0  255 255 255 255
-1.03667 -3.86333 101.636 -0.259169 -0.965832 0  255 255 255 255
-2.43112 3.17642 252.199 -0.60778 0.794106 0  255 255 255 255
-2.43106 -3.17647 77.8015 -0.607766 -0.794116 0  255 255 255 255
-3.97273 -0.466274 253.794 -0.993183 -0.116568 0  255 255 255 255
-3.97274 0.466211 76.2064 -0.993184 0.116553 0  255 255 255 255
-0.217357 -3.99409 253.697 -0.054339 -0.998523 0  255 255 255 255
-0.217401 3.99409 76.3033 -0.05435 0.998522 0  255 255 255 255
1.82323 3.56031 262.853 0.455807 0.890078 0  255 255 255 255
1.82324 -3.56031 67.1465 0.45581 -0.890077 0  255 255 255 255
-3.18663 -2.41772 253.708 -0.796658 -0.60443 0  255 255 255 255
-3.18667 2.41767 76.2921 -0.796668 0.604418 0  255 255 255 255
0.388681 3.98107 229.641 0.09717 0.995268 0  255 255 255 255
0.389031 -3.98104 100.359 0.097258 -0.995259 0  255 255 255 255
-1.99599 3.46641 119.2 -0.498997 0.866604 0  255 255 255 255
-1.99616 -3.46631 210.799 -0.499041 -0.866579 0  255 255 255 255
-2.65338 2.99325 238.818 -0.663345 0.748314 0  255 255 255 255
-2.65318 -2.99344 91.182 -0.663294 -0.748359 0  255 255 255 255
-3.98029 -0.396567 238.951 -0.995073 -0.099142 0  255 255 255 255
-3.98032 0.396277 91.0494 -0.995081 0.099069 0  255 255 255 255
0.092979 3.99892 196.719 0.023245 0.99973 0  255 255 255 255
0.087247 -3.99905 133.282 0.021812 -0.999762 0  255 255 255 255
-0.626028 3.95071 250.73 -0.156507 0.987677 0  255 255 255 255
-0.625958 -3.95072 79.2703 -0.156489 -0.98768 0  255 255 255 255
1.23608 3.80422 121.134 0.309019 0.951056 0  255 255 255 255
1.23578 -3.80432 208.866 0.308945 -0.95108 0  255 255 255 255
-3.65007 1.63614 203.195 -0.912519 0.409035 0  255 255 255 255
-3.65124 -1.63354 126.804 -0.91281 -0.408384 0  255 255 255 255
2.17068 3.35978 303.483 0.54267 0.839946 0  255 255 255 255
2.17068 -3.35978 26.517 0.54267 -0.839946 0  255 255 255 255
-2.33249 3.24954 220.959 -0.583123 0.812384 0  255 255 255 255
-2.33211 -3.24981 109.042 -0.583027 -0.812453 0  255 255 255 255
-3.92508 0.770557 196.297 -0.98127 0.192639 0  255 255 255 255
-3.92682 -0.761626 133.7 -0.981705 -0.190407 0  255 255 255 255
-1.34214 3.76811 108.375 -0.335536 0.942027 0  255 255 255 255
-1.34163 -3.76829 221.625 -0.335407 -0.942073 0  255 255 255 255
-3.98511 -0.344767 304.284 -0.996279 -0.086192 0  255 255 255 255
-3.98511 0.344767 25.7157 -0.996279 0.086192 0  255 255 255 255
-3.5479 1.84726 303.312 -0.886976 0.461816 0  255 255 255 255
-3.5479 -1.84726 26.6875 -0.886976 -0.461816 0  255 255 255 255
-0.470463 3.97224 303.021 -0.117616 0.993059 0  255 255 255 255
-0.470463 -3.97224 26.9791 -0.117616 -0.993059 0  255 255 255 255
0.091749 3.99895 167.482 0.022937 0.999737 0  255 255 255 255
0.852365 -3.90813 162.709 0.213091 -0.977032 0  255 255 255 255
-0.904337 3.89643 146.463 -0.226084 0.974108 0  255 255 255 255
-0.934833 -3.88923 183.501 -0.233708 -0.972307 0  255 255 255 255
2.1692 3.36074 322.955 0.542301 0.840184 0  255 255 255 255
2.71189 -2.94035 323.323 0.677971 -0.735088 0  255 255 255 255
2.1692 -3.36074 7.04546 0.542301 -0.840184 0  255 255 255 255
2.71189 2.94035 6.67721 0.677971 0.735088 0  255 255 255 255
-3.34781 2.1891 155.082 -0.836954 0.547274 0  255 255 255 255
-3.41525 -2.08232 174.79 -0.853813 -0.52058 0  255 255 255 255
0.59314 3.95578 213.872 0.148285 0.988945 0  255 255 255 255
0.593146 -3.95578 116.129 0.148286 -0.988944 0  255 255 255 255
-2.39031 3.20724 126.088 -0.597578 0.80181 0  255 255 255 255
-2.39199 -3.20599 203.91 -0.597998 -0.801498 0  255 255 255 255
-2.17854 3.35469 135.477 -0.544634 0.838674 0  255 255 255 255
-2.18642 -3.34957 194.516 -0.546604 -0.837391 0  255 255 255 255
2.68596 2.96405 279.77 0.671491 0.741013 0  255 255 255 255
2.68596 -2.96405 50.23 0.671491 -0.741013 0  255 255 255 255
0.176802 3.99609 206.7 0.0442 0.999023 0  255 255 255 255
0.175741 -3.99614 123.301 0.043935 -0.999034 0  255 255 255 255
-3.40931 2.09204 287.722 -0.852327 0.52301 0  255 255 255 255
-3.40931 -2.09204 42.2779 -0.852327 -0.52301 0  255 255 255 255
0.074245 -3.99931 280.217 0.018561 -0.999828 0  255 255 255 255
0.074244 3.99931 49.7828 0.018561 0.999828 0  255 255 255 255
1.87021 3.53586 188.575 0.467552 0.883965 0  255 255 255 255
1.85868 -3.54193 141.432 0.464671 -0.885484 0  255 255 255 255
-3.96654 0.516306 294.529 -0.991635 0.129077 0  255 255 255 255
-3.96654 -0.516306 35.4714 -0.991635 -0.129077 0  255 255 255 255
-3.6011 -1.74128 294.905 -0.900275 -0.435321 0  255 255 255 255
-3.6011 1.74128 35.0947 -0.900275 0.435321 0  255 255 255 255
-0.579989 3.95773 296.48 -0.144997 0.989432 0  255 255 255 255
-0.579989 -3.95773 33.5196 -0.144997 -0.989432 0  255 255 255 255
-2.40975 3.19267 201.662 -0.602436 0.798167 0  255 255 255 255
-2.41254 -3.19055 128.338 -0.603136 -0.797638 0  255 255 255 255
-3.45008 2.02409 250.593 -0.862521 0.506022 0  255 255 255 255
-3.45004 -2.02416 79.4074 -0.862509 -0.506041 0  255 255 255 255
-3.99165 -0.258286 202.127 -0.997913 -0.064572 0  255 255 255 255
-3.99142 0.261792 127.872 -0.997856 0.065448 0  255 255 255 255
2.55171 3.08039 129.498 0.637927 0.770097 0  255 255 255 255
2.55041 -3.08146 200.501 0.637602 -0.770366 0  255 255 255 255
-0.575055 3.95845 243.645 -0.143764 0.989612 0  255 255 255 255
-0.574906 -3.95847 86.355 -0.143727 -0.989617 0  255 255 255 255
-0.600889 3.95461 261.196 -0.150222 0.988652 0  255 255 255 255
-0.600871 -3.95461 68.8045 -0.150218 -0.988653 0  255 255 255 255
1.81362 -3.56522 234.435 0.453406 -0.891304 0  255 255 255 255
1.81344 3.56531 95.5647 0.45336 0.891328 0  255 255 255 255
-1.94583 -3.49482 262.509 -0.486457 -0.873704 0  255 255 255 255
-1.94585 3.49481 67.4915 -0.486461 0.873702 0  255 255 255 255
3.05355 -2.58376 288.778 0.763388 -0.64594 0  255 255 255 255
3.05355 2.58376 41.2222 0.763388 0.64594 0  255 255 255 255
3.66621 1.59966 324.175 0.916552 0.399916 0  255 255 255 255
3.6755 -1.57819 324.87 0.918875 -0.394548 0  255 255 255 255
3.66621 -1.59966 5.82496 0.916552 -0.399916 0  255 255 255 255
3.6755 1.57819 5.12951 0.918875 0.394548 0  255 255 255 255
2.88747 2.76813 288.631 0.721867 0.692031 0  255 255 255 255
2.88747 -2.76813 41.3693 0.721867 -0.692031 0  255 255 255 255
3.51594 1.9074 267.425 0.878985 0.47685 0  255 255 255 255
3.51594 -1.9074 62.5749 0.878985 -0.47685 0  255 255 255 255
3.55267 1.83807 312.345 0.888168 0.459518 0  255 255 255 255
3.55267 -1.83807 17.6547 0.888168 -0.459518 0  255 255 255 255
2.37207 -3.22076 246.584 0.593016 -0.80519 0  255 255 255 255
2.37202 3.2208 83.4157 0.593004 0.805199 0  255 255 255 255
-3.14996 -2.46531 235.087 -0.787489 -0.616329 0  255 255 255 255
-3.15018 2.46503 94.9126 -0.787545 0.616258 0  255 255 255 255
3.30992 2.24598 248.126 0.82748 0.561495 0  255 255 255 255
3.30994 -2.24595 81.874 0.827486 -0.561487 0  255 255 255 255
-3.52938 1.88241 127.115 -0.882345 0.470603 0  255 255 255 255
-3.53078 -1.87979 202.883 -0.882694 -0.469948 0  255 255 255 255
2.6485 2.99758 215.626 0.662124 0.749394 0  255 255 255 255
2.64854 -2.99753 114.374 0.662136 -0.749384 0  255 255 255 255
3.12006 -2.50304 275.969 0.780016 -0.625759 0  255 255 255 255
3.12006 2.50304 54.031 0.780016 0.625759 0  255 255 255 255
2.36272 3.22763 218.78 0.590679 0.806906 0  255 255 255 255
2.36286 -3.22752 111.22 0.590715 -0.80688 0  255 255 255 255
2.27421 3.29059 232.365 0.568552 0.822647 0  255 255 255 255
2.27439 -3.29047 97.6348 0.568597 -0.822616 0  255 255 255 255
3.66352 -1.6058 156.859 0.915881 -0.401451 0  255 255 255 255
3.664 1.6047 173.209 0.916001 0.401176 0  255 255 255 255
2.53502 3.09414 254.029 0.633754 0.773535 0  255 255 255 255
2.53504 -3.09412 75.9713 0.633759 -0.77353 0  255 255 255 255
3.74908 -1.39442 253.749 0.93727 -0.348605 0  255 255 255 255
3.74907 1.39443 76.2509 0.937269 0.348608 0  255 255 255 255
3.59429 1.75531 239.918 0.898571 0.438828 0  255 255 255 255
3.59431 -1.75525 90.0818 0.898578 -0.438814 0  255 255 255 255
3.47961 -1.97289 240.68 0.869904 -0.493222 0  255 255 255 255
3.47958 1.97294 89.3198 0.869896 0.493235 0  255 255 255 255
-2.42141 3.18383 249.013 -0.605353 0.795957 0  255 255 255 255
-2.42133 -3.18389 80.9874 -0.605333 -0.795973 0  255 255 255 255
2.97496 2.67387 300.215 0.743741 0.668468 0  255 255 255 255
2.97496 -2.67387 29.7855 0.743741 -0.668468 0  255 255 255 255
3.43656 -2.04697 222.147 0.859139 -0.511742 0  255 255 255 255
3.43647 2.04711 107.853 0.859119 0.511777 0  255 255 255 255
3.6212 -1.69909 159.605 0.9053 -0.424772 0  255 255 255 255
3.60576 1.73162 170.477 0.901439 0.432906 0  255 255 255 255
3.3503 -2.18528 217.936 0.837576 -0.546321 0  255 255 255 255
3.35023 2.1854 112.064 0.837557 0.546349 0  255 255 255 255
3.09678 -2.53179 108.134 0.774194 -0.632948 0  255 255 255 255
3.09667 2.53192 221.866 0.774168 0.63298 0  255 255 255 255
3.65121 -1.6336 162.233 0.912803 -0.408401 0  255 255 255 255
3.61785 1.70621 167.824 0.904463 0.426553 0  255 255 255 255
3.89578 -0.907152 133.481 0.973944 -0.226788 0  255 255 255 255
3.89598 0.906261 196.52 0.973996 0.226565 0  255 255 255 255
3.53681 -1.86841 178.919 0.884203 -0.467103 0  255 255 255 255
3.54156 1.8594 151.058 0.885389 0.464851 0  255 255 255 255
2.88972 -2.76578 243.564 0.722429 -0.691445 0  255 255 255 255
2.88967 2.76583 86.4363 0.722418 0.691457 0  255 255 255 255
3.85922 -1.05185 215.951 0.964806 -0.262962 0  255 255 255 255
3.75684 -1.37337 114.083 0.939211 -0.343342 0  255 255 255 255
3.85921 1.05189 114.049 0.964803 0.262973 0  255 255 255 255
3.75683 1.37339 215.917 0.939208 0.343348 0  255 255 255 255
3.61442 -1.71348 173.579 0.903604 -0.428369 0  255 255 255 255
3.61699 1.70805 156.38 0.904246 0.427011 0  255 255 255 255
3.63617 -1.66682 146.526 0.909042 -0.416706 0  255 255 255 255
3.63999 1.65846 183.484 0.909998 0.414614 0  255 255 255 255
2.99251 -2.65422 95.79 0.748128 -0.663555 0  255 255 255 255
2.99241 2.65433 234.21 0.748103 0.663583 0  255 255 255 255
2.96742 -2.68224 190.995 0.741856 -0.670559 0  255 255 255 255
2.97079 2.6785 138.999 0.742698 0.669626 0  255 255 255 255
2.20676 -3.33619 121.759 0.551691 -0.834048 0  255 255 255 255
2.20721 3.3359 208.241 0.551802 0.833975 0  255 255 255 255
2.54101 -3.08922 207.692 0.635253 -0.772304 0  255 255 255 255
2.5413 3.08898 122.308 0.635325 0.772245 0  255 255 255 255
2.88282 2.77297 276.449 0.720705 0.693242 0  255 255 255 255
2.88282 -2.77297 53.5505 0.720705 -0.693242 0  255 255 255 255
-0.807519 3.91764 257.511 -0.20188 0.97941 0  255 255 255 255
-0.807488 -3.91765 72.4894 -0.201872 -0.979412 0  255 255 255 255
3.72959 -1.44573 189.823 0.932398 -0.361433 0  255 255 255 255
3.73062 1.44308 140.174 0.932655 0.360769 0  255 255 255 255
2.47741 -3.14045 237.729 0.619352 -0.785113 0  255 255 255 255
2.4773 3.14054 92.2711 0.619326 0.785134 0  255 255 255 255
-1.64201 -3.64744 234.672 -0.410503 -0.911859 0  255 255 255 255
-1.64231 3.6473 95.3282 -0.410577 0.911826 0  255 255 255 255
-3.4991 -1.93812 301.664 -0.874775 -0.484529 0  255 255 255 255
-3.4991 1.93812 28.3356 -0.874775 0.484529 0  255 255 255 255
3.7692 -1.33908 242.989 0.9423 -0.334769 0  255 255 255 255
3.88431 -0.955051 87.7169 0.971078 -0.238763 0  255 255 255 255
3.76919 1.33911 87.0112 0.942297 0.334777 0  255 255 255 255
3.88431 0.955079 242.283 0.971076 0.23877 0  255 255 255 255
-1.88858 -3.52608 256.309 -0.472145 -0.881521 0  255 255 255 255
-1.88861 3.52607 73.6915 -0.472153 0.881516 0  255 255 255 255
3.32466 2.22411 272.718 0.831165 0.556026 0  255 255 255 255
3.32466 -2.2241 57.2822 0.831165 -0.556026 0  255 255 255 255
-3.90264 0.877173 146.001 -0.975659 0.219293 0  255 255 255 255
-3.91242 -0.832455 183.975 -0.978105 -0.208114 0  255 255 255 255
-0.734681 3.93195 275.862 -0.18367 0.982988 0  255 255 255 255
-0.73468 -3.93195 54.1384 -0.18367 -0.982988 0  255 255 255 255
1.20069 3.81554 316.011 0.300172 0.953885 0  255 255 255 255
1.20069 -3.81554 13.9888 0.300172 -0.953885 0  255 255 255 255
1.21049 -3.81244 318.189 0.302622 -0.953111 0  255 255 255 255
1.21049 3.81244 11.8113 0.302622 0.953111 0  255 255 255 255
-0.732001 -3.93245 315.853 -0.183 -0.983113 0  255 255 255 255
-0.732001 3.93245 14.1472 -0.183 0.983113 0  255 255 255 255
0.207913 3.99459 319.62 0.051978 0.998648 0  255 255 255 255
0.207913 -3.99459 10.3798 0.051978 -0.998648 0  255 255 255 255
-3.65812 -1.61808 320.228 -0.91453 -0.404519 0  255 255 255 255
-3.65812 1.61808 9.77155 -0.91453 0.404519 0  255 255 255 255
0.55153 3.96179 158.146 0.137883 0.990449 0  255 255 255 255
0.509991 -3.96736 171.674 0.127498 -0.991839 0  255 255 255 255
-3.98582 0.336573 175.605 -0.996454 0.084143 0  255 255 255 255
-3.99496 -0.20066 154.33 -0.998741 -0.050165 0  255 255 255 255
-0.275588 3.99049 178.203 -0.068897 0.997624 0  255 255 255 255
-0.346815 -3.98494 151.863 -0.086704 -0.996234 0  255 255 255 255
-3.83837 1.12557 161.444 -0.959593 0.281393 0  255 255 255 255
-3.93526 -0.716738 168.22 -0.983815 -0.179185 0  255 255 255 255
1.05501 -3.85836 321.775 0.263753 -0.96459 0  255 255 255 255
1.05501 3.85836 8.22506 0.263753 0.96459 0  255 255 255 255
-2.39219 3.20584 298.102 -0.598049 0.80146 0  255 255 255 255
-2.39219 -3.20584 31.8979 -0.598049 -0.80146 0  255 255 255 255
-1.53257 3.69476 156.076 -0.383142 0.923689 0  255 255 255 255
-1.61723 -3.65849 173.762 -0.404307 -0.914623 0  255 255 255 255
-0.993551 -3.87464 298.6 -0.248388 -0.968661 0  255 255 255 255
-0.993551 3.87464 31.4003 -0.248388 0.968661 0  255 255 255 255
-3.84988 1.08554 320.238 -0.962471 0.271386 0  255 255 255 255
-3.84988 -1.08554 9.76188 -0.962471 -0.271386 0  255 255 255 255
2.27001 -3.29349 297.621 0.567503 -0.823372 0  255 255 255 255
2.27001 3.29349 32.379 0.567503 0.823372 0  255 255 255 255
3.01054 2.63376 176.436 0.752634 0.658439 0  255 255 255 255
2.99232 -2.65443 153.636 0.748081 -0.663608 0  255 255 255 255
-3.28309 2.28502 177.017 -0.820772 0.571256 0  255 255 255 255
-3.34728 -2.18991 152.978 -0.83682 -0.547478 0  255 255 255 255
-1.11914 3.84025 161.19 -0.279785 0.960063 0  255 255 255 255
-1.18912 -3.81916 168.433 -0.297281 -0.95479 0  255 255 255 255
1.43715 3.73291 152.908 0.359287 0.933227 0  255 255 255 255
1.40585 -3.74481 177.019 0.351461 -0.936202 0  255 255 255 255
-3.99513 -0.197397 172.136 -0.998782 -0.049349 0  255 255 255 255
-3.97938 0.405628 157.729 -0.994845 0.101407 0  255 255 255 255
-2.6538 2.99288 255.547 -0.66345 0.748221 0  255 255 255 255
-2.65376 -2.99292 74.4534 -0.663441 -0.748229 0  255 255 255 255
-1.95236 3.49117 269.896 -0.488089 0.872794 0  255 255 255 255
-1.95235 -3.49118 60.1039 -0.488088 -0.872794 0  255 255 255 255
-3.92207 0.785748 270.392 -0.980516 0.196437 0  255 255 255 255
-3.92207 -0.785754 59.6077 -0.980516 -0.196438 0  255 255 255 255
-2.79086 -2.8655 270.667 -0.697715 -0.716375 0  255 255 255 255
-2.79086 2.8655 59.333 -0.697716 0.716374 0  255 255 255 255
-3.88168 0.965685 256.613 -0.97042 0.241421 0  255 255 255 255
-3.88167 -0.965729 73.3867 -0.970418 -0.241432 0  255 255 255 255
-1.59653 3.66757 196.603 -0.399132 0.916893 0  255 255 255 255
-1.6031 -3.66471 133.397 -0.400776 -0.916176 0  255 255 255 255
3.13929 2.47888 162.803 0.784822 0.619721 0  255 255 255 255
3.18408 -2.42108 167.12 0.79602 -0.60527 0  255 255 255 255
-3.83579 -1.13434 223.416 -0.958947 -0.283584 0  255 255 255 255
-3.83597 1.13371 106.584 -0.958994 0.283427 0  255 255 255 255
0.89047 -3.89962 256.935 0.222617 -0.974906 0  255 255 255 255
0.890445 3.89963 73.0645 0.222611 0.974907 0  255 255 255 255
-3.51944 1.90093 221.209 -0.87986 0.475233 0  255 255 255 255
-3.51918 -1.90142 108.791 -0.879795 -0.475354 0  255 255 255 255
-3.11016 2.51534 209.685 -0.777539 0.628835 0  255 255 255 255
-3.11053 -2.51487 120.315 -0.777633 -0.628718 0  255 255 255 255
1.86224 -3.54007 285.613 0.46556 -0.885016 0  255 255 255 255
1.86224 3.54007 44.3867 0.46556 0.885016 0  255 255 255 255
-0.406296 3.97931 121.816 -0.101574 0.994828 0  255 255 255 255
-0.406881 -3.97925 208.183 -0.10172 -0.994813 0  255 255 255 255
1.52885 3.6963 179.564 0.382212 0.924075 0  255 255 255 255
1.49056 -3.71191 150.486 0.372639 -0.927977 0  255 255 255 255
-0.721485 -3.93439 323.987 -0.180371 -0.983599 0  255 255 255 255
-0.721485 3.93439 6.01258 -0.180371 0.983599 0  255 255 255 255
-1.38775 3.75155 208.912 -0.346938 0.937888 0  255 255 255 255
-1.38844 -3.7513 121.088 -0.347109 -0.937825 0  255 255 255 255
1.6584 3.64001 245.609 0.4146 0.910004 0  255 255 255 255
1.65848 -3.63998 84.3909 0.414621 -0.909994 0  255 255 255 255
0.134735 -3.99773 236.063 0.033684 -0.999433 0  255 255 255 255
0.134492 3.99774 93.9375 0.033623 0.999435 0  255 255 255 255
-3.96564 -0.523157 235.801 -0.99141 -0.130789 0  255 255 255 255
-3.96569 0.522796 94.1988 -0.991422 0.130699 0  255 255 255 255
-2.35166 3.23569 301.305 -0.587916 0.808922 0  255 255 255 255
-2.35166 -3.23569 28.6946 -0.587916 -0.808922 0  255 255 255 255
1.49122 3.71164 234.625 0.372806 0.92791 0  255 255 255 255
1.49143 -3.71155 95.3749 0.372858 -0.927888 0  255 255 255 255
0.368546 3.98299 155.16 0.092136 0.995746 0  255 255 255 255
0.318478 -3.9873 174.72 0.079619 -0.996825 0  255 255 255 255
0.429605 3.97686 107.658 0.107401 0.994216 0  255 255 255 255
0.430027 -3.97682 222.342 0.107507 -0.994204 0  255 255 255 255
0.385515 3.98138 130.501 0.096379 0.995345 0  255 255 255 255
0.382229 -3.9817 199.496 0.095557 -0.995424 0  255 255 255 255
-3.01882 2.62425 185.712 -0.754706 0.656063 0  255 255 255 255
-3.04258 -2.59667 144.289 -0.760645 -0.649168 0  255 255 255 255
-1.94571 3.49488 131.578 -0.486428 0.873721 0  255 255 255 255
-1.95035 -3.4923 198.419 -0.487588 -0.873074 0  255 255 255 255
-2.16354 3.36438 142.083 -0.540886 0.841096 0  255 255 255 255
-2.18186 -3.35254 187.899 -0.545465 -0.838134 0  255 255 255 255
2.42819 3.17866 306.595 0.607048 0.794665 0  255 255 255 255
2.42819 -3.17866 23.4047 0.607048 -0.794665 0  255 255 255 255
-3.98427 -0.354429 245.243 -0.996067 -0.088607 0  255 255 255 255
-3.98428 0.354266 84.7566 -0.99607 0.088567 0  255 255 255 255
-0.963884 -3.88213 244.488 -0.240971 -0.970532 0  255 255 255 255
-0.964014 3.8821 85.5122 -0.241004 0.970524 0  255 255 255 255
-0.890631 3.89959 225.412 -0.222658 0.974897 0  255 255 255 255
-0.890197 -3.89969 104.588 -0.222549 -0.974921 0  255 255 255 255
2.10603 3.40068 136.228 0.526507 0.850171 0  255 255 255 255
2.1016 -3.40342 193.767 0.525399 -0.850856 0  255 255 255 255
-0.618696 -3.95186 270.707 -0.154674 -0.987966 0  255 255 255 255
-0.6187 3.95186 59.2929 -0.154675 0.987965 0  255 255 255 255
-3.70459 -1.50865 199.084 -0.926147 -0.377162 0  255 255 255 255
-3.70238 1.51407 130.913 -0.925594 0.378517 0  255 255 255 255
2.21307 -3.33201 223.289 0.553268 -0.833004 0  255 255 255 255
2.21283 3.33218 106.711 0.553207 0.833044 0  255 255 255 255
-3.69037 -1.5431 212.009 -0.922593 -0.385775 0  255 255 255 255
-3.69035 1.54315 117.99 -0.922587 0.385789 0  255 255 255 255
1.85911 -3.54171 241.298 0.464778 -0.885427 0  255 255 255 255
1.85901 3.54176 88.7025 0.464752 0.885441 0  255 255 255 255
2.29227 3.27803 269.162 0.573068 0.819508 0  255 255 255 255
2.29227 -3.27803 60.8381 0.573069 -0.819507 0  255 255 255 255
-2.84774 2.80898 158.751 -0.711936 0.702245 0  255 255 255 255
-2.97258 -2.67653 170.994 -0.743144 -0.669131 0  255 255 255 255
-1.13181 3.83654 199.216 -0.282952 0.959134 0  255 255 255 255
-1.13629 -3.83521 130.784 -0.284072 -0.958803 0  255 255 255 255
-3.87766 0.981714 200.013 -0.969415 0.245428 0  255 255 255 255
-3.87894 -0.976657 129.986 -0.969734 -0.244164 0  255 255 255 255
-3.71885 1.47313 240.525 -0.929714 0.368283 0  255 255 255 255
-3.71876 -1.47337 89.4749 -0.929691 -0.368342 0  255 255 255 255
0.961418 3.88274 163.855 0.240354 0.970685 0  255 255 255 255
1.1446 -3.83274 165.927 0.286149 -0.958185 0  255 255 255 255
-3.9945 0.209589 301.458 -0.998626 0.052397 0  255 255 255 255
-3.9945 -0.209589 28.5421 -0.998626 -0.052397 0  255 255 255 255
0.833893 -3.91211 202.9 0.208473 -0.978028 0  255 255 255 255
0.835611 3.91175 127.098 0.208903 0.977936 0  255 255 255 255
-3.12275 2.49969 278.938 -0.780686 0.624923 0  255 255 255 255
-3.12275 -2.49969 51.062 -0.780686 -0.624923 0  255 255 255 255
-3.96314 -0.541791 278.817 -0.990784 -0.135448 0  255 255 255 255
-3.96314 0.54179 51.1832 -0.990785 0.135447 0  255 255 255 255
2.88335 2.77241 265.701 0.720839 0.693103 0  255 255 255 255
2.88336 -2.77241 64.2991 0.720839 -0.693102 0  255 255 255 255
-3.3131 -2.24128 240.367 -0.828276 -0.56032 0  255 255 255 255
-3.31324 2.24108 89.6332 -0.82831 0.56027 0  255 255 255 255
-2.75093 -2.90386 279.493 -0.687732 -0.725965 0  255 255 255 255
-2.75093 2.90386 50.5069 -0.687732 0.725964 0  255 255 255 255
-0.711454 3.93622 193.683 -0.177864 0.984055 0  255 255 255 255
-0.721477 -3.9344 136.319 -0.180369 -0.983599 0  255 255 255 255
-1.49414 3.71046 180.944 -0.373535 0.927616 0  255 255 255 255
-1.54864 -3.68805 149.082 -0.387159 -0.922013 0  255 255 255 255
-1.25702 3.79735 173.201 -0.314255 0.949339 0  255 255 255 255
-1.41876 -3.73994 156.926 -0.35469 -0.934984 0  255 255 255 255
1.14991 -3.83115 299.724 0.287477 -0.957787 0  255 255 255 255
1.14991 3.83115 30.2756 0.287477 0.957787 0  255 255 255 255
-0.100314 3.99874 268.064 -0.025078 0.999685 0  255 255 255 255
-0.100308 -3.99874 61.9359 -0.025077 -0.999686 0  255 255 255 255
-0.778037 3.9236 299.613 -0.194509 0.980901 0  255 255 255 255
-0.778037 -3.9236 30.3867 -0.194509 -0.980901 0  255 255 255 255
-3.57546 1.79335 299.831 -0.893864 0.448338 0  255 255 255 255
-3.57546 -1.79335 30.1688 -0.893864 -0.448338 0  255 255 255 255
-2.25471 3.30398 205.618 -0.563678 0.825995 0  255 255 255 255
-2.25617 -3.30298 124.382 -0.564043 -0.825745 0  255 255 255 255
-3.30683 2.25052 268.509 -0.826708 0.562631 0  255 255 255 255
-3.30683 -2.25053 61.4909 -0.826707 -0.562632 0  255 255 255 255
-3.84785 -1.09272 269.08 -0.961963 -0.273181 0  255 255 255 255
-3.84785 1.09272 60.9202 -0.961963 0.273179 0  255 255 255 255
-1.79261 -3.57583 268.222 -0.448151 -0.893958 0  255 255 255 255
-1.79261 3.57583 61.7781 -0.448153 0.893957 0  255 255 255 255
1.66181 3.63846 309.07 0.415452 0.909615 0  255 255 255 255
1.66181 -3.63846 20.9296 0.415452 -0.909615 0  255 255 255 255
0.447651 3.97487 171.328 0.111913 0.993718 0  255 255 255 255
0.280886 -3.99013 159.211 0.070221 -0.997531 0  255 255 255 255
-3.21175 2.38425 137.691 -0.802937 0.596063 0  255 255 255 255
-3.2202 -2.37283 192.301 -0.805049 -0.593209 0  255 255 255 255
-2.95218 2.69901 198.501 -0.738044 0.674752 0  255 255 255 255
-2.95641 -2.69437 131.498 -0.739104 -0.673592 0  255 255 255 255
-2.701 2.95035 128.77 -0.675251 0.737588 0  255 255 255 255
-2.70379 -2.9478 201.227 -0.675948 -0.73695 0  255 255 255 255
-1.51625 3.70148 306.173 -0.379063 0.925371 0  255 255 255 255
-1.51625 -3.70148 23.8274 -0.379063 -0.925371 0  255 255 255 255
-3.81398 1.20565 306.54 -0.953494 0.301413 0  255 255 255 255
-3.81398 -1.20565 23.4596 -0.953494 -0.301413 0  255 255 255 255
-3.89986 -0.889426 307.377 -0.974965 -0.222357 0  255 255 255 255
-3.89986 0.889426 22.6228 -0.974965 0.222357 0  255 255 255 255
-1.79657 3.57384 326.652 -0.449144 0.89346 0  255 255 255 255
-1.79657 -3.57384 3.34751 -0.449144 -0.89346 0  255 255 255 255
-3.74867 1.39551 326.72 -0.937168 0.348878 0  255 255 255 255
-3.74867 -1.39551 3.28022 -0.937168 -0.348878 0  255 255 255 255
-3.71047 -1.49411 326.773 -0.927619 -0.373528 0  255 255 255 255
-3.71047 1.49411 3.22705 -0.927619 0.373528 0  255 255 255 255
-1.89978 -3.52006 326.837 -0.474946 -0.880015 0  255 255 255 255
-1.89978 3.52006 3.16258 -0.474946 0.880015 0  255 255 255 255
-3.05203 -2.58556 292.107 -0.763008 -0.646389 0  255 255 255 255
-3.05203 2.58556 37.8933 -0.763008 0.646389 0  255 255 255 255
-2.02971 -3.44678 237.803 -0.507427 -0.861695 0  255 255 255 255
-2.02994 3.44664 92.1976 -0.507484 0.861661 0  255 255 255 255
-0.547106 3.96241 247.315 -0.136776 0.990602 0  255 255 255 255
-0.547003 -3.96242 82.6851 -0.136751 -0.990605 0  255 255 255 255
-2.02694 3.44841 149.552 -0.506736 0.862101 0  255 255 255 255
-2.07254 -3.4212 180.389 -0.518135 -0.855299 0  255 255 255 255
0.293608 -3.98921 292.738 0.073402 -0.997302 0  255 255 255 255
0.293608 3.98921 37.2624 0.073402 0.997302 0  255 255 255 255
-0.149585 -3.9972 304.967 -0.037396 -0.999301 0  255 255 255 255
-0.149585 3.9972 25.0332 -0.037396 0.999301 0  255 255 255 255
-2.18478 3.35063 123.045 -0.546195 0.837658 0  255 255 255 255
-2.18568 -3.35004 206.954 -0.546421 -0.837511 0  255 255 255 255
0.674904 3.94265 199.239 0.168726 0.985663 0  255 255 255 255
0.671263 -3.94327 130.762 0.167816 -0.985818 0  255 255 255 255
1.77685 3.58368 143.181 0.444213 0.895921 0  255 255 255 255
1.76548 -3.5893 186.803 0.441369 -0.897325 0  255 255 255 255
2.3602 3.22947 183.885 0.59005 0.807367 0  255 255 255 255
2.34403 -3.24122 146.132 0.586008 -0.810305 0  255 255 255 255
-3.75787 1.37056 192.747 -0.939467 0.342641 0  255 255 255 255
-3.76304 -1.3563 137.25 -0.940759 -0.339075 0  255 255 255 255
-1.08308 3.85058 143.743 -0.27077 0.962644 0  255 255 255 255
-1.10555 -3.84419 186.233 -0.276386 -0.961047 0  255 255 255 255
-3.99666 0.163433 221.488 -0.999165 0.040858 0  255 255 255 255
-3.99663 -0.16406 108.512 -0.999159 -0.041015 0  255 255 255 255
-3.67297 -1.58407 220.062 -0.918243 -0.396016 0  255 255 255 255
-3.67323 1.58347 109.938 -0.918308 0.395867 0  255 255 255 255
0.822236 3.91458 231.975 0.205559 0.978645 0  255 255 255 255
0.822524 -3.91452 98.0254 0.205631 -0.97863 0  255 255 255 255
-3.97734 -0.425121 226.495 -0.994336 -0.10628 0  255 255 255 255
-3.97741 0.424545 103.505 -0.994352 0.106136 0  255 255 255 255
-1.13835 -3.8346 224.855 -0.284587 -0.95865 0  255 255 255 255
-1.13883 3.83446 105.145 -0.284706 0.958615 0  255 255 255 255
1.63753 -3.64945 214.82 0.409382 -0.912363 0  255 255 255 255
1.63739 3.64951 115.179 0.409347 0.912379 0  255 255 255 255
-3.90824 -0.851842 284.894 -0.977061 -0.212961 0  255 255 255 255
-3.90824 0.851842 45.1058 -0.977061 0.212961 0  255 255 255 255
-2.67815 -2.97111 284.393 -0.669538 -0.742778 0  255 255 255 255
-2.67815 2.97111 45.6071 -0.669538 0.742777 0  255 255 255 255
1.93257 -3.50217 269.115 0.483143 -0.875541 0  255 255 255 255
1.93257 3.50217 60.885 0.483143 0.875542 0  255 255 255 255
2.43878 3.17055 193.757 0.609694 0.792637 0  255 255 255 255
2.43451 -3.17382 136.245 0.608629 -0.793455 0  255 255 255 255
-2.82472 2.83213 276.266 -0.70618 0.708032 0  255 255 255 255
-2.82472 -2.83213 53.7339 -0.70618 -0.708032 0  255 255 255 255
-3.93277 -0.730269 275.829 -0.983193 -0.182567 0  255 255 255 255
-3.93277 0.730267 54.171 -0.983193 0.182567 0  255 255 255 255
-2.55262 3.07963 242.093 -0.638156 0.769907 0  255 255 255 255
-2.55247 -3.07976 87.9067 -0.638116 -0.76994 0  255 255 255 255
0.119814 -3.9982 242.168 0.029954 -0.999551 0  255 255 255 255
0.119668 3.99821 87.8319 0.029917 0.999552 0  255 255 255 255
-1.69918 -3.62116 277.74 -0.424796 -0.905289 0  255 255 255 255
-1.69918 3.62116 52.2599 -0.424796 0.905289 0  255 255 255 255
2.31254 3.26376 319.254 0.578136 0.815941 0  255 255 255 255
2.80281 -2.85382 320.086 0.700702 -0.713454 0  255 255 255 255
2.31254 -3.26376 10.746 0.578136 -0.815941 0  255 255 255 255
2.80281 2.85382 9.91404 0.700702 0.713454 0  255 255 255 255
-2.5008 3.12186 245.598 -0.625201 0.780464 0  255 255 255 255
-2.50069 -3.12195 84.4021 -0.625173 -0.780487 0  255 255 255 255
-1.5058 3.70575 291.885 -0.376449 0.926437 0  255 255 255 255
-1.5058 -3.70575 38.1151 -0.376449 -0.926437 0  255 255 255 255
-3.99068 0.272918 250.84 -0.99767 0.068229 0  255 255 255 255
-3.99067 -0.273008 79.1604 -0.997668 -0.068252 0  255 255 255 255
-3.46896 1.99156 291.462 -0.86724 0.497891 0  255 255 255 255
-3.46896 -1.99156 38.5383 -0.867239 -0.497891 0  255 255 255 255
-3.93829 -0.699934 291.622 -0.984571 -0.174983 0  255 255 255 255
-3.93829 0.699934 38.3783 -0.984571 0.174983 0  255 255 255 255
-0.25036 3.99216 282.91 -0.06259 0.998039 0  255 255 255 255
-0.250359 -3.99216 47.0903 -0.06259 -0.998039 0  255 255 255 255
-3.99819 0.120395 312.193 -0.999547 0.030099 0  255 255 255 255
-3.99819 -0.120395 17.8069 -0.999547 -0.030099 0  255 255 255 255
-3.49581 1.94405 312.042 -0.873952 0.486012 0  255 255 255 255
-3.49581 -1.94405 17.9581 -0.873952 -0.486012 0  255 255 255 255
-2.41393 -3.18951 313.181 -0.603482 -0.797377 0  255 255 255 255
-2.41393 3.18951 16.8186 -0.603482 0.797377 0  255 255 255 255
-1.71859 3.61199 312.5 -0.429647 0.902997 0  255 255 255 255
-1.71859 -3.61199 17.5002 -0.429647 -0.902997 0  255 255 255 255
-0.24343 3.99259 141.422 -0.060857 0.998146 0  255 255 255 255
-0.259159 -3.9916 188.562 -0.06479 -0.997899 0  255 255 255 255
0.764555 -3.92625 276.731 0.191139 -0.981563 0  255 255 255 255
0.764554 3.92625 53.2687 0.191138 0.981563 0  255 255 255 255
0.378162 3.98208 118.728 0.09454 0.995521 0  255 255 255 255
0.378031 -3.9821 211.272 0.094508 -0.995524 0  255 255 255 255
-1.30726 3.78035 215.895 -0.326814 0.945089 0  255 255 255 255
-1.30709 -3.78041 114.106 -0.326773 -0.945103 0  255 255 255 255
-1.9976 3.46549 139.117 -0.499399 0.866372 0  255 255 255 255
-2.01067 -3.45792 190.871 -0.502668 -0.86448 0  255 255 255 255
-2.7154 -2.93711 250.788 -0.678851 -0.734276 0  255 255 255 255
-2.71546 2.93705 79.2116 -0.678865 0.734263 0  255 255 255 255
1.00297 3.87222 220.559 0.250742 0.968054 0  255 255 255 255
1.00325 -3.87214 109.442 0.250812 -0.968036 0  255 255 255 255
-2.95301 2.6981 305.76 -0.738252 0.674525 0  255 255 255 255
-2.95301 -2.6981 24.2399 -0.738252 -0.674525 0  255 255 255 255
1.82819 3.55777 132.703 0.457048 0.889442 0  255 255 255 255
1.82504 -3.55938 197.294 0.456261 -0.889846 0  255 255 255 255
-3.99249 -0.245001 186.538 -0.998122 -0.06125 0  255 255 255 255
-3.9903 0.278389 143.448 -0.997575 0.069597 0  255 255 255 255
-1.67226 3.63367 212.232 -0.418066 0.908417 0  255 255 255 255
-1.67245 -3.63358 117.768 -0.418112 -0.908396 0  255 255 255 255
1.7445 3.59955 146.84 0.436125 0.899886 0  255 255 255 255
1.72715 -3.6079 183.132 0.431788 -0.901975 0  255 255 255 255
1.40006 3.74698 191.866 0.350014 0.936744 0  255 255 255 255
1.39126 -3.75025 138.137 0.347816 -0.937563 0  255 255 255 255
0.00985 3.99999 134.027 0.002462 0.999997 0  255 255 255 255
0.003789 -4 195.968 0.000947 -1 0  255 255 255 255
3.34635 -2.19133 292.404 0.836589 -0.547832 0  255 255 255 255
3.34635 2.19133 37.5957 0.836589 0.547832 0  255 255 255 255
-2.8336 -2.82325 217.848 -0.708399 -0.705812 0  255 255 255 255
-2.834 2.82285 112.152 -0.708499 0.705711 0  255 255 255 255
-0.885501 3.90075 240.085 -0.221375 0.975189 0  255 255 255 255
-0.885295 -3.9008 89.9154 -0.221324 -0.9752 0  255 255 255 255
1.21791 -3.81008 225.802 0.304479 -0.952519 0  255 255 255 255
1.21758 3.81018 104.198 0.304395 0.952546 0  255 255 255 255
3.34531 2.19291 326.737 0.836328 0.548229 0  255 255 255 255
3.34531 -2.19291 3.2629 0.836328 -0.548229 0  255 255 255 255
-2.19777 3.34213 144.46 -0.549442 0.835532 0  255 255 255 255
-2.22258 -3.32568 185.513 -0.555645 -0.83142 0  255 255 255 255
-3.98591 -0.335387 298.168 -0.996479 -0.083847 0  255 255 255 255
-3.98591 0.335387 31.8319 -0.996479 0.083847 0  255 255 255 255
-3.7797 1.30916 247.634 -0.944924 0.327291 0  255 255 255 255
-3.77965 -1.30928 82.3663 -0.944913 -0.327321 0  255 255 255 255
-3.727 -1.4524 248.261 -0.93175 -0.363101 0  255 255 255 255
-3.72704 1.45229 81.7386 -0.931761 0.363073 0  255 255 255 255
3.53581 1.87031 305.33 0.883952 0.467577 0  255 255 255 255
3.53581 -1.87031 24.6696 0.883952 -0.467577 0  255 255 255 255
1.70568 -3.6181 250.075 0.42642 -0.904525 0  255 255 255 255
1.70563 3.61812 79.9249 0.426409 0.904531 0  255 255 255 255
1.90448 -3.51752 282.928 0.476121 -0.87938 0  255 255 255 255
1.90448 3.51752 47.0717 0.476121 0.87938 0  255 255 255 255
-1.164 3.82689 128.172 -0.291 0.956723 0  255 255 255 255
-1.16681 -3.82604 201.826 -0.291702 -0.956509 0  255 255 255 255
-3.68302 1.56056 149.442 -0.920755 0.39014 0  255 255 255 255
-3.709 -1.49778 180.511 -0.927249 -0.374445 0  255 255 255 255
-3.47527 -1.98053 208.306 -0.868817 -0.495132 0  255 255 255 255
-3.47483 1.9813 121.693 -0.868708 0.495324 0  255 255 255 255
0.839369 3.91094 293.155 0.209842 0.977735 0  255 255 255 255
0.839369 -3.91094 36.8445 0.209842 -0.977735 0  255 255 255 255
0.345398 -3.98506 289.199 0.08635 -0.996265 0  255 255 255 255
0.345398 3.98506 40.8011 0.08635 0.996265 0  255 255 255 255
2.87719 -2.77881 255.326 0.719296 -0.694703 0  255 255 255 255
2.87717 2.77883 74.6737 0.719293 0.694706 0  255 255 255 255
1.2213 3.80899 252.525 0.305326 0.952248 0  255 255 255 255
1.22135 -3.80898 77.4751 0.305336 -0.952245 0  255 255 255 255
-3.13871 -2.47961 244.227 -0.784678 -0.619903 0  255 255 255 255
-3.13882 2.47948 85.7732 -0.784704 0.61987 0  255 255 255 255
0.803576 3.91845 312.289 0.200894 0.979613 0  255 255 255 255
0.803576 -3.91845 17.7115 0.200894 -0.979613 0  255 255 255 255
-3.84056 1.11808 281.58 -0.96014 0.27952 0  255 255 255 255
-3.84056 -1.11808 48.42 -0.96014 -0.279521 0  255 255 255 255
