ply
format ascii 1.0
comment VCGLIB generated
element vertex 1143
property float x
property float y
property float z
property float nx
property float ny
property float nz
property uchar red
property uchar green
property uchar blue
property uchar alpha
element face 0
property list uchar int vertex_indices
end_header
9.63696 3 8.28763 0 1 0  255 255 255 255
9.63635 3 1.71234 0 1 0  255 255 255 255
-4.3005 3 0.702713 0 1 0  255 255 255 255
15.0429 3 3.12619 0 1 0  255 255 255 255
13.6967 3 8.17209 0 1 0  255 255 255 255
13.6957 3 1.81181 0 1 0  255 255 255 255
18.3947 3 5.45782 0 1 0  255 255 255 255
8.70465 3 9.2923 0 1 0  255 255 255 255
8.7045 3 0.707542 0 1 0  255 255 255 255
2.31428 3 4.21712 0 1 0  255 255 255 255
2.30858 3 5.77481 0 1 0  255 255 255 255
10.5102 3 5.49641 0 1 0  255 255 255 255
-15.3107 3 2.9091 0 1 0  255 255 255 255
8.5096 3 8.11814 0 1 0  255 255 255 255
8.50912 3 1.88179 0 1 0  255 255 255 255
7.30916 3 9.30592 0 1 0  255 255 255 255
7.30914 3 0.694081 0 1 0  255 255 255 255
-9.78082 3 0.648808 0 1 0  255 255 255 255
-15.4469 3 5.70653 0 1 0  255 255 255 255
-4.26205 3 3.60066 0 1 0  255 255 255 255
4.13362 3 0.714655 0 1 0  255 255 255 255
4.13552 3 9.25844 0 1 0  255 255 255 255
0.516066 3 2.47245 0 1 0  255 255 255 255
7.22446 3 8.16166 0 1 0  255 255 255 255
7.22426 3 1.83817 0 1 0  255 255 255 255
0.939261 3 7.45431 0 1 0  255 255 255 255
-5.68268 3 3.14926 0 1 0  255 255 255 255
-1.32218 3 0.649825 0 1 0  255 255 255 255
-12.9186 3 7.4069 0 1 0  255 255 255 255
-6.89043 3 2.60323 0 1 0  255 255 255 255
1.1457 3 9.22509 0 1 0  255 255 255 255
-11.6593 3 2.4139 0 1 0  255 255 255 255
-17.6255 3 1.95896 0 1 0  255 255 255 255
-17.6227 3 8.05454 0 1 0  255 255 255 255
-8.43042 3 5.58165 0 1 0  255 255 255 255
9.6727 3 4.38871 0 1 0  255 255 255 255
19.4642 3 3.25268 0 1 0  255 255 255 255
-19.4634 3 6.7491 0 1 0  255 255 255 255
1.91811 3 2.14899 0 1 0  255 255 255 255
-13.4267 3 5.20612 0 1 0  255 255 255 255
7.76468 3 5.53457 0 1 0  255 255 255 255
10.7707 3 4.47701 0 1 0  255 255 255 255
-11.433 3 6.62181 0 1 0  255 255 255 255
-5.24749 3 7.11947 0 1 0  255 255 255 255
-7.39344 3 7.80268 0 1 0  255 255 255 255
-7.97532 3 3.32134 0 1 0  255 255 255 255
-2.97576 3 2.53927 0 1 0  255 255 255 255
-12.9133 3 0.566538 0 1 0  255 255 255 255
4.23805 3 8.12039 0 1 0  255 255 255 255
14.5978 3 0.68756 0 1 0  255 255 255 255
14.6919 3 9.3004 0 1 0  255 255 255 255
-9.4476 3 4.46644 0 1 0  255 255 255 255
-0.619448 3 5.33827 0 1 0  255 255 255 255
-11.6691 3 0.571289 0 1 0  255 255 255 255
-5.02925 3 1.46737 0 1 0  255 255 255 255
3.12542 3 8.23852 0 1 0  255 255 255 255
3.60202 3 1.98672 0 1 0  255 255 255 255
2.15939 3 9.30322 0 1 0  255 255 255 255
5.27685 3 9.31392 0 1 0  255 255 255 255
5.3249 3 0.690129 0 1 0  255 255 255 255
-2.91603 3 5.66102 0 1 0  255 255 255 255
-14.8003 3 9.34394 0 1 0  255 255 255 255
-14.8069 3 0.659105 0 1 0  255 255 255 255
-8.54695 3 7.57897 0 1 0  255 255 255 255
11.4039 3 7.60621 0 1 0  255 255 255 255
11.4033 3 2.39351 0 1 0  255 255 255 255
-5.00347 3 5.22569 0 1 0  255 255 255 255
6.6044 3 4.92201 0 1 0  255 255 255 255
-5.96099 3 4.48507 0 1 0  255 255 255 255
12.8743 3 6.52485 0 1 0  255 255 255 255
12.9038 3 3.47269 0 1 0  255 255 255 255
12.6604 3 9.31435 0 1 0  255 255 255 255
12.6613 3 0.684322 0 1 0  255 255 255 255
-10.784 3 6.89516 0 1 0  255 255 255 255
-16.1731 3 5.84517 0 1 0  255 255 255 255
16.1575 3 5.90812 0 1 0  255 255 255 255
-10.4339 3 5.3458 0 1 0  255 255 255 255
-19.3908 3 4.94932 0 1 0  255 255 255 255
19.4083 3 5.05794 0 1 0  255 255 255 255
-7.63394 3 5.74872 0 1 0  255 255 255 255
-4.37473 3 2.67306 0 1 0  255 255 255 255
-2.55792 3 7.54339 0 1 0  255 255 255 255
-4.85476 3 9.43994 0 1 0  255 255 255 255
-17.1249 3 6.43884 0 1 0  255 255 255 255
17.1247 3 6.43354 0 1 0  255 255 255 255
-18.3608 3 5.75624 0 1 0  255 255 255 255
-5.92202 3 8.48717 0 1 0  255 255 255 255
-11.7505 3 9.37811 0 1 0  255 255 255 255
-14.2859 3 1.88993 0 1 0  255 255 255 255
-14.2764 3 7.10106 0 1 0  255 255 255 255
14.5021 3 8.11289 0 1 0  255 255 255 255
-13.7961 3 3.9769 0 1 0  255 255 255 255
-10.4703 3 0.595418 0 1 0  255 255 255 255
15.7184 3 0.680726 0 1 0  255 255 255 255
15.7627 3 9.28455 0 1 0  255 255 255 255
-5.82304 3 9.32611 0 1 0  255 255 255 255
-3.52477 3 8.34411 0 1 0  255 255 255 255
7.63446 3 4.44536 0 1 0  255 255 255 255
-12.0254 3 3.72278 0 1 0  255 255 255 255
-3.7485 3 9.42356 0 1 0  255 255 255 255
3.43497 3 9.29068 0 1 0  255 255 255 255
3.4301 3 0.701082 0 1 0  255 255 255 255
3.06412 3 1.55093 0 1 0  255 255 255 255
11.6326 3 9.42898 0 1 0  255 255 255 255
11.6363 3 0.569109 0 1 0  255 255 255 255
8.78373 3 6.06768 0 1 0  255 255 255 255
-16.5496 3 2.53668 0 1 0  255 255 255 255
-0.393188 3 6.86376 0 1 0  255 255 255 255
-9.71542 3 1.83282 0 1 0  255 255 255 255
-0.879414 3 9.34783 0 1 0  255 255 255 255
-6.52572 3 6.77462 0 1 0  255 255 255 255
-15.9262 3 3.75893 0 1 0  255 255 255 255
-0.657784 3 0.595764 0 1 0  255 255 255 255
6.29569 3 8.3773 0 1 0  255 255 255 255
11.4314 3 6.68086 0 1 0  255 255 255 255
6.29352 3 1.65996 0 1 0  255 255 255 255
11.4413 3 3.36751 0 1 0  255 255 255 255
-8.19236 3 4.5953 0 1 0  255 255 255 255
6.57138 3 9.30883 0 1 0  255 255 255 255
11.8961 3 1.68541 0 1 0  255 255 255 255
6.57668 3 0.689409 0 1 0  255 255 255 255
12.382 3 8.24601 0 1 0  255 255 255 255
3.63837 3 4.37953 0 1 0  255 255 255 255
14.4895 3 5.46963 0 1 0  255 255 255 255
13.9186 3 0.644111 0 1 0  255 255 255 255
13.9191 3 9.35613 0 1 0  255 255 255 255
17.2264 3 0.564688 0 1 0  255 255 255 255
17.2264 3 9.43531 0 1 0  255 255 255 255
14.2138 3 3.89725 0 1 0  255 255 255 255
10.7352 3 6.47339 0 1 0  255 255 255 255
10.6562 3 3.5238 0 1 0  255 255 255 255
-1.30591 3 1.90208 0 1 0  255 255 255 255
19.41 3 4.31634 0 1 0  255 255 255 255
-19.4239 3 5.67712 0 1 0  255 255 255 255
8.16647 3 6.98523 0 1 0  255 255 255 255
8.18669 3 3.0056 0 1 0  255 255 255 255
-0.874932 3 4.4758 0 1 0  255 255 255 255
-12.9624 3 9.4505 0 1 0  255 255 255 255
12.4408 3 4.99971 0 1 0  255 255 255 255
-4.89138 3 8.32908 0 1 0  255 255 255 255
11.8227 3 4.99666 0 1 0  255 255 255 255
15.0698 3 6.52638 0 1 0  255 255 255 255
15.9138 3 3.8325 0 1 0  255 255 255 255
-12.2127 3 5.429 0 1 0  255 255 255 255
-12.4337 3 6.19704 0 1 0  255 255 255 255
-1.59845 3 5.52392 0 1 0  255 255 255 255
7.53045 3 8.65465 0 1 0  255 255 255 255
7.53032 3 1.34525 0 1 0  255 255 255 255
0.671231 3 6.82637 0 1 0  255 255 255 255
-10.839 3 1.47337 0 1 0  255 255 255 255
-3.70403 3 5.48068 0 1 0  255 255 255 255
14.6752 3 4.44178 0 1 0  255 255 255 255
-14.6645 3 8.09853 0 1 0  255 255 255 255
-5.95588 3 5.11867 0 1 0  255 255 255 255
-15.9134 3 9.4147 0 1 0  255 255 255 255
-15.9396 3 0.55849 0 1 0  255 255 255 255
5.91563 3 7.71364 0 1 0  255 255 255 255
-10.1566 3 4.46376 0 1 0  255 255 255 255
-11.7605 3 7.80406 0 1 0  255 255 255 255
9.27221 3 7.83592 0 1 0  255 255 255 255
9.27617 3 2.1751 0 1 0  255 255 255 255
10.5205 3 0.568706 0 1 0  255 255 255 255
10.5206 3 9.43133 0 1 0  255 255 255 255
6.7526 3 6.16309 0 1 0  255 255 255 255
-3.75225 3 4.3654 0 1 0  255 255 255 255
-10.1127 3 9.27771 0 1 0  255 255 255 255
18.463 3 0.544143 0 1 0  255 255 255 255
18.463 3 9.45586 0 1 0  255 255 255 255
-5.47684 3 0.590891 0 1 0  255 255 255 255
0.888722 3 5.72821 0 1 0  255 255 255 255
5.88297 3 3.24719 0 1 0  255 255 255 255
4.18047 3 6.67282 0 1 0  255 255 255 255
7.02615 3 5.55446 0 1 0  255 255 255 255
19.4943 3 6.15605 0 1 0  255 255 255 255
-19.4859 3 3.84538 0 1 0  255 255 255 255
-0.2604 3 1.46533 0 1 0  255 255 255 255
1.03147 3 3.77669 0 1 0  255 255 255 255
-18.4062 3 5.06773 0 1 0  255 255 255 255
-14.0557 3 0.597502 0 1 0  255 255 255 255
-14.1028 3 9.42752 0 1 0  255 255 255 255
18.4351 3 2.98725 0 1 0  255 255 255 255
-18.4945 3 7.01725 0 1 0  255 255 255 255
18.4551 3 7.01149 0 1 0  255 255 255 255
-18.4352 3 2.93855 0 1 0  255 255 255 255
-4.31422 3 6.31717 0 1 0  255 255 255 255
2.89879 3 2.89341 0 1 0  255 255 255 255
2.98061 3 7.0387 0 1 0  255 255 255 255
-2.19544 3 6.96377 0 1 0  255 255 255 255
-14.9362 3 4.23012 0 1 0  255 255 255 255
1.35826 3 0.610384 0 1 0  255 255 255 255
-17.0405 3 3.48904 0 1 0  255 255 255 255
-0.858678 3 8.32527 0 1 0  255 255 255 255
4.51029 3 5.87705 0 1 0  255 255 255 255
-3.50069 3 1.57436 0 1 0  255 255 255 255
-7.47843 3 1.51708 0 1 0  255 255 255 255
16.6637 3 1.49829 0 1 0  255 255 255 255
16.5996 3 8.53198 0 1 0  255 255 255 255
13.5494 3 4.20647 0 1 0  255 255 255 255
6.78259 3 7.18992 0 1 0  255 255 255 255
6.83705 3 2.77844 0 1 0  255 255 255 255
-12.5681 3 8.43989 0 1 0  255 255 255 255
0.903798 3 1.58619 0 1 0  255 255 255 255
-2.99983 3 9.4583 0 1 0  255 255 255 255
-13.7804 3 1.5756 0 1 0  255 255 255 255
11.8116 3 6.10497 0 1 0  255 255 255 255
-12.5984 3 1.6233 0 1 0  255 255 255 255
-17.2308 3 0.535192 0 1 0  255 255 255 255
-17.2308 3 9.46481 0 1 0  255 255 255 255
11.8236 3 3.88911 0 1 0  255 255 255 255
-13.398 3 5.83606 0 1 0  255 255 255 255
-6.74486 3 9.45352 0 1 0  255 255 255 255
4.63983 3 3.85798 0 1 0  255 255 255 255
10.0212 3 5.45004 0 1 0  255 255 255 255
1.97979 3 1.50663 0 1 0  255 255 255 255
-13.7392 3 8.61471 0 1 0  255 255 255 255
-7.30281 3 3.60729 0 1 0  255 255 255 255
-6.33151 3 7.48405 0 1 0  255 255 255 255
7.69083 3 6.54175 0 1 0  255 255 255 255
-15.9095 3 2.10626 0 1 0  255 255 255 255
11.5012 3 4.45551 0 1 0  255 255 255 255
-11.9745 3 7.21357 0 1 0  255 255 255 255
11.5305 3 5.55851 0 1 0  255 255 255 255
-8.68691 3 2.18828 0 1 0  255 255 255 255
-1.91435 3 9.48139 0 1 0  255 255 255 255
-9.5836 3 3.40083 0 1 0  255 255 255 255
-6.79816 3 3.25301 0 1 0  255 255 255 255
15.6922 3 7.87935 0 1 0  255 255 255 255
8.49632 3 8.7082 0 1 0  255 255 255 255
8.49602 3 1.2918 0 1 0  255 255 255 255
15.2561 3 3.69475 0 1 0  255 255 255 255
-16.7602 3 8.53043 0 1 0  255 255 255 255
-16.7555 3 1.46668 0 1 0  255 255 255 255
-0.274365 3 9.3941 0 1 0  255 255 255 255
-17.3358 3 5.38075 0 1 0  255 255 255 255
17.3026 3 5.36353 0 1 0  255 255 255 255
-17.3897 3 4.6367 0 1 0  255 255 255 255
17.3425 3 4.57501 0 1 0  255 255 255 255
-6.25068 3 3.50977 0 1 0  255 255 255 255
3.22751 3 5.97415 0 1 0  255 255 255 255
-18.4924 3 9.43548 0 1 0  255 255 255 255
-18.4924 3 0.564522 0 1 0  255 255 255 255
-17.7749 3 1.38723 0 1 0  255 255 255 255
-17.7747 3 8.61375 0 1 0  255 255 255 255
-6.13848 3 0.561162 0 1 0  255 255 255 255
1.85848 3 8.33735 0 1 0  255 255 255 255
15.3445 3 1.6828 0 1 0  255 255 255 255
-1.28277 3 7.31778 0 1 0  255 255 255 255
-10.1983 3 8.24344 0 1 0  255 255 255 255
1.21808 3 8.4281 0 1 0  255 255 255 255
19.4631 3 7.18965 0 1 0  255 255 255 255
-19.4631 3 2.81035 0 1 0  255 255 255 255
3.42532 3 3.80632 0 1 0  255 255 255 255
-5.83748 3 6.1429 0 1 0  255 255 255 255
-18.4482 3 7.72869 0 1 0  255 255 255 255
-18.4482 3 2.27131 0 1 0  255 255 255 255
18.4176 3 7.59279 0 1 0  255 255 255 255
18.4161 3 2.40079 0 1 0  255 255 255 255
-5.33323 3 2.57615 0 1 0  255 255 255 255
9.23789 3 7.16492 0 1 0  255 255 255 255
14.3401 3 1.98405 0 1 0  255 255 255 255
9.24083 3 2.86699 0 1 0  255 255 255 255
-11.9936 3 1.58227 0 1 0  255 255 255 255
8.73075 3 3.2128 0 1 0  255 255 255 255
8.73059 3 6.78703 0 1 0  255 255 255 255
5.89705 3 5.18187 0 1 0  255 255 255 255
-13.0955 3 3.20244 0 1 0  255 255 255 255
-7.78433 3 2.67891 0 1 0  255 255 255 255
19.5068 3 9.51818 0 1 0  255 255 255 255
19.5068 3 0.481815 0 1 0  255 255 255 255
-19.5091 3 0.481798 0 1 0  255 255 255 255
-19.5091 3 9.5182 0 1 0  255 255 255 255
17.7272 3 1.38531 0 1 0  255 255 255 255
17.7272 3 8.6154 0 1 0  255 255 255 255
17.102 3 3.39559 0 1 0  255 255 255 255
-19.4268 3 7.68189 0 1 0  255 255 255 255
19.4268 3 2.31811 0 1 0  255 255 255 255
-9.83399 3 7.30881 0 1 0  255 255 255 255
11.8109 3 7.17407 0 1 0  255 255 255 255
-2.23324 3 5.95725 0 1 0  255 255 255 255
11.8102 3 2.8264 0 1 0  255 255 255 255
1.63153 3 7.35038 0 1 0  255 255 255 255
11.5282 3 1.20836 0 1 0  255 255 255 255
11.4944 3 8.77459 0 1 0  255 255 255 255
7.09117 3 6.64588 0 1 0  255 255 255 255
10.3713 3 7.48705 0 1 0  255 255 255 255
10.3938 3 2.51569 0 1 0  255 255 255 255
-5.98295 3 1.61821 0 1 0  255 255 255 255
-13.965 3 4.64656 0 1 0  255 255 255 255
-16.7394 3 7.48519 0 1 0  255 255 255 255
5.09458 3 1.58699 0 1 0  255 255 255 255
-10.8203 3 7.54241 0 1 0  255 255 255 255
-15.7961 3 7.94659 0 1 0  255 255 255 255
12.4153 3 6.06141 0 1 0  255 255 255 255
-7.43656 3 7.12387 0 1 0  255 255 255 255
-14.9223 3 1.40498 0 1 0  255 255 255 255
12.4136 3 3.7365 0 1 0  255 255 255 255
-8.85846 3 5.90039 0 1 0  255 255 255 255
5.16615 3 3.98133 0 1 0  255 255 255 255
18.3746 3 4.94624 0 1 0  255 255 255 255
5.26405 3 7.76095 0 1 0  255 255 255 255
2.05992 3 7.78659 0 1 0  255 255 255 255
4.12987 3 5.42883 0 1 0  255 255 255 255
6.80252 3 3.82645 0 1 0  255 255 255 255
-10.6656 3 9.45794 0 1 0  255 255 255 255
18.7412 3 4.09055 0 1 0  255 255 255 255
4.41452 3 4.86161 0 1 0  255 255 255 255
10.7879 3 8.69295 0 1 0  255 255 255 255
10.793 3 1.28957 0 1 0  255 255 255 255
15.9445 3 4.67407 0 1 0  255 255 255 255
3.63806 3 7.91128 0 1 0  255 255 255 255
-7.37586 3 0.509135 0 1 0  255 255 255 255
0.082301 3 8.61417 0 1 0  255 255 255 255
-19.4559 3 1.32157 0 1 0  255 255 255 255
19.4567 3 1.41033 0 1 0  255 255 255 255
19.4559 3 8.67843 0 1 0  255 255 255 255
-19.4559 3 8.58269 0 1 0  255 255 255 255
14.0787 3 6.15107 0 1 0  255 255 255 255
4.1725 3 1.4607 0 1 0  255 255 255 255
12.8152 3 1.26838 0 1 0  255 255 255 255
-13.7041 3 6.75384 0 1 0  255 255 255 255
-15.6398 3 3.27072 0 1 0  255 255 255 255
7.11522 3 3.32493 0 1 0  255 255 255 255
7.05147 3 4.44666 0 1 0  255 255 255 255
-3.83617 3 8.84884 0 1 0  255 255 255 255
-15.1181 3 6.21453 0 1 0  255 255 255 255
-3.68056 3 0.535143 0 1 0  255 255 255 255
5.30525 3 8.733 0 1 0  255 255 255 255
-3.70557 3 3.74014 0 1 0  255 255 255 255
-12.3 3 0.453343 0 1 0  255 255 255 255
18.3997 3 1.17789 0 1 0  255 255 255 255
18.3997 3 8.82219 0 1 0  255 255 255 255
-0.366707 3 7.46556 0 1 0  255 255 255 255
12.7724 3 8.73308 0 1 0  255 255 255 255
0.439491 3 7.83964 0 1 0  255 255 255 255
-2.80268 3 8.5658 0 1 0  255 255 255 255
1.63957 3 2.68941 0 1 0  255 255 255 255
7.7647 3 3.46408 0 1 0  255 255 255 255
1.32754 3 6.33733 0 1 0  255 255 255 255
-13.321 3 7.77787 0 1 0  255 255 255 255
-4.61809 3 4.84471 0 1 0  255 255 255 255
6.20261 3 7.23098 0 1 0  255 255 255 255
0.050853 3 4.23469 0 1 0  255 255 255 255
-14.2299 3 2.69447 0 1 0  255 255 255 255
-4.12713 3 2.02513 0 1 0  255 255 255 255
-11.5552 3 1.19727 0 1 0  255 255 255 255
-9.23278 3 0.441036 0 1 0  255 255 255 255
12.6388 3 2.2684 0 1 0  255 255 255 255
12.6314 3 7.71287 0 1 0  255 255 255 255
2.59692 3 2.34068 0 1 0  255 255 255 255
0.98795 3 4.49677 0 1 0  255 255 255 255
14.0608 3 7.69201 0 1 0  255 255 255 255
-13.0788 3 8.84109 0 1 0  255 255 255 255
-2.71983 3 5.08506 0 1 0  255 255 255 255
16.9248 3 4.04627 0 1 0  255 255 255 255
-17.9852 3 3.88361 0 1 0  255 255 255 255
-1.85417 3 0.39827 0 1 0  255 255 255 255
13.3258 3 3.09515 0 1 0  255 255 255 255
13.3266 3 6.90431 0 1 0  255 255 255 255
-8.10444 3 2.21364 0 1 0  255 255 255 255
5.34284 3 6.67568 0 1 0  255 255 255 255
-16.6409 3 5.34484 0 1 0  255 255 255 255
16.5813 3 5.34984 0 1 0  255 255 255 255
16.6861 3 7.44953 0 1 0  255 255 255 255
13.6519 3 4.86399 0 1 0  255 255 255 255
17.4167 3 7.49979 0 1 0  255 255 255 255
17.4323 3 2.50421 0 1 0  255 255 255 255
-17.4363 3 2.47224 0 1 0  255 255 255 255
-17.4257 3 7.50269 0 1 0  255 255 255 255
-15.2744 3 2.38537 0 1 0  255 255 255 255
-3.40784 3 7.6291 0 1 0  255 255 255 255
-16.9566 3 4.24452 0 1 0  255 255 255 255
7.55674 3 2.25693 0 1 0  255 255 255 255
7.55608 3 7.74059 0 1 0  255 255 255 255
-10.4447 3 3.96936 0 1 0  255 255 255 255
4.73816 3 9.51626 0 1 0  255 255 255 255
4.73427 3 0.473212 0 1 0  255 255 255 255
2.27327 3 8.74275 0 1 0  255 255 255 255
-1.77568 3 4.99841 0 1 0  255 255 255 255
-18.4101 3 1.20129 0 1 0  255 255 255 255
-18.41 3 8.79883 0 1 0  255 255 255 255
-14.7049 3 3.71957 0 1 0  255 255 255 255
16.331 3 7.92469 0 1 0  255 255 255 255
-8.3851 3 4.07211 0 1 0  255 255 255 255
-6.91053 3 2.06466 0 1 0  255 255 255 255
-7.96927 3 0.503088 0 1 0  255 255 255 255
-3.12487 3 4.59315 0 1 0  255 255 255 255
8.67714 3 4.82879 0 1 0  255 255 255 255
4.25428 3 8.7172 0 1 0  255 255 255 255
8.1093 3 2.40626 0 1 0  255 255 255 255
8.12474 3 7.59366 0 1 0  255 255 255 255
-5.92046 3 2.5489 0 1 0  255 255 255 255
-8.77759 3 1.46509 0 1 0  255 255 255 255
-4.59051 3 7.34796 0 1 0  255 255 255 255
6.01334 3 2.1969 0 1 0  255 255 255 255
-2.4342 3 2.1056 0 1 0  255 255 255 255
-2.76554 3 4.06168 0 1 0  255 255 255 255
-12.1124 3 2.58876 0 1 0  255 255 255 255
-8.34438 3 8.50269 0 1 0  255 255 255 255
11.7847 3 8.20072 0 1 0  255 255 255 255
1.53603 3 1.73746 0 1 0  255 255 255 255
-11.0689 3 2.15436 0 1 0  255 255 255 255
-5.43727 3 8.16107 0 1 0  255 255 255 255
-4.7509 3 8.86393 0 1 0  255 255 255 255
-8.21644 3 6.59907 0 1 0  255 255 255 255
1.62943 3 9.47009 0 1 0  255 255 255 255
14.7537 3 8.64219 0 1 0  255 255 255 255
-14.5864 3 4.73684 0 1 0  255 255 255 255
-6.8387 3 8.93558 0 1 0  255 255 255 255
-1.81091 3 2.35338 0 1 0  255 255 255 255
7.99135 3 4.97598 0 1 0  255 255 255 255
-2.28955 3 1.39938 0 1 0  255 255 255 255
-1.52204 3 1.31495 0 1 0  255 255 255 255
1.87885 3 5.43492 0 1 0  255 255 255 255
16.4629 3 2.98215 0 1 0  255 255 255 255
7.99739 3 4.05608 0 1 0  255 255 255 255
-3.11819 3 0.503897 0 1 0  255 255 255 255
17.9571 3 3.87267 0 1 0  255 255 255 255
0.082806 3 2.16447 0 1 0  255 255 255 255
-6.43229 3 1.13538 0 1 0  255 255 255 255
-5.35612 3 6.52907 0 1 0  255 255 255 255
-12.048 3 6.58907 0 1 0  255 255 255 255
-2.24557 3 3.25177 0 1 0  255 255 255 255
-7.7404 3 8.5196 0 1 0  255 255 255 255
-9.68502 3 1.25365 0 1 0  255 255 255 255
2.61836 3 7.70497 0 1 0  255 255 255 255
5.45508 3 1.2176 0 1 0  255 255 255 255
5.37905 3 2.8768 0 1 0  255 255 255 255
-9.30162 3 2.44429 0 1 0  255 255 255 255
-9.31852 3 5.07205 0 1 0  255 255 255 255
-18.9368 3 3.89465 0 1 0  255 255 255 255
19.0076 3 6.12616 0 1 0  255 255 255 255
-12.9747 3 1.17213 0 1 0  255 255 255 255
9.62194 3 3.88626 0 1 0  255 255 255 255
2.43858 3 0.432592 0 1 0  255 255 255 255
-16.0148 3 4.67173 0 1 0  255 255 255 255
-8.68136 3 3.2219 0 1 0  255 255 255 255
-15.8729 3 6.9389 0 1 0  255 255 255 255
9.8181 3 6.48937 0 1 0  255 255 255 255
-11.1248 3 8.6438 0 1 0  255 255 255 255
15.6909 3 8.79833 0 1 0  255 255 255 255
-15.4702 3 5.00441 0 1 0  255 255 255 255
1.93772 3 4.53974 0 1 0  255 255 255 255
-9.12336 3 8.02802 0 1 0  255 255 255 255
-11.2917 3 4.67649 0 1 0  255 255 255 255
-11.0513 3 4.09367 0 1 0  255 255 255 255
-9.32722 3 9.59162 0 1 0  255 255 255 255
14.7281 3 6.98728 0 1 0  255 255 255 255
-15.9048 3 1.13315 0 1 0  255 255 255 255
-15.8965 3 8.84085 0 1 0  255 255 255 255
-19.5856 3 4.40126 0 1 0  255 255 255 255
19.6025 3 5.6025 0 1 0  255 255 255 255
4.65992 3 7.56019 0 1 0  255 255 255 255
2.78366 3 5 0 1 0  255 255 255 255
-0.753858 3 3.87777 0 1 0  255 255 255 255
-1.93064 3 8.97167 0 1 0  255 255 255 255
13.4561 3 5.90637 0 1 0  255 255 255 255
-3.14502 3 6.66968 0 1 0  255 255 255 255
-12.6606 3 3.70309 0 1 0  255 255 255 255
12.4287 3 1.73075 0 1 0  255 255 255 255
-9.30881 3 3.87479 0 1 0  255 255 255 255
-0.009043 3 3.19326 0 1 0  255 255 255 255
-11.0196 3 3.12862 0 1 0  255 255 255 255
0.156681 3 6.59824 0 1 0  255 255 255 255
-12.2376 3 4.7414 0 1 0  255 255 255 255
-12.8343 3 2.12954 0 1 0  255 255 255 255
5.99213 3 4.44243 0 1 0  255 255 255 255
0.413864 3 1.13491 0 1 0  255 255 255 255
-14.2277 3 3.66455 0 1 0  255 255 255 255
-8 3 9.56049 0 1 0  255 255 255 255
-14.8928 3 8.69751 0 1 0  255 255 255 255
15.9671 3 6.88052 0 1 0  255 255 255 255
-11.6436 3 5.57809 0 1 0  255 255 255 255
-11.2446 3 5.97184 0 1 0  255 255 255 255
14.0917 3 2.74974 0 1 0  255 255 255 255
8.91173 3 5.45196 0 1 0  255 255 255 255
-8.86735 3 4.26799 0 1 0  255 255 255 255
0.356172 3 4.76694 0 1 0  255 255 255 255
5.04734 3 4.80256 0 1 0  255 255 255 255
-2.02895 3 7.9261 0 1 0  255 255 255 255
10.8673 3 7.76551 0 1 0  255 255 255 255
-10.3488 3 2.71233 0 1 0  255 255 255 255
10.8884 3 2.23621 0 1 0  255 255 255 255
-0.756785 3 2.66127 0 1 0  255 255 255 255
-6.29844 3 4.0118 0 1 0  255 255 255 255
-1.76501 3 3.77446 0 1 0  255 255 255 255
-16.4293 3 7.9613 0 1 0  255 255 255 255
-11.3705 3 3.6199 0 1 0  255 255 255 255
-9.44827 3 6.90542 0 1 0  255 255 255 255
-12.3581 3 9.578 0 1 0  255 255 255 255
0.998942 3 2.66754 0 1 0  255 255 255 255
-15.3725 3 9.53691 0 1 0  255 255 255 255
-15.3504 3 0.452559 0 1 0  255 255 255 255
-9.9149 3 8.72708 0 1 0  255 255 255 255
7.87724 3 6.10242 0 1 0  255 255 255 255
-5.32804 3 4.16443 0 1 0  255 255 255 255
-15.2104 3 7.66545 0 1 0  255 255 255 255
15.2356 3 0.502007 0 1 0  255 255 255 255
15.2931 3 9.49058 0 1 0  255 255 255 255
4.19375 3 4.33779 0 1 0  255 255 255 255
15.5452 3 5.15089 0 1 0  255 255 255 255
13.3189 3 8.60688 0 1 0  255 255 255 255
15.1001 3 7.59214 0 1 0  255 255 255 255
13.324 3 1.39123 0 1 0  255 255 255 255
-7.10099 3 1.01988 0 1 0  255 255 255 255
-0.75726 3 6.35285 0 1 0  255 255 255 255
-2.91789 3 1.18977 0 1 0  255 255 255 255
-8.10722 3 1.23431 0 1 0  255 255 255 255
-14.2311 3 5.71447 0 1 0  255 255 255 255
18.8161 3 5.22038 0 1 0  255 255 255 255
8.76881 3 3.73575 0 1 0  255 255 255 255
15.7101 3 1.19136 0 1 0  255 255 255 255
6.23655 3 3.77836 0 1 0  255 255 255 255
-13.5383 3 2.6941 0 1 0  255 255 255 255
14.7389 3 1.25474 0 1 0  255 255 255 255
-5.74119 3 7.3258 0 1 0  255 255 255 255
-5.36442 3 1.13905 0 1 0  255 255 255 255
-19.4893 3 2.15863 0 1 0  255 255 255 255
19.4893 3 7.84173 0 1 0  255 255 255 255
12.2084 3 9.52726 0 1 0  255 255 255 255
-12.9441 3 4.27111 0 1 0  255 255 255 255
12.2024 3 0.482413 0 1 0  255 255 255 255
9.68173 3 3.11257 0 1 0  255 255 255 255
-16.4486 3 1.97206 0 1 0  255 255 255 255
9.16559 3 9.53759 0 1 0  255 255 255 255
4.50807 3 2.52882 0 1 0  255 255 255 255
-18.8858 3 6.72049 0 1 0  255 255 255 255
18.8706 3 3.28382 0 1 0  255 255 255 255
-14.4324 3 6.23796 0 1 0  255 255 255 255
9.1653 3 0.462357 0 1 0  255 255 255 255
13.214 3 2.24612 0 1 0  255 255 255 255
13.1537 3 7.74789 0 1 0  255 255 255 255
-11.9772 3 8.80142 0 1 0  255 255 255 255
3.52771 3 5.45739 0 1 0  255 255 255 255
-9.76007 3 6.38988 0 1 0  255 255 255 255
16.6483 3 0.477237 0 1 0  255 255 255 255
16.6583 3 9.53224 0 1 0  255 255 255 255
8.00222 3 9.54113 0 1 0  255 255 255 255
8.00218 3 0.458825 0 1 0  255 255 255 255
-18.8516 3 5.86048 0 1 0  255 255 255 255
-6.68115 3 4.33735 0 1 0  255 255 255 255
-14.6037 3 5.32112 0 1 0  255 255 255 255
9.64234 3 1.24145 0 1 0  255 255 255 255
9.6429 3 8.75852 0 1 0  255 255 255 255
16.4494 3 4.83322 0 1 0  255 255 255 255
0.189062 3 5.91052 0 1 0  255 255 255 255
-14.8561 3 1.94006 0 1 0  255 255 255 255
0.392372 3 3.63969 0 1 0  255 255 255 255
-17.7368 3 0.470102 0 1 0  255 255 255 255
-17.7368 3 9.5299 0 1 0  255 255 255 255
3.56009 3 2.66124 0 1 0  255 255 255 255
-3.84989 3 1.057 0 1 0  255 255 255 255
-12.0452 3 8.24499 0 1 0  255 255 255 255
6.3434 3 2.74614 0 1 0  255 255 255 255
5.06441 3 5.69204 0 1 0  255 255 255 255
0.282618 3 0.50983 0 1 0  255 255 255 255
-1.35123 3 9.54603 0 1 0  255 255 255 255
-3.41297 3 2.71338 0 1 0  255 255 255 255
-18.8802 3 4.84379 0 1 0  255 255 255 255
14.1476 3 7.18239 0 1 0  255 255 255 255
3.61099 3 7.35497 0 1 0  255 255 255 255
-0.525217 3 5.79227 0 1 0  255 255 255 255
5.47956 3 2.30161 0 1 0  255 255 255 255
16.4041 3 2.04891 0 1 0  255 255 255 255
0.932269 3 8.00188 0 1 0  255 255 255 255
-1.57981 3 6.89605 0 1 0  255 255 255 255
-6.24568 3 9.55311 0 1 0  255 255 255 255
-17.2766 3 8.38867 0 1 0  255 255 255 255
-17.2707 3 1.6122 0 1 0  255 255 255 255
-12.8673 3 7.95443 0 1 0  255 255 255 255
18.1695 3 6.01751 0 1 0  255 255 255 255
14.2892 3 4.97659 0 1 0  255 255 255 255
10.738 3 5.96568 0 1 0  255 255 255 255
-4.91976 3 0.419533 0 1 0  255 255 255 255
6.13985 3 9.59073 0 1 0  255 255 255 255
-1.12862 3 8.7406 0 1 0  255 255 255 255
6.13954 3 0.409348 0 1 0  255 255 255 255
-9.73827 3 5.46391 0 1 0  255 255 255 255
0.668042 3 9.50304 0 1 0  255 255 255 255
-10.3256 3 6.32077 0 1 0  255 255 255 255
-9.66344 3 7.7761 0 1 0  255 255 255 255
-13.1876 3 6.92483 0 1 0  255 255 255 255
-9.50743 3 5.96487 0 1 0  255 255 255 255
-7.0528 3 6.75001 0 1 0  255 255 255 255
9.66044 3 6.89833 0 1 0  255 255 255 255
-1.26441 3 6.41459 0 1 0  255 255 255 255
-17.9513 3 5.43489 0 1 0  255 255 255 255
17.8356 3 9.573 0 1 0  255 255 255 255
17.8356 3 0.427001 0 1 0  255 255 255 255
2.43842 3 6.68631 0 1 0  255 255 255 255
2.39775 3 3.28221 0 1 0  255 255 255 255
3.28696 3 4.93718 0 1 0  255 255 255 255
0.699734 3 8.87991 0 1 0  255 255 255 255
-13.3539 3 2.15174 0 1 0  255 255 255 255
2.59891 3 9.55797 0 1 0  255 255 255 255
2.47942 3 1.33139 0 1 0  255 255 255 255
-9.27285 3 8.65285 0 1 0  255 255 255 255
8.03687 3 8.55423 0 1 0  255 255 255 255
8.03657 3 1.44568 0 1 0  255 255 255 255
-6.52801 3 8.51632 0 1 0  255 255 255 255
13.4643 3 9.59058 0 1 0  255 255 255 255
13.4636 3 0.409619 0 1 0  255 255 255 255
-10.6683 3 5.88255 0 1 0  255 255 255 255
-4.44456 3 7.8847 0 1 0  255 255 255 255
1.76678 3 6.84015 0 1 0  255 255 255 255
17.1833 3 1.6587 0 1 0  255 255 255 255
17.1712 3 8.33155 0 1 0  255 255 255 255
16.7667 3 2.53954 0 1 0  255 255 255 255
-10.3695 3 7.23263 0 1 0  255 255 255 255
9.72498 3 5.03511 0 1 0  255 255 255 255
15.4188 3 2.82309 0 1 0  255 255 255 255
18.7473 3 8.43372 0 1 0  255 255 255 255
18.7796 3 1.56049 0 1 0  255 255 255 255
12.6059 3 5.46564 0 1 0  255 255 255 255
-6.36572 3 6.24943 0 1 0  255 255 255 255
12.762 3 4.6244 0 1 0  255 255 255 255
1.59649 3 3.61285 0 1 0  255 255 255 255
-3.09517 3 2.05998 0 1 0  255 255 255 255
-8.58804 3 8.12103 0 1 0  255 255 255 255
-11.0769 3 0.385464 0 1 0  255 255 255 255
-14.8448 3 7.12649 0 1 0  255 255 255 255
-16.4488 3 7.06373 0 1 0  255 255 255 255
-11.2634 3 7.84123 0 1 0  255 255 255 255
-16.5347 3 3.03267 0 1 0  255 255 255 255
-16.508 3 4.80809 0 1 0  255 255 255 255
-14.1689 3 6.60624 0 1 0  255 255 255 255
3.16539 3 8.77123 0 1 0  255 255 255 255
14.9585 3 2.20136 0 1 0  255 255 255 255
-2.67636 3 6.95912 0 1 0  255 255 255 255
-4.88875 3 4.36271 0 1 0  255 255 255 255
-14.2284 3 7.58721 0 1 0  255 255 255 255
-3.88067 3 6.04597 0 1 0  255 255 255 255
10.6864 3 5.02545 0 1 0  255 255 255 255
2.98358 3 0.426612 0 1 0  255 255 255 255
10.2541 3 4.3889 0 1 0  255 255 255 255
4.5165 3 6.36478 0 1 0  255 255 255 255
-3.59691 3 7.1222 0 1 0  255 255 255 255
-2.24065 3 4.27042 0 1 0  255 255 255 255
-4.65485 3 1.28285 0 1 0  255 255 255 255
9.98368 3 0.456966 0 1 0  255 255 255 255
9.98388 3 9.54316 0 1 0  255 255 255 255
-16.5619 3 3.90855 0 1 0  255 255 255 255
13.2892 3 5.41629 0 1 0  255 255 255 255
-1.20317 3 3.52659 0 1 0  255 255 255 255
16.8078 3 4.53157 0 1 0  255 255 255 255
-1.5185 3 7.72965 0 1 0  255 255 255 255
2.73905 3 5.86984 0 1 0  255 255 255 255
2.78566 3 4.076 0 1 0  255 255 255 255
0.675009 3 2.01404 0 1 0  255 255 255 255
-16.613 3 0.482688 0 1 0  255 255 255 255
-16.6086 3 9.51284 0 1 0  255 255 255 255
-15.2885 3 6.66831 0 1 0  255 255 255 255
-1.6126 3 6.04879 0 1 0  255 255 255 255
-7.85353 3 7.60122 0 1 0  255 255 255 255
-5.45044 3 5.17781 0 1 0  255 255 255 255
-12.4554 3 7.32564 0 1 0  255 255 255 255
-18.0759 3 6.25809 0 1 0  255 255 255 255
-17.8073 3 4.33512 0 1 0  255 255 255 255
12.3126 3 2.76467 0 1 0  255 255 255 255
12.3696 3 7.14821 0 1 0  255 255 255 255
-18.7721 3 8.36926 0 1 0  255 255 255 255
-18.787 3 1.62961 0 1 0  255 255 255 255
-3.94048 3 7.96559 0 1 0  255 255 255 255
3.98792 3 2.96508 0 1 0  255 255 255 255
-19.5761 3 7.27315 0 1 0  255 255 255 255
19.5761 3 2.72704 0 1 0  255 255 255 255
-13.5199 3 0.385302 0 1 0  255 255 255 255
-13.5385 3 9.63442 0 1 0  255 255 255 255
-7.28001 3 5.06512 0 1 0  255 255 255 255
-3.17581 3 3.63903 0 1 0  255 255 255 255
11.0769 3 9.63663 0 1 0  255 255 255 255
11.0769 3 0.363295 0 1 0  255 255 255 255
13.7488 3 3.05529 0 1 0  255 255 255 255
-6.44357 3 1.63254 0 1 0  255 255 255 255
-0.785916 3 7.24748 0 1 0  255 255 255 255
18.9963 3 9.58874 0 1 0  255 255 255 255
18.9963 3 0.411256 0 1 0  255 255 255 255
15.0956 3 4.16674 0 1 0  255 255 255 255
17.9295 3 7.71936 0 1 0  255 255 255 255
17.927 3 2.26448 0 1 0  255 255 255 255
4.71094 3 8.47003 0 1 0  255 255 255 255
1.8835 3 3.16176 0 1 0  255 255 255 255
5.88194 3 5.84908 0 1 0  255 255 255 255
-8.83353 3 2.66513 0 1 0  255 255 255 255
-7.61729 3 4.56705 0 1 0  255 255 255 255
-5.44398 3 7.63259 0 1 0  255 255 255 255
10.1864 3 1.61573 0 1 0  255 255 255 255
10.1986 3 8.38141 0 1 0  255 255 255 255
17.9212 3 5.44107 0 1 0  255 255 255 255
-19.6338 3 3.29508 0 1 0  255 255 255 255
19.6417 3 6.72221 0 1 0  255 255 255 255
16.147 3 0.4375 0 1 0  255 255 255 255
-17.2664 3 5.97091 0 1 0  255 255 255 255
16.1569 3 9.58133 0 1 0  255 255 255 255
17.2662 3 5.97075 0 1 0  255 255 255 255
15.8482 3 2.08158 0 1 0  255 255 255 255
-1.31416 3 4.53772 0 1 0  255 255 255 255
5.43157 3 6.05142 0 1 0  255 255 255 255
3.01647 3 9.60279 0 1 0  255 255 255 255
4.12109 3 2.04119 0 1 0  255 255 255 255
1.86225 3 0.362011 0 1 0  255 255 255 255
-8.4654 3 9.56313 0 1 0  255 255 255 255
-1.21527 3 3.00606 0 1 0  255 255 255 255
16.4369 3 7.0016 0 1 0  255 255 255 255
-10.6536 3 1.05534 0 1 0  255 255 255 255
-6.65381 3 5.33319 0 1 0  255 255 255 255
-15.042 3 5.39408 0 1 0  255 255 255 255
-4.03241 3 4.0052 0 1 0  255 255 255 255
-5.3244 3 3.58715 0 1 0  255 255 255 255
3.23636 3 1.12486 0 1 0  255 255 255 255
-9.13984 3 3.44949 0 1 0  255 255 255 255
17.5575 3 0.908561 0 1 0  255 255 255 255
17.5575 3 9.09151 0 1 0  255 255 255 255
5.09902 3 7.22412 0 1 0  255 255 255 255
-4.61619 3 1.7412 0 1 0  255 255 255 255
13.209 3 4.55954 0 1 0  255 255 255 255
1.2883 3 5.3797 0 1 0  255 255 255 255
-9.7239 3 2.87647 0 1 0  255 255 255 255
-11.1461 3 9.59099 0 1 0  255 255 255 255
5.15637 3 8.26106 0 1 0  255 255 255 255
6.36661 3 8.83559 0 1 0  255 255 255 255
5.92122 3 8.65084 0 1 0  255 255 255 255
6.35526 3 1.16437 0 1 0  255 255 255 255
-18.938 3 7.85564 0 1 0  255 255 255 255
18.8723 3 2.13698 0 1 0  255 255 255 255
18.8568 3 7.9216 0 1 0  255 255 255 255
-18.9486 3 2.10958 0 1 0  255 255 255 255
7.04564 3 2.29148 0 1 0  255 255 255 255
-5.39443 3 9.55372 0 1 0  255 255 255 255
13.7255 3 1.15858 0 1 0  255 255 255 255
7.02809 3 7.70157 0 1 0  255 255 255 255
14.8917 3 5.66197 0 1 0  255 255 255 255
13.9079 3 2.28156 0 1 0  255 255 255 255
13.697 3 8.8152 0 1 0  255 255 255 255
-7.19507 3 5.90689 0 1 0  255 255 255 255
1.91456 3 5.9729 0 1 0  255 255 255 255
1.93405 3 4.01296 0 1 0  255 255 255 255
3.31382 3 6.46715 0 1 0  255 255 255 255
-19.0128 3 9.60196 0 1 0  255 255 255 255
-19.0128 3 0.398043 0 1 0  255 255 255 255
-4.44561 3 3.17686 0 1 0  255 255 255 255
5.95127 3 6.76076 0 1 0  255 255 255 255
-11.2849 3 2.69199 0 1 0  255 255 255 255
8.48387 3 4.16591 0 1 0  255 255 255 255
8.29322 3 5.94586 0 1 0  255 255 255 255
6.72157 3 8.20152 0 1 0  255 255 255 255
-7.90039 3 1.78376 0 1 0  255 255 255 255
6.74691 3 1.82188 0 1 0  255 255 255 255
-8.62628 3 6.3852 0 1 0  255 255 255 255
9.95015 3 7.88726 0 1 0  255 255 255 255
9.96561 3 2.13138 0 1 0  255 255 255 255
10.6291 3 4.00544 0 1 0  255 255 255 255
-2.87299 3 6.17561 0 1 0  255 255 255 255
17.4872 3 2.96305 0 1 0  255 255 255 255
-17.4762 3 2.96197 0 1 0  255 255 255 255
-2.27319 3 0.411398 0 1 0  255 255 255 255
13.7999 3 6.79898 0 1 0  255 255 255 255
-4.30589 3 9.61204 0 1 0  255 255 255 255
-3.84227 3 2.53956 0 1 0  255 255 255 255
18.8953 3 6.95384 0 1 0  255 255 255 255
-18.8953 3 3.04616 0 1 0  255 255 255 255
-0.503527 3 1.027 0 1 0  255 255 255 255
17.4802 3 6.99381 0 1 0  255 255 255 255
4.91381 3 2.96475 0 1 0  255 255 255 255
-17.5007 3 7.0284 0 1 0  255 255 255 255
-4.17223 3 7.00499 0 1 0  255 255 255 255
-8.81523 3 0.428366 0 1 0  255 255 255 255
-8.39829 3 3.61478 0 1 0  255 255 255 255
-0.200813 3 0.468385 0 1 0  255 255 255 255
-2.51667 3 8.11345 0 1 0  255 255 255 255
-13.7618 3 5.57402 0 1 0  255 255 255 255
-10.4023 3 4.89051 0 1 0  255 255 255 255
19.6277 3 3.80592 0 1 0  255 255 255 255
-19.6287 3 6.19518 0 1 0  255 255 255 255
2.76606 3 8.61712 0 1 0  255 255 255 255
-8.831 3 5.30341 0 1 0  255 255 255 255
10.9797 3 5.52034 0 1 0  255 255 255 255
2.97816 3 2.02306 0 1 0  255 255 255 255
15.0798 3 6.0732 0 1 0  255 255 255 255
-17.602 3 0.891083 0 1 0  255 255 255 255
-17.6019 3 9.10911 0 1 0  255 255 255 255
-2.89476 3 9.02764 0 1 0  255 255 255 255
-11.8956 3 2.02589 0 1 0  255 255 255 255
15.5567 3 8.42194 0 1 0  255 255 255 255
-12.5367 3 2.52378 0 1 0  255 255 255 255
-1.0655 3 5.42285 0 1 0  255 255 255 255
9.94018 3 3.4985 0 1 0  255 255 255 255
-8.03441 3 5.51048 0 1 0  255 255 255 255
-9.29489 3 1.48499 0 1 0  255 255 255 255
-6.75866 3 5.77913 0 1 0  255 255 255 255
15.9591 3 4.23079 0 1 0  255 255 255 255
-16.8585 3 0.897645 0 1 0  255 255 255 255
-16.8585 3 9.1013 0 1 0  255 255 255 255
19.5903 3 1.9139 0 1 0  255 255 255 255
-19.5903 3 8.0861 0 1 0  255 255 255 255
5.01305 3 2.05865 0 1 0  255 255 255 255
3.8271 3 0.375598 0 1 0  255 255 255 255
3.81515 3 9.60727 0 1 0  255 255 255 255
16.8182 3 9.08375 0 1 0  255 255 255 255
16.8182 3 0.916248 0 1 0  255 255 255 255
2.4139 3 3.78318 0 1 0  255 255 255 255
2.39764 3 6.19516 0 1 0  255 255 255 255
-13.8668 3 1.0912 0 1 0  255 255 255 255
-13.4123 3 1.27675 0 1 0  255 255 255 255
1.2301 3 9.66918 0 1 0  255 255 255 255
5.68875 3 9.57703 0 1 0  255 255 255 255
5.69278 3 0.404604 0 1 0  255 255 255 255
-13.9319 3 8.99335 0 1 0  255 255 255 255
-16.9875 3 2.46498 0 1 0  255 255 255 255
-5.28188 3 6.06299 0 1 0  255 255 255 255
12.5145 3 3.21507 0 1 0  255 255 255 255
-9.71938 3 9.58834 0 1 0  255 255 255 255
-3.56232 3 4.91626 0 1 0  255 255 255 255
-15.6762 3 7.42776 0 1 0  255 255 255 255
-7.32597 3 2.54997 0 1 0  255 255 255 255
15.2944 3 4.625 0 1 0  255 255 255 255
-4.8035 3 5.79077 0 1 0  255 255 255 255
-0.691959 3 4.89395 0 1 0  255 255 255 255
-5.07376 3 2.04309 0 1 0  255 255 255 255
0.87312 3 3.32261 0 1 0  255 255 255 255
-4.87009 3 2.55594 0 1 0  255 255 255 255
0.47617 3 5.37628 0 1 0  255 255 255 255
0.126755 3 9.59129 0 1 0  255 255 255 255
15.7954 3 5.65122 0 1 0  255 255 255 255
17.7401 3 4.29764 0 1 0  255 255 255 255
3.96648 3 7.0646 0 1 0  255 255 255 255
-15.6989 3 8.47599 0 1 0  255 255 255 255
-15.5958 3 1.51652 0 1 0  255 255 255 255
-7.19993 3 4.15605 0 1 0  255 255 255 255
1.15081 3 8.86611 0 1 0  255 255 255 255
-2.66743 3 3.61852 0 1 0  255 255 255 255
-2.24634 3 4.85366 0 1 0  255 255 255 255
6.22879 3 6.28505 0 1 0  255 255 255 255
13.038 3 0.393457 0 1 0  255 255 255 255
13.0346 3 9.60643 0 1 0  255 255 255 255
-15.0064 3 3.29128 0 1 0  255 255 255 255
5.93287 3 1.32246 0 1 0  255 255 255 255
-14.8303 3 2.81472 0 1 0  255 255 255 255
9.25987 3 4.63587 0 1 0  255 255 255 255
-8.70942 3 8.77785 0 1 0  255 255 255 255
-2.46059 3 9.64985 0 1 0  255 255 255 255
15.6436 3 7.38932 0 1 0  255 255 255 255
-6.95287 3 7.76115 0 1 0  255 255 255 255
0.196055 3 2.75869 0 1 0  255 255 255 255
3.91616 3 3.41094 0 1 0  255 255 255 255
0.961534 3 1.10939 0 1 0  255 255 255 255
10.788 3 1.79202 0 1 0  255 255 255 255
10.7855 3 8.20737 0 1 0  255 255 255 255
-5.49311 3 1.60181 0 1 0  255 255 255 255
-6.18361 3 8.13764 0 1 0  255 255 255 255
-0.435189 3 4.32918 0 1 0  255 255 255 255
14.6692 3 3.42315 0 1 0  255 255 255 255
-16.1036 3 3.17428 0 1 0  255 255 255 255
14.593 3 2.95623 0 1 0  255 255 255 255
-11.8898 3 4.40435 0 1 0  255 255 255 255
19.6337 3 9.06941 0 1 0  255 255 255 255
19.6457 3 0.940762 0 1 0  255 255 255 255
-19.6457 3 0.940762 0 1 0  255 255 255 255
-19.6457 3 9.05924 0 1 0  255 255 255 255
-10.79 3 4.98409 0 1 0  255 255 255 255
-4.39096 3 5.32072 0 1 0  255 255 255 255
5.32599 3 5.16376 0 1 0  255 255 255 255
2.56562 3 4.5942 0 1 0  255 255 255 255
2.5818 3 5.38983 0 1 0  255 255 255 255
13.2226 3 3.83169 0 1 0  255 255 255 255
-16.0151 3 4.22761 0 1 0  255 255 255 255
4.30769 3 0.312291 0 1 0  255 255 255 255
4.30769 3 9.68771 0 1 0  255 255 255 255
-8.3542 3 5.14849 0 1 0  255 255 255 255
-1.63359 3 8.70519 0 1 0  255 255 255 255
11.6656 3 2.03878 0 1 0  255 255 255 255
16.1121 3 8.79481 0 1 0  255 255 255 255
9.242 3 9.08726 0 1 0  255 255 255 255
9.2416 3 0.912685 0 1 0  255 255 255 255
-18.0023 3 2.1987 0 1 0  255 255 255 255
-17.9309 3 7.75369 0 1 0  255 255 255 255
-5.89529 3 8.92074 0 1 0  255 255 255 255
14.6315 3 6.43981 0 1 0  255 255 255 255
-19.5946 3 1.70407 0 1 0  255 255 255 255
19.5946 3 8.29621 0 1 0  255 255 255 255
-18.16 3 6.70436 0 1 0  255 255 255 255
18.16 3 6.70436 0 1 0  255 255 255 255
14.9925 3 2.66529 0 1 0  255 255 255 255
-6.45483 3 2.47536 0 1 0  255 255 255 255
-11.5366 3 8.86476 0 1 0  255 255 255 255
-15.1786 3 4.62436 0 1 0  255 255 255 255
6.85607 3 0.345873 0 1 0  255 255 255 255
18.6751 3 5.81216 0 1 0  255 255 255 255
-2.68083 3 2.86006 0 1 0  255 255 255 255
6.85475 3 9.65369 0 1 0  255 255 255 255
15.8363 3 2.71596 0 1 0  255 255 255 255
5.41907 3 4.3579 0 1 0  255 255 255 255
11.3888 3 7.15555 0 1 0  255 255 255 255
-1.82766 3 2.86776 0 1 0  255 255 255 255
20 7.21749 5.58823 -1 0 0  255 255 255 255
20 8.50497 3.00231 -1 0 0  255 255 255 255
20 5.75427 3.2438 -1 0 0  255 255 255 255
20 8.8541 7.48457 -1 0 0  255 255 255 255
20 5.51264 7.47989 -1 0 0  255 255 255 255
20 9.27868 4.98315 -1 0 0  255 255 255 255
20 5.1461 5.19223 -1 0 0  255 255 255 255
20 7.01137 1.8782 -1 0 0  255 255 255 255
20 7.19235 8.13535 -1 0 0  255 255 255 255
20 4.76579 1.76796 -1 0 0  255 255 255 255
20 9.63608 1.68426 -1 0 0  255 255 255 255
20 7.2058 3.94506 -1 0 0  255 255 255 255
20 9.82098 3.52498 -1 0 0  255 255 255 255
20 9.98094 6.48706 -1 0 0  255 255 255 255
20 10.0224 8.43144 -1 0 0  255 255 255 255
20 4.44621 8.44526 -1 0 0  255 255 255 255
20 4.51974 3.9801 -1 0 0  255 255 255 255
20 4.45877 6.44604 -1 0 0  255 255 255 255
20 8.32972 1.41353 -1 0 0  255 255 255 255
20 8.46433 6.17331 -1 0 0  255 255 255 255
20 6.74562 6.85428 -1 0 0  255 255 255 255
20 6.01312 8.68853 -1 0 0  255 255 255 255
20 8.42187 8.68853 -1 0 0  255 255 255 255
20 6.29647 4.75463 -1 0 0  255 255 255 255
20 5.83803 1.25705 -1 0 0  255 255 255 255
20 8.4508 4.1719 -1 0 0  255 255 255 255
20 4.17284 2.79841 -1 0 0  255 255 255 255
20 5.6462 6.39164 -1 0 0  255 255 255 255
20 10.3184 7.52732 -1 0 0  255 255 255 255
20 7.85304 6.98885 -1 0 0  255 255 255 255
20 10.3061 4.64731 -1 0 0  255 255 255 255
20 4.03795 5.00919 -1 0 0  255 255 255 255
20 6.819 2.99105 -1 0 0  255 255 255 255
20 10.4026 2.64883 -1 0 0  255 255 255 255
20 3.97108 7.63017 -1 0 0  255 255 255 255
20 8.17424 5.1812 -1 0 0  255 255 255 255
20 3.97754 0.971397 -1 0 0  255 255 255 255
20 6.03084 2.259 -1 0 0  255 255 255 255
20 10.4318 0.980554 -1 0 0  255 255 255 255
20 5.49219 4.22001 -1 0 0  255 255 255 255
20 10.473 5.61295 -1 0 0  255 255 255 255
20 7.44127 0.968265 -1 0 0  255 255 255 255
20 9.48882 2.61082 -1 0 0  255 255 255 255
20 7.54009 9.0777 -1 0 0  255 255 255 255
20 7.84075 2.22763 -1 0 0  255 255 255 255
20 9.17637 0.929558 -1 0 0  255 255 255 255
20 6.41817 7.81538 -1 0 0  255 255 255 255
20 9.2717 9.10834 -1 0 0  255 255 255 255
20 5.18515 9.11847 -1 0 0  255 255 255 255
20 5.09283 2.61341 -1 0 0  255 255 255 255
20 4.96255 0.92277 -1 0 0  255 255 255 255
20 3.8842 1.9202 -1 0 0  255 255 255 255
20 6.33585 5.70204 -1 0 0  255 255 255 255
20 3.83549 5.86498 -1 0 0  255 255 255 255
20 6.34219 3.88662 -1 0 0  255 255 255 255
20 7.68962 3.23267 -1 0 0  255 255 255 255
20 3.88443 9.1347 -1 0 0  255 255 255 255
20 10.5039 9.12219 -1 0 0  255 255 255 255
20 8.04243 7.91216 -1 0 0  255 255 255 255
20 9.32777 4.1605 -1 0 0  255 255 255 255
20 7.4164 4.7725 -1 0 0  255 255 255 255
20 9.29173 5.82408 -1 0 0  255 255 255 255
20 9.13393 6.72923 -1 0 0  255 255 255 255
20 9.17386 8.26751 -1 0 0  255 255 255 255
20 5.26113 8.26751 -1 0 0  255 255 255 255
20 8.73461 2.14172 -1 0 0  255 255 255 255
20 6.70477 9.16495 -1 0 0  255 255 255 255
20 10.6324 1.8345 -1 0 0  255 255 255 255
20 7.70068 6.28213 -1 0 0  255 255 255 255
20 6.63297 0.785726 -1 0 0  255 255 255 255
20 10.6741 3.82353 -1 0 0  255 255 255 255
20 10.663 6.7118 -1 0 0  255 255 255 255
20 3.80034 3.50752 -1 0 0  255 255 255 255
20 10.5974 8.19469 -1 0 0  255 255 255 255
20 8.93951 3.32089 -1 0 0  255 255 255 255
20 4.86343 7.25518 -1 0 0  255 255 255 255
20 3.7342 4.29235 -1 0 0  255 255 255 255
20 4.87466 3.48597 -1 0 0  255 255 255 255
20 3.57997 6.75421 -1 0 0  255 255 255 255
20 4.97218 6.24936 -1 0 0  255 255 255 255
20 3.76122 8.2368 -1 0 0  255 255 255 255
20 4.71266 4.6553 -1 0 0  255 255 255 255
20 8.13602 0.691008 -1 0 0  255 255 255 255
20 9.71102 7.60635 -1 0 0  255 255 255 255
20 7.23337 7.43743 -1 0 0  255 255 255 255
20 6.16563 6.9121 -1 0 0  255 255 255 255
20 6.81771 6.17291 -1 0 0  255 255 255 255
20 5.45502 1.80286 -1 0 0  255 255 255 255
20 4.55634 9.38381 -1 0 0  255 255 255 255
20 9.89991 9.4438 -1 0 0  255 255 255 255
20 9.80943 0.673068 -1 0 0  255 255 255 255
20 4.46951 5.54158 -1 0 0  255 255 255 255
20 10.7796 3.1453 -1 0 0  255 255 255 255
20 8.20957 9.41821 -1 0 0  255 255 255 255
20 9.82594 5.43005 -1 0 0  255 255 255 255
20 9.73279 7.01198 -1 0 0  255 255 255 255
20 5.86872 5.25139 -1 0 0  255 255 255 255
20 8.49147 6.8159 -1 0 0  255 255 255 255
20 5.16897 6.68296 -1 0 0  255 255 255 255
20 5.75454 9.34402 -1 0 0  255 255 255 255
20 4.72465 7.93561 -1 0 0  255 255 255 255
20 8.84905 5.38011 -1 0 0  255 255 255 255
20 7.62964 1.6122 -1 0 0  255 255 255 255
20 8.64158 4.81293 -1 0 0  255 255 255 255
20 10.8384 5.02539 -1 0 0  255 255 255 255
20 5.71125 0.597002 -1 0 0  255 255 255 255
20 7.85956 3.81871 -1 0 0  255 255 255 255
20 6.55016 8.44019 -1 0 0  255 255 255 255
20 7.28557 2.45196 -1 0 0  255 255 255 255
20 6.88474 5.06892 -1 0 0  255 255 255 255
20 9.08952 1.55693 -1 0 0  255 255 255 255
20 6.39635 1.72565 -1 0 0  255 255 255 255
20 3.55254 2.68397 -1 0 0  255 255 255 255
20 10.9324 6.19122 -1 0 0  255 255 255 255
20 6.8707 4.44147 -1 0 0  255 255 255 255
20 5.80556 8.07988 -1 0 0  255 255 255 255
20 4.50601 0.570397 -1 0 0  255 255 255 255
20 7.76855 8.48514 -1 0 0  255 255 255 255
20 3.5551 1.4576 -1 0 0  255 255 255 255
20 8.5485 3.55272 -1 0 0  255 255 255 255
20 7.76168 5.72068 -1 0 0  255 255 255 255
20 9.68738 4.51124 -1 0 0  255 255 255 255
20 10.8368 4.4005 -1 0 0  255 255 255 255
20 6.19774 2.81573 -1 0 0  255 255 255 255
20 6.63395 2.35056 -1 0 0  255 255 255 255
20 7.98073 4.58864 -1 0 0  255 255 255 255
20 10.8899 7.25165 -1 0 0  255 255 255 255
20 9.89969 2.95879 -1 0 0  255 255 255 255
20 3.59183 0.590423 -1 0 0  255 255 255 255
20 4.55482 2.33199 -1 0 0  255 255 255 255
20 4.27564 3.38765 -1 0 0  255 255 255 255
20 7.26982 6.63129 -1 0 0  255 255 255 255
20 8.65419 8.07058 -1 0 0  255 255 255 255
20 8.7194 0.52797 -1 0 0  255 255 255 255
20 6.7931 3.58742 -1 0 0  255 255 255 255
20 3.58489 5.34901 -1 0 0  255 255 255 255
20 3.53163 7.32493 -1 0 0  255 255 255 255
20 8.81917 9.52852 -1 0 0  255 255 255 255
20 6.27684 6.32273 -1 0 0  255 255 255 255
20 5.35064 4.73077 -1 0 0  255 255 255 255
20 9.88766 2.25097 -1 0 0  255 255 255 255
20 10.9178 0.502816 -1 0 0  255 255 255 255
20 5.41304 5.76897 -1 0 0  255 255 255 255
20 8.35152 7.40865 -1 0 0  255 255 255 255
20 4.57618 1.22805 -1 0 0  255 255 255 255
20 5.65409 2.70525 -1 0 0  255 255 255 255
20 10.8658 2.31529 -1 0 0  255 255 255 255
20 10.0845 7.98011 -1 0 0  255 255 255 255
20 7.09991 8.7461 -1 0 0  255 255 255 255
20 10.9025 8.68601 -1 0 0  255 255 255 255
20 6.93863 1.24811 -1 0 0  255 255 255 255
20 10.8903 1.39206 -1 0 0  255 255 255 255
20 10.1851 4.03924 -1 0 0  255 255 255 255
20 3.55466 4.79517 -1 0 0  255 255 255 255
20 6.00368 4.29238 -1 0 0  255 255 255 255
20 9.29311 2.12975 -1 0 0  255 255 255 255
20 3.48748 6.21888 -1 0 0  255 255 255 255
20 5.83582 3.7851 -1 0 0  255 255 255 255
20 7.09146 0.539117 -1 0 0  255 255 255 255
20 9.92599 1.21441 -1 0 0  255 255 255 255
20 4.20456 7.01287 -1 0 0  255 255 255 255
20 7.86478 2.78875 -1 0 0  255 255 255 255
20 3.49759 8.70596 -1 0 0  255 255 255 255
20 7.1743 9.35026 -1 0 0  255 255 255 255
20 6.30122 3.36574 -1 0 0  255 255 255 255
20 6.32476 9.54644 -1 0 0  255 255 255 255
20 4.98874 3.92561 -1 0 0  255 255 255 255
20 9.33235 0.441654 -1 0 0  255 255 255 255
20 10.252 5.14129 -1 0 0  255 255 255 255
20 5.18189 1.33109 -1 0 0  255 255 255 255
20 6.21822 0.524489 -1 0 0  255 255 255 255
20 11.0228 5.60121 -1 0 0  255 255 255 255
20 4.20227 4.51675 -1 0 0  255 255 255 255
20 9.90541 5.99208 -1 0 0  255 255 255 255
20 8.26474 1.92632 -1 0 0  255 255 255 255
20 7.62822 0.525432 -1 0 0  255 255 255 255
20 3.45707 3.86881 -1 0 0  255 255 255 255
20 4.37372 5.96029 -1 0 0  255 255 255 255
20 8.34176 5.69107 -1 0 0  255 255 255 255
20 4.69343 2.94084 -1 0 0  255 255 255 255
20 8.96483 2.67061 -1 0 0  255 255 255 255
20 4.16183 1.52269 -1 0 0  255 255 255 255
20 10.2904 0.507583 -1 0 0  255 255 255 255
20 3.44817 3.27098 -1 0 0  255 255 255 255
20 8.93398 8.68477 -1 0 0  255 255 255 255
20 5.49473 8.69328 -1 0 0  255 255 255 255
20 10.2937 3.35678 -1 0 0  255 255 255 255
20 4.21154 8.01694 -1 0 0  255 255 255 255
20 8.667 1.05872 -1 0 0  255 255 255 255
20 3.43342 2.07279 -1 0 0  255 255 255 255
20 9.47853 8.59791 -1 0 0  255 255 255 255
20 4.86142 8.68475 -1 0 0  255 255 255 255
20 7.52062 4.30756 -1 0 0  255 255 255 255
20 10.254 6.93311 -1 0 0  255 255 255 255
20 3.49137 9.51115 -1 0 0  255 255 255 255
20 10.9436 9.51115 -1 0 0  255 255 255 255
20 3.45279 7.81485 -1 0 0  255 255 255 255
20 7.57233 5.24264 -1 0 0  255 255 255 255
20 8.13167 6.47586 -1 0 0  255 255 255 255
20 7.91184 1.13833 -1 0 0  255 255 255 255
20 8.12448 3.27984 -1 0 0  255 255 255 255
20 5.133 9.5777 -1 0 0  255 255 255 255
20 9.32865 9.61613 -1 0 0  255 255 255 255
20 7.81727 7.54222 -1 0 0  255 255 255 255
20 5.09236 2.14541 -1 0 0  255 255 255 255
20 6.57555 7.38224 -1 0 0  255 255 255 255
20 3.99 6.37621 -1 0 0  255 255 255 255
20 5.13715 0.482165 -1 0 0  255 255 255 255
20 6.01334 7.44244 -1 0 0  255 255 255 255
20 8.36245 2.45955 -1 0 0  255 255 255 255
20 5.55087 6.98494 -1 0 0  255 255 255 255
20 8.93747 6.27779 -1 0 0  255 255 255 255
20 9.25056 7.24242 -1 0 0  255 255 255 255
20 9.49704 6.38704 -1 0 0  255 255 255 255
20 9.61019 8.11719 -1 0 0  255 255 255 255
20 4.02221 8.61485 -1 0 0  255 255 255 255
20 10.3969 6.31141 -1 0 0  255 255 255 255
20 5.16881 7.79484 -1 0 0  255 255 255 255
20 8.92553 3.92366 -1 0 0  255 255 255 255
20 5.23808 3.1088 -1 0 0  255 255 255 255
20 7.71417 9.50598 -1 0 0  255 255 255 255
20 6.84684 7.83558 -1 0 0  255 255 255 255
20 10.3692 8.67309 -1 0 0  255 255 255 255
20 7.27748 3.4601 -1 0 0  255 255 255 255
20 10.9945 7.81743 -1 0 0  255 255 255 255
20 8.03628 8.9993 -1 0 0  255 255 255 255
20 10.175 1.61755 -1 0 0  255 255 255 255
20 9.50851 1.23997 -1 0 0  255 255 255 255
20 7.32919 6.07135 -1 0 0  255 255 255 255
20 9.68832 3.99839 -1 0 0  255 255 255 255
20 4.50837 5.10879 -1 0 0  255 255 255 255
20 6.38648 1.16671 -1 0 0  255 255 255 255
20 7.35405 2.96471 -1 0 0  255 255 255 255
20 3.94793 9.60593 -1 0 0  255 255 255 255
20 10.4857 9.60794 -1 0 0  255 255 255 255
20 11.0076 2.73223 -1 0 0  255 255 255 255
20 4.02362 0.434103 -1 0 0  255 255 255 255
20 3.96677 2.36252 -1 0 0  255 255 255 255
20 9.08711 4.52541 -1 0 0  255 255 255 255
20 5.46057 0.984478 -1 0 0  255 255 255 255
20 6.75465 5.52668 -1 0 0  255 255 255 255
20 6.26947 9.03683 -1 0 0  255 255 255 255
20 6.41544 5.22594 -1 0 0  255 255 255 255
20 5.90813 5.88735 -1 0 0  255 255 255 255
20 4.01118 3.90878 -1 0 0  255 255 255 255
20 5.36396 3.62822 -1 0 0  255 255 255 255
20 10.3685 2.13674 -1 0 0  255 255 255 255
20 7.43975 2.04 -1 0 0  255 255 255 255
20 3.4359 5.77301 -1 0 0  255 255 255 255
20 4.26668 1.98107 -1 0 0  255 255 255 255
