ply
format ascii 1.0
comment VCGLIB generated
element vertex 733
property float x
property float y
property float z
property float nx
property float ny
property float nz
property uchar red
property uchar green
property uchar blue
property uchar alpha
element face 0
property list uchar int vertex_indices
end_header
14.5087 -23.9857 -10.8828 0 -0.422618 -0.906308  255 255 255 255
-2.24751 24.1948 -33.3498 0 -0.422618 -0.906308  255 255 255 255
14.8006 -32.0925 -7.10258 0 -0.422618 -0.906308  255 255 255 255
17.6405 -14.16 -15.4646 0 -0.422618 -0.906308  255 255 255 255
-17.0099 -19.0474 -13.1856 0 -0.422618 -0.906308  255 255 255 255
13.7128 -10.5196 -17.1622 0 -0.422618 -0.906308  255 255 255 255
2.25768 24.1179 -33.3139 0 -0.422618 -0.906308  255 255 255 255
-10.0225 -41.9485 -2.50667 0 -0.422618 -0.906308  255 255 255 255
-28.706 -7.20574 -18.7075 0 -0.422618 -0.906308  255 255 255 255
28.706 -7.20574 -18.7075 0 -0.422618 -0.906308  255 255 255 255
2.1429 18.3046 -30.6031 0 -0.422618 -0.906308  255 255 255 255
-16.1014 -21.2245 -12.1704 0 -0.422618 -0.906308  255 255 255 255
-3.99583 -47.7221 0.18564 0 -0.422618 -0.906308  255 255 255 255
2.55933 5.20973 -24.4969 0 -0.422618 -0.906308  255 255 255 255
-43.6301 -11.3322 -16.7833 0 -0.422618 -0.906308  255 255 255 255
43.6301 -11.3322 -16.7833 0 -0.422618 -0.906308  255 255 255 255
4.6568 -7.6863 -18.4834 0 -0.422618 -0.906308  255 255 255 255
-5.70636 -11.2308 -16.8306 0 -0.422618 -0.906308  255 255 255 255
-8.15561 -25.7989 -10.0373 0 -0.422618 -0.906308  255 255 255 255
-19.5636 -18.4258 -13.4755 0 -0.422618 -0.906308  255 255 255 255
1.12946 -29.0441 -8.52405 0 -0.422618 -0.906308  255 255 255 255
-21.919 -12.7666 -16.1144 0 -0.422618 -0.906308  255 255 255 255
21.919 -12.7666 -16.1144 0 -0.422618 -0.906308  255 255 255 255
0.089894 2.54843 -23.2559 0 -0.422618 -0.906308  255 255 255 255
4.54593 -44.1121 -1.49775 0 -0.422618 -0.906308  255 255 255 255
-8.772 -8.0613 -18.3085 0 -0.422618 -0.906308  255 255 255 255
6.97562 -43.2774 -1.88698 0 -0.422618 -0.906308  255 255 255 255
-12.8918 4.34164 -24.0921 0 -0.422618 -0.906308  255 255 255 255
5.23128 2.34173 -23.1595 0 -0.422618 -0.906308  255 255 255 255
15.2771 -45.4722 -0.863506 0 -0.422618 -0.906308  255 255 255 255
1.51927 -25.2301 -10.3026 0 -0.422618 -0.906308  255 255 255 255
-8.27171 8.91398 -26.2242 0 -0.422618 -0.906308  255 255 255 255
7.2344 23.424 -32.9903 0 -0.422618 -0.906308  255 255 255 255
-7.2344 23.424 -32.9903 0 -0.422618 -0.906308  255 255 255 255
6.09163 -26.6812 -9.62591 0 -0.422618 -0.906308  255 255 255 255
-15.3129 -17.1481 -14.0713 0 -0.422618 -0.906308  255 255 255 255
-23.9171 -8.57416 -18.0694 0 -0.422618 -0.906308  255 255 255 255
23.9171 -8.57416 -18.0694 0 -0.422618 -0.906308  255 255 255 255
7.97299 -47.2255 -0.045932 0 -0.422618 -0.906308  255 255 255 255
43.752 -6.50995 -19.0319 0 -0.422618 -0.906308  255 255 255 255
-43.752 -6.50995 -19.0319 0 -0.422618 -0.906308  255 255 255 255
12.3176 -27.9821 -9.01927 0 -0.422618 -0.906308  255 255 255 255
8.10343 -25.2032 -10.3151 0 -0.422618 -0.906308  255 255 255 255
-12.6393 -2.60972 -20.8506 0 -0.422618 -0.906308  255 255 255 255
20.5991 -2.00371 -21.1332 0 -0.422618 -0.906308  255 255 255 255
-20.5991 -2.00371 -21.1332 0 -0.422618 -0.906308  255 255 255 255
7.49674 -40.9067 -2.99246 0 -0.422618 -0.906308  255 255 255 255
-5.83578 -6.74494 -18.9223 0 -0.422618 -0.906308  255 255 255 255
-8.5862 -21.4067 -12.0854 0 -0.422618 -0.906308  255 255 255 255
22.4722 -20.251 -12.6244 0 -0.422618 -0.906308  255 255 255 255
-3.86923 -44.473 -1.32947 0 -0.422618 -0.906308  255 255 255 255
12.77 4.6946 -24.2567 0 -0.422618 -0.906308  255 255 255 255
1.57648 -16.4883 -14.3789 0 -0.422618 -0.906308  255 255 255 255
10.6234 -34.3235 -6.06224 0 -0.422618 -0.906308  255 255 255 255
-4.51089 1.71635 -22.8679 0 -0.422618 -0.906308  255 255 255 255
7.87575 -36.389 -5.09911 0 -0.422618 -0.906308  255 255 255 255
-9.19112 -29.5639 -8.28168 0 -0.422618 -0.906308  255 255 255 255
0.141332 25.1219 -33.7821 0 -0.422618 -0.906308  255 255 255 255
21.6417 2.08487 -23.0398 0 -0.422618 -0.906308  255 255 255 255
-21.6417 2.08487 -23.0398 0 -0.422618 -0.906308  255 255 255 255
12.4134 -46.424 -0.419683 0 -0.422618 -0.906308  255 255 255 255
-6.23875 -23.9187 -10.9141 0 -0.422618 -0.906308  255 255 255 255
3.88764 -14.5463 -15.2845 0 -0.422618 -0.906308  255 255 255 255
5.63859 -47.7236 0.186308 0 -0.422618 -0.906308  255 255 255 255
19.6544 -18.1896 -13.5856 0 -0.422618 -0.906308  255 255 255 255
-2.43274 18.106 -30.5105 0 -0.422618 -0.906308  255 255 255 255
-19.6506 -0.117777 -22.0126 0 -0.422618 -0.906308  255 255 255 255
19.6506 -0.117777 -22.0126 0 -0.422618 -0.906308  255 255 255 255
-18.367 -14.4389 -15.3346 0 -0.422618 -0.906308  255 255 255 255
12.5581 -2.54901 -20.8789 0 -0.422618 -0.906308  255 255 255 255
8.26015 -1.17843 -21.518 0 -0.422618 -0.906308  255 255 255 255
5.80558 -1.24275 -21.4881 0 -0.422618 -0.906308  255 255 255 255
-3.47173 -14.6778 -15.2232 0 -0.422618 -0.906308  255 255 255 255
11.6188 -42.1887 -2.39465 0 -0.422618 -0.906308  255 255 255 255
8.30421 9.32836 -26.4174 0 -0.422618 -0.906308  255 255 255 255
-7.82732 4.86468 -24.336 0 -0.422618 -0.906308  255 255 255 255
5.49824 7.9962 -25.7962 0 -0.422618 -0.906308  255 255 255 255
-11.8157 11.913 -27.6227 0 -0.422618 -0.906308  255 255 255 255
11.9101 12.0534 -27.6881 0 -0.422618 -0.906308  255 255 255 255
-16.2043 -29.0777 -8.5084 0 -0.422618 -0.906308  255 255 255 255
-20.2227 -22.879 -11.3989 0 -0.422618 -0.906308  255 255 255 255
-5.48255 16.8257 -29.9135 0 -0.422618 -0.906308  255 255 255 255
5.48255 16.8257 -29.9135 0 -0.422618 -0.906308  255 255 255 255
-24.2331 -19.0187 -13.199 0 -0.422618 -0.906308  255 255 255 255
9.15542 -9.21945 -17.7685 0 -0.422618 -0.906308  255 255 255 255
8.7906 5.29396 -24.5362 0 -0.422618 -0.906308  255 255 255 255
-5.88557 -32.4021 -6.95823 0 -0.422618 -0.906308  255 255 255 255
-36.2694 -13.6985 -15.6798 0 -0.422618 -0.906308  255 255 255 255
36.2694 -13.6985 -15.6798 0 -0.422618 -0.906308  255 255 255 255
-9.32786 -10.2293 -17.2975 0 -0.422618 -0.906308  255 255 255 255
3.36891 -35.8799 -5.33649 0 -0.422618 -0.906308  255 255 255 255
10.1542 7.93065 -25.7657 0 -0.422618 -0.906308  255 255 255 255
-12.0823 -18.6967 -13.3491 0 -0.422618 -0.906308  255 255 255 255
-3.35863 27.9204 -35.0871 0 -0.422618 -0.906308  255 255 255 255
6.74648 -9.22052 -17.768 0 -0.422618 -0.906308  255 255 255 255
4.63636 -12.1642 -16.3953 0 -0.422618 -0.906308  255 255 255 255
-5.41384 5.50704 -24.6355 0 -0.422618 -0.906308  255 255 255 255
11.3642 -11.999 -16.4723 0 -0.422618 -0.906308  255 255 255 255
-9.76991 -13.5746 -15.7376 0 -0.422618 -0.906308  255 255 255 255
5.10603 -39.6336 -3.58613 0 -0.422618 -0.906308  255 255 255 255
-1.41113 -0.745501 -21.7199 0 -0.422618 -0.906308  255 255 255 255
-3.78709 -24.4538 -10.6646 0 -0.422618 -0.906308  255 255 255 255
18.7391 -7.56063 -18.542 0 -0.422618 -0.906308  255 255 255 255
-18.8152 -7.54988 -18.547 0 -0.422618 -0.906308  255 255 255 255
6.9356 -15.763 -14.7172 0 -0.422618 -0.906308  255 255 255 255
24.3419 -18.9902 -13.2123 0 -0.422618 -0.906308  255 255 255 255
-10.3787 8.00455 -25.8001 0 -0.422618 -0.906308  255 255 255 255
36.6521 -9.62743 -17.5782 0 -0.422618 -0.906308  255 255 255 255
-36.6521 -9.62743 -17.5782 0 -0.422618 -0.906308  255 255 255 255
-20.9603 -11.0802 -16.9008 0 -0.422618 -0.906308  255 255 255 255
20.9626 -11.0805 -16.9007 0 -0.422618 -0.906308  255 255 255 255
11.9469 -23.6533 -11.0379 0 -0.422618 -0.906308  255 255 255 255
-8.82049 -1.61416 -21.3149 0 -0.422618 -0.906308  255 255 255 255
-8.02961 -3.80508 -20.2932 0 -0.422618 -0.906308  255 255 255 255
-43.5966 -3.2953 -20.5309 0 -0.422618 -0.906308  255 255 255 255
43.5966 -3.2953 -20.5309 0 -0.422618 -0.906308  255 255 255 255
-13.8168 -21.3415 -12.1158 0 -0.422618 -0.906308  255 255 255 255
-28.5425 -12.75 -16.1221 0 -0.422618 -0.906308  255 255 255 255
28.5425 -12.75 -16.1221 0 -0.422618 -0.906308  255 255 255 255
-14.144 -37.4987 -4.58165 0 -0.422618 -0.906308  255 255 255 255
-5.47956 8.04058 -25.8169 0 -0.422618 -0.906308  255 255 255 255
12.1252 -19.7042 -12.8793 0 -0.422618 -0.906308  255 255 255 255
-27.5608 -16.8223 -14.2232 0 -0.422618 -0.906308  255 255 255 255
27.5608 -16.8223 -14.2232 0 -0.422618 -0.906308  255 255 255 255
17.0773 -10.8817 -16.9933 0 -0.422618 -0.906308  255 255 255 255
-12.3671 -27.7612 -9.12231 0 -0.422618 -0.906308  255 255 255 255
-14.7881 -25.4487 -10.2006 0 -0.422618 -0.906308  255 255 255 255
-1.7904 -48.1618 0.390665 0 -0.422618 -0.906308  255 255 255 255
2.82722 -18.3037 -13.5324 0 -0.422618 -0.906308  255 255 255 255
14.2758 1.04699 -22.5558 0 -0.422618 -0.906308  255 255 255 255
35.6975 -3.22894 -20.5619 0 -0.422618 -0.906308  255 255 255 255
-35.6975 -3.22894 -20.5619 0 -0.422618 -0.906308  255 255 255 255
-14.7737 -41.3699 -2.77646 0 -0.422618 -0.906308  255 255 255 255
23.7893 0.950786 -22.5109 0 -0.422618 -0.906308  255 255 255 255
-23.7893 0.950786 -22.5109 0 -0.422618 -0.906308  255 255 255 255
15.3113 -5.65304 -19.4315 0 -0.422618 -0.906308  255 255 255 255
0.124752 -45.4032 -0.895684 0 -0.422618 -0.906308  255 255 255 255
-22.777 -16.0681 -14.5749 0 -0.422618 -0.906308  255 255 255 255
22.957 -16.2265 -14.501 0 -0.422618 -0.906308  255 255 255 255
0.97745 -31.1155 -7.55815 0 -0.422618 -0.906308  255 255 255 255
-6.57501 25.305 -33.8675 0 -0.422618 -0.906308  255 255 255 255
-11.4153 -34.4916 -5.98386 0 -0.422618 -0.906308  255 255 255 255
-4.71735 14.4668 -28.8135 0 -0.422618 -0.906308  255 255 255 255
4.71735 14.4668 -28.8135 0 -0.422618 -0.906308  255 255 255 255
-15.337 -5.86231 -19.3339 0 -0.422618 -0.906308  255 255 255 255
-6.93177 -36.6904 -4.95853 0 -0.422618 -0.906308  255 255 255 255
-40.9005 -9.0451 -17.8498 0 -0.422618 -0.906308  255 255 255 255
40.9005 -9.0451 -17.8498 0 -0.422618 -0.906308  255 255 255 255
14.502 -26.5307 -9.69611 0 -0.422618 -0.906308  255 255 255 255
3.74197 -24.4542 -10.6644 0 -0.422618 -0.906308  255 255 255 255
1.94569 -34.2366 -6.10279 0 -0.422618 -0.906308  255 255 255 255
14.5675 -35.2492 -5.63057 0 -0.422618 -0.906308  255 255 255 255
0.201361 21.0138 -31.8665 0 -0.422618 -0.906308  255 255 255 255
15.0187 -20.4623 -12.5258 0 -0.422618 -0.906308  255 255 255 255
-2.02685 14.5654 -28.8595 0 -0.422618 -0.906308  255 255 255 255
2.02685 14.5654 -28.8595 0 -0.422618 -0.906308  255 255 255 255
1.54844 11.8325 -27.5852 0 -0.422618 -0.906308  255 255 255 255
-8.25635 -38.4193 -4.15235 0 -0.422618 -0.906308  255 255 255 255
14.5928 -39.1362 -3.81803 0 -0.422618 -0.906308  255 255 255 255
8.46459 19.6857 -31.2472 0 -0.422618 -0.906308  255 255 255 255
-8.46459 19.6857 -31.2472 0 -0.422618 -0.906308  255 255 255 255
4.99895 12.0208 -27.673 0 -0.422618 -0.906308  255 255 255 255
-5.04896 11.8933 -27.6135 0 -0.422618 -0.906308  255 255 255 255
-41.2853 -3.28893 -20.5339 0 -0.422618 -0.906308  255 255 255 255
41.2853 -3.28893 -20.5339 0 -0.422618 -0.906308  255 255 255 255
18.5333 -3.98523 -20.2092 0 -0.422618 -0.906308  255 255 255 255
-18.5393 -4.08721 -20.1617 0 -0.422618 -0.906308  255 255 255 255
-4.02354 -34.4738 -5.99215 0 -0.422618 -0.906308  255 255 255 255
4.05143 27.6541 -34.9629 0 -0.422618 -0.906308  255 255 255 255
10.7635 -21.3092 -12.1309 0 -0.422618 -0.906308  255 255 255 255
16.0228 -30.3096 -7.93397 0 -0.422618 -0.906308  255 255 255 255
-11.7813 -38.0765 -4.31218 0 -0.422618 -0.906308  255 255 255 255
-4.76543 21.5259 -32.1052 0 -0.422618 -0.906308  255 255 255 255
4.76543 21.5259 -32.1052 0 -0.422618 -0.906308  255 255 255 255
-14.2372 1.10694 -22.5837 0 -0.422618 -0.906308  255 255 255 255
22.9263 -1.84808 -21.2058 0 -0.422618 -0.906308  255 255 255 255
-22.9263 -1.84808 -21.2058 0 -0.422618 -0.906308  255 255 255 255
-10.9296 -46.894 -0.200521 0 -0.422618 -0.906308  255 255 255 255
-27.3244 -0.659378 -21.7601 0 -0.422618 -0.906308  255 255 255 255
27.3244 -0.659378 -21.7601 0 -0.422618 -0.906308  255 255 255 255
-10.2901 -17.5671 -13.8759 0 -0.422618 -0.906308  255 255 255 255
10.2825 -25.8652 -10.0064 0 -0.422618 -0.906308  255 255 255 255
16.0925 -18.0052 -13.6716 0 -0.422618 -0.906308  255 255 255 255
-25.924 -13.7844 -15.6398 0 -0.422618 -0.906308  255 255 255 255
25.924 -13.7844 -15.6398 0 -0.422618 -0.906308  255 255 255 255
-1.88394 11.3534 -27.3617 0 -0.422618 -0.906308  255 255 255 255
-14.4411 -46.115 -0.563792 0 -0.422618 -0.906308  255 255 255 255
-5.71681 -40.6753 -3.10034 0 -0.422618 -0.906308  255 255 255 255
-11.2883 -43.8025 -1.64212 0 -0.422618 -0.906308  255 255 255 255
-11.891 -40.6497 -3.11228 0 -0.422618 -0.906308  255 255 255 255
35.1812 -6.62307 -18.9792 0 -0.422618 -0.906308  255 255 255 255
-35.1812 -6.62307 -18.9792 0 -0.422618 -0.906308  255 255 255 255
-1.88448 5.72561 -24.7375 0 -0.422618 -0.906308  255 255 255 255
0.318612 17.2509 -30.1118 0 -0.422618 -0.906308  255 255 255 255
-11.7299 -14.9684 -15.0877 0 -0.422618 -0.906308  255 255 255 255
17.351 -27.1425 -9.41081 0 -0.422618 -0.906308  255 255 255 255
-2.17082 -42.0161 -2.47515 0 -0.422618 -0.906308  255 255 255 255
-24.417 -12.3551 -16.3063 0 -0.422618 -0.906308  255 255 255 255
24.417 -12.3551 -16.3063 0 -0.422618 -0.906308  255 255 255 255
1.13419 -42.4258 -2.2841 0 -0.422618 -0.906308  255 255 255 255
18.3937 -25.3138 -10.2635 0 -0.422618 -0.906308  255 255 255 255
1.36385 8.41926 -25.9935 0 -0.422618 -0.906308  255 255 255 255
10.4659 -44.0381 -1.53224 0 -0.422618 -0.906308  255 255 255 255
-4.96755 -18.5454 -13.4197 0 -0.422618 -0.906308  255 255 255 255
-6.27463 -21.7412 -11.9294 0 -0.422618 -0.906308  255 255 255 255
-28.628 -4.26725 -20.0777 0 -0.422618 -0.906308  255 255 255 255
28.628 -4.26725 -20.0777 0 -0.422618 -0.906308  255 255 255 255
34.929 -11.3441 -16.7777 0 -0.422618 -0.906308  255 255 255 255
-34.929 -11.3441 -16.7777 0 -0.422618 -0.906308  255 255 255 255
-2.82582 -17.5909 -13.8648 0 -0.422618 -0.906308  255 255 255 255
10.8484 4.08735 -23.9735 0 -0.422618 -0.906308  255 255 255 255
25.2963 -10.2837 -17.2722 0 -0.422618 -0.906308  255 255 255 255
-25.2963 -10.2837 -17.2722 0 -0.422618 -0.906308  255 255 255 255
37.7999 -3.45624 -20.4559 0 -0.422618 -0.906308  255 255 255 255
-37.7999 -3.45624 -20.4559 0 -0.422618 -0.906308  255 255 255 255
-15.262 7.90339 -25.753 0 -0.422618 -0.906308  255 255 255 255
15.262 7.90339 -25.753 0 -0.422618 -0.906308  255 255 255 255
-8.45539 11.1085 -27.2475 0 -0.422618 -0.906308  255 255 255 255
-12.4145 0.006515 -22.0706 0 -0.422618 -0.906308  255 255 255 255
32.9658 -14.8099 -15.1616 0 -0.422618 -0.906308  255 255 255 255
-32.9658 -14.8099 -15.1616 0 -0.422618 -0.906308  255 255 255 255
11.4417 -38.4996 -4.1149 0 -0.422618 -0.906308  255 255 255 255
38.5373 -5.85053 -19.3394 0 -0.422618 -0.906308  255 255 255 255
-38.5373 -5.85053 -19.3394 0 -0.422618 -0.906308  255 255 255 255
-4.49916 -2.67342 -20.8209 0 -0.422618 -0.906308  255 255 255 255
-15.2774 -32.3852 -6.96607 0 -0.422618 -0.906308  255 255 255 255
-13.3474 10.2841 -26.8631 0 -0.422618 -0.906308  255 255 255 255
13.1242 10.3483 -26.8931 0 -0.422618 -0.906308  255 255 255 255
16.465 -7.39448 -18.6195 0 -0.422618 -0.906308  255 255 255 255
-39.3617 -11.1284 -16.8783 0 -0.422618 -0.906308  255 255 255 255
39.3617 -11.1284 -16.8783 0 -0.422618 -0.906308  255 255 255 255
26.2729 -3.76446 -20.3122 0 -0.422618 -0.906308  255 255 255 255
-26.2729 -3.76446 -20.3122 0 -0.422618 -0.906308  255 255 255 255
8.99942 11.4289 -27.397 0 -0.422618 -0.906308  255 255 255 255
15.3144 -43.4974 -1.78437 0 -0.422618 -0.906308  255 255 255 255
7.62436 -23.1403 -11.2771 0 -0.422618 -0.906308  255 255 255 255
-3.72229 -38.5736 -4.08037 0 -0.422618 -0.906308  255 255 255 255
12.4288 0.16091 -22.1426 0 -0.422618 -0.906308  255 255 255 255
-3.33608 -30.6944 -7.7545 0 -0.422618 -0.906308  255 255 255 255
16.0985 -1.8094 -21.2238 0 -0.422618 -0.906308  255 255 255 255
16.9103 6.26958 -24.9911 0 -0.422618 -0.906308  255 255 255 255
-16.9114 6.27193 -24.9922 0 -0.422618 -0.906308  255 255 255 255
-19.348 4.11232 -23.9852 0 -0.422618 -0.906308  255 255 255 255
19.348 4.11232 -23.9852 0 -0.422618 -0.906308  255 255 255 255
6.91924 25.2348 -33.8347 0 -0.422618 -0.906308  255 255 255 255
-1.28682 -32.1067 -7.09596 0 -0.422618 -0.906308  255 255 255 255
-16.3559 -7.62897 -18.5101 0 -0.422618 -0.906308  255 255 255 255
-10.0742 -24.735 -10.5335 0 -0.422618 -0.906308  255 255 255 255
-5.67342 -13.1201 -15.9495 0 -0.422618 -0.906308  255 255 255 255
-2.67259 -4.55272 -19.9446 0 -0.422618 -0.906308  255 255 255 255
2.19996 28.5124 -35.3631 0 -0.422618 -0.906308  255 255 255 255
-1.38327 28.6258 -35.416 0 -0.422618 -0.906308  255 255 255 255
-7.26761 -47.8198 0.231165 0 -0.422618 -0.906308  255 255 255 255
-16.2839 -0.881252 -21.6566 0 -0.422618 -0.906308  255 255 255 255
-10.0721 -31.1813 -7.52746 0 -0.422618 -0.906308  255 255 255 255
-4.59607 -20.5354 -12.4917 0 -0.422618 -0.906308  255 255 255 255
8.25411 -45.0048 -1.08147 0 -0.422618 -0.906308  255 255 255 255
10.1999 -17.6617 -13.8318 0 -0.422618 -0.906308  255 255 255 255
14.5553 -14.0476 -15.5171 0 -0.422618 -0.906308  255 255 255 255
12.1963 -35.5373 -5.49623 0 -0.422618 -0.906308  255 255 255 255
1.05568 6.46794 -25.0836 0 -0.422618 -0.906308  255 255 255 255
4.63379 6.25215 -24.983 0 -0.422618 -0.906308  255 255 255 255
-29.5701 -15.8125 -14.694 0 -0.422618 -0.906308  255 255 255 255
29.5701 -15.8125 -14.694 0 -0.422618 -0.906308  255 255 255 255
10.8703 -5.09177 -19.6932 0 -0.422618 -0.906308  255 255 255 255
-6.95252 -29.8714 -8.1383 0 -0.422618 -0.906308  255 255 255 255
-12.9026 6.63598 -25.162 0 -0.422618 -0.906308  255 255 255 255
12.9193 6.70137 -25.1925 0 -0.422618 -0.906308  255 255 255 255
13.2798 -8.92241 -17.907 0 -0.422618 -0.906308  255 255 255 255
8.73231 1.27227 -22.6608 0 -0.422618 -0.906308  255 255 255 255
-19.97 -16.8986 -14.1876 0 -0.422618 -0.906308  255 255 255 255
19.8348 -5.91933 -19.3073 0 -0.422618 -0.906308  255 255 255 255
-19.8569 -5.91975 -19.3071 0 -0.422618 -0.906308  255 255 255 255
-25.6699 -7.07328 -18.7692 0 -0.422618 -0.906308  255 255 255 255
25.6699 -7.07328 -18.7692 0 -0.422618 -0.906308  255 255 255 255
9.12002 -37.8652 -4.41074 0 -0.422618 -0.906308  255 255 255 255
-4.92931 -27.752 -9.12659 0 -0.422618 -0.906308  255 255 255 255
17.2578 -23.4394 -11.1376 0 -0.422618 -0.906308  255 255 255 255
0.848132 -6.50479 -19.0343 0 -0.422618 -0.906308  255 255 255 255
20.6662 -22.3782 -11.6324 0 -0.422618 -0.906308  255 255 255 255
-17.2474 -10.7555 -17.0522 0 -0.422618 -0.906308  255 255 255 255
22.6241 -4.69174 -19.8798 0 -0.422618 -0.906308  255 255 255 255
-22.6241 -4.69174 -19.8798 0 -0.422618 -0.906308  255 255 255 255
-0.376113 -3.38319 -20.49 0 -0.422618 -0.906308  255 255 255 255
6.77029 3.11546 -23.5203 0 -0.422618 -0.906308  255 255 255 255
-4.75225 -8.69568 -18.0127 0 -0.422618 -0.906308  255 255 255 255
-0.875 -19.7464 -12.8596 0 -0.422618 -0.906308  255 255 255 255
1.87728 -48.2115 0.413854 0 -0.422618 -0.906308  255 255 255 255
3.07415 -42.5481 -2.22704 0 -0.422618 -0.906308  255 255 255 255
-21.6257 -9.22226 -17.7671 0 -0.422618 -0.906308  255 255 255 255
21.6257 -9.22226 -17.7671 0 -0.422618 -0.906308  255 255 255 255
-14.7928 -35.6932 -5.42352 0 -0.422618 -0.906308  255 255 255 255
8.41963 -28.9841 -8.55207 0 -0.422618 -0.906308  255 255 255 255
-6.29265 19.2166 -31.0284 0 -0.422618 -0.906308  255 255 255 255
6.26537 19.2006 -31.0209 0 -0.422618 -0.906308  255 255 255 255
4.5844 -28.2606 -8.88941 0 -0.422618 -0.906308  255 255 255 255
-11.1554 4.30029 -24.0728 0 -0.422618 -0.906308  255 255 255 255
10.8176 -15.3597 -14.9052 0 -0.422618 -0.906308  255 255 255 255
-7.35097 2.62864 -23.2933 0 -0.422618 -0.906308  255 255 255 255
-9.01768 1.34494 -22.6947 0 -0.422618 -0.906308  255 255 255 255
6.23787 -35.3233 -5.59602 0 -0.422618 -0.906308  255 255 255 255
-29.3128 -1.26437 -21.478 0 -0.422618 -0.906308  255 255 255 255
29.3128 -1.26437 -21.478 0 -0.422618 -0.906308  255 255 255 255
-43.7487 -13.9086 -15.5819 0 -0.422618 -0.906308  255 255 255 255
43.7487 -13.9086 -15.5819 0 -0.422618 -0.906308  255 255 255 255
-0.208223 -14.6406 -15.2405 0 -0.422618 -0.906308  255 255 255 255
-1.47731 -25.9203 -9.98074 0 -0.422618 -0.906308  255 255 255 255
-1.70615 -11.1136 -16.8852 0 -0.422618 -0.906308  255 255 255 255
31.007 -7.11743 -18.7486 0 -0.422618 -0.906308  255 255 255 255
-31.007 -7.11743 -18.7486 0 -0.422618 -0.906308  255 255 255 255
-13.181 -9.32817 -17.7178 0 -0.422618 -0.906308  255 255 255 255
32.9037 -8.2821 -18.2055 0 -0.422618 -0.906308  255 255 255 255
-32.9037 -8.2821 -18.2055 0 -0.422618 -0.906308  255 255 255 255
2.30281 1.08738 -22.5746 0 -0.422618 -0.906308  255 255 255 255
41.2426 -13.8838 -15.5934 0 -0.422618 -0.906308  255 255 255 255
-41.2426 -13.8838 -15.5934 0 -0.422618 -0.906308  255 255 255 255
-17.3752 2.84148 -23.3926 0 -0.422618 -0.906308  255 255 255 255
17.3756 2.84765 -23.3954 0 -0.422618 -0.906308  255 255 255 255
6.43962 -33.0766 -6.64371 0 -0.422618 -0.906308  255 255 255 255
7.72834 -19.4913 -12.9786 0 -0.422618 -0.906308  255 255 255 255
42.0038 -6.18221 -19.1847 0 -0.422618 -0.906308  255 255 255 255
-42.0038 -6.18221 -19.1847 0 -0.422618 -0.906308  255 255 255 255
-14.0939 -15.4266 -14.874 0 -0.422618 -0.906308  255 255 255 255
5.22108 -18.3785 -13.4975 0 -0.422618 -0.906308  255 255 255 255
-1.50384 16.444 -29.7355 0 -0.422618 -0.906308  255 255 255 255
31.2886 -10.2723 -17.2775 0 -0.422618 -0.906308  255 255 255 255
-31.2886 -10.2723 -17.2775 0 -0.422618 -0.906308  255 255 255 255
2.64003 -10.0103 -17.3997 0 -0.422618 -0.906308  255 255 255 255
-9.08181 5.99632 -24.8637 0 -0.422618 -0.906308  255 255 255 255
13.077 -32.3357 -6.98916 0 -0.422618 -0.906308  255 255 255 255
-10.7499 14.6178 -28.884 0 -0.422618 -0.906308  255 255 255 255
10.7694 14.5948 -28.8732 0 -0.422618 -0.906308  255 255 255 255
9.11815 -32.6345 -6.84984 0 -0.422618 -0.906308  255 255 255 255
-11.1709 -1.92024 -21.1721 0 -0.422618 -0.906308  255 255 255 255
-11.5753 -4.42718 -20.0031 0 -0.422618 -0.906308  255 255 255 255
32.6558 -2.26798 -21.01 0 -0.422618 -0.906308  255 255 255 255
-32.6558 -2.26798 -21.01 0 -0.422618 -0.906308  255 255 255 255
-7.55402 -45.2039 -0.98865 0 -0.422618 -0.906308  255 255 255 255
7.66873 -12.6573 -16.1654 0 -0.422618 -0.906308  255 255 255 255
14.8094 4.30188 -24.0736 0 -0.422618 -0.906308  255 255 255 255
-0.876695 -17.7308 -13.7995 0 -0.422618 -0.906308  255 255 255 255
-1.39717 -28.1919 -8.92148 0 -0.422618 -0.906308  255 255 255 255
-14.6713 4.34047 -24.0916 0 -0.422618 -0.906308  255 255 255 255
-2.03327 19.7762 -31.2894 0 -0.422618 -0.906308  255 255 255 255
-11.4919 -20.2712 -12.615 0 -0.422618 -0.906308  255 255 255 255
13.573 -12.8867 -16.0584 0 -0.422618 -0.906308  255 255 255 255
2.08274 19.774 -31.2883 0 -0.422618 -0.906308  255 255 255 255
5.91454 -22.1265 -11.7498 0 -0.422618 -0.906308  255 255 255 255
9.80484 -11.1106 -16.8866 0 -0.422618 -0.906308  255 255 255 255
-13.8029 -28.8327 -8.62266 0 -0.422618 -0.906308  255 255 255 255
1.82367 -27.4611 -9.26223 0 -0.422618 -0.906308  255 255 255 255
5.90085 -11.2477 -16.8227 0 -0.422618 -0.906308  255 255 255 255
31.9521 -12.9209 -16.0424 0 -0.422618 -0.906308  255 255 255 255
-31.9521 -12.9209 -16.0424 0 -0.422618 -0.906308  255 255 255 255
-26.4696 -15.8617 -14.6711 0 -0.422618 -0.906308  255 255 255 255
26.4716 -15.8663 -14.669 0 -0.422618 -0.906308  255 255 255 255
11.2664 -40.7306 -3.07458 0 -0.422618 -0.906308  255 255 255 255
-12.8314 -23.5987 -11.0633 0 -0.422618 -0.906308  255 255 255 255
-9.42381 -5.15332 -19.6645 0 -0.422618 -0.906308  255 255 255 255
18.1979 -21.0361 -12.2583 0 -0.422618 -0.906308  255 255 255 255
-9.69339 17.6529 -30.2992 0 -0.422618 -0.906308  255 255 255 255
9.69339 17.6529 -30.2992 0 -0.422618 -0.906308  255 255 255 255
-6.87938 -4.68932 -19.8809 0 -0.422618 -0.906308  255 255 255 255
-7.44902 -10.4745 -17.1832 0 -0.422618 -0.906308  255 255 255 255
0.621806 -21.3278 -12.1222 0 -0.422618 -0.906308  255 255 255 255
1.93139 -45.8881 -0.669567 0 -0.422618 -0.906308  255 255 255 255
10.2035 -47.634 0.144527 0 -0.422618 -0.906308  255 255 255 255
3.02091 -1.6112 -21.3162 0 -0.422618 -0.906308  255 255 255 255
7.92551 -14.4448 -15.3318 0 -0.422618 -0.906308  255 255 255 255
-44.2701 -9.57701 -17.6017 0 -0.422618 -0.906308  255 255 255 255
44.2701 -9.57701 -17.6017 0 -0.422618 -0.906308  255 255 255 255
2.37214 -4.08875 -20.1609 0 -0.422618 -0.906308  255 255 255 255
-4.37503 -46.2152 -0.517041 0 -0.422618 -0.906308  255 255 255 255
4.27859 -45.7729 -0.723288 0 -0.422618 -0.906308  255 255 255 255
-13.6291 -31.7287 -7.27221 0 -0.422618 -0.906308  255 255 255 255
-7.94943 -19.2294 -13.1008 0 -0.422618 -0.906308  255 255 255 255
11.2392 -1.48986 -21.3728 0 -0.422618 -0.906308  255 255 255 255
15.3119 -33.6478 -6.37732 0 -0.422618 -0.906308  255 255 255 255
3.34679 25.2684 -33.8504 0 -0.422618 -0.906308  255 255 255 255
-1.11678 -36.467 -5.06273 0 -0.422618 -0.906308  255 255 255 255
-1.14417 -39.4659 -3.6643 0 -0.422618 -0.906308  255 255 255 255
-0.318026 -34.333 -6.05783 0 -0.422618 -0.906308  255 255 255 255
10.6386 -27.7074 -9.1474 0 -0.422618 -0.906308  255 255 255 255
-5.9084 -0.56944 -21.802 0 -0.422618 -0.906308  255 255 255 255
44.0899 -12.5605 -16.2105 0 -0.422618 -0.906308  255 255 255 255
-44.0899 -12.5605 -16.2105 0 -0.422618 -0.906308  255 255 255 255
-16.2955 -45.0242 -1.07241 0 -0.422618 -0.906308  255 255 255 255
25.3251 -4.95827 -19.7555 0 -0.422618 -0.906308  255 255 255 255
-25.3251 -4.95827 -19.7555 0 -0.422618 -0.906308  255 255 255 255
-26.2685 -1.96659 -21.1505 0 -0.422618 -0.906308  255 255 255 255
26.2685 -1.96659 -21.1505 0 -0.422618 -0.906308  255 255 255 255
15.0524 -40.3321 -3.26041 0 -0.422618 -0.906308  255 255 255 255
-38.0368 -13.9302 -15.5718 0 -0.422618 -0.906308  255 255 255 255
38.0368 -13.9302 -15.5718 0 -0.422618 -0.906308  255 255 255 255
-16.3534 -22.9201 -11.3797 0 -0.422618 -0.906308  255 255 255 255
8.41505 22.1346 -32.3891 0 -0.422618 -0.906308  255 255 255 255
-8.36353 22.1872 -32.4136 0 -0.422618 -0.906308  255 255 255 255
-7.50854 -33.2027 -6.5849 0 -0.422618 -0.906308  255 255 255 255
-2.79637 -22.4921 -11.5793 0 -0.422618 -0.906308  255 255 255 255
-7.36081 -39.5594 -3.62069 0 -0.422618 -0.906308  255 255 255 255
1.07102 16.2871 -29.6624 0 -0.422618 -0.906308  255 255 255 255
14.3666 -22.4654 -11.5918 0 -0.422618 -0.906308  255 255 255 255
7.01203 5.63985 -24.6975 0 -0.422618 -0.906308  255 255 255 255
-18.7087 -25.502 -10.1758 0 -0.422618 -0.906308  255 255 255 255
-1.3388 9.13666 -26.3281 0 -0.422618 -0.906308  255 255 255 255
-9.83109 -22.214 -11.709 0 -0.422618 -0.906308  255 255 255 255
-8.58608 14.3519 -28.76 0 -0.422618 -0.906308  255 255 255 255
8.55101 14.288 -28.7302 0 -0.422618 -0.906308  255 255 255 255
-44.4749 -5.21143 -19.6374 0 -0.422618 -0.906308  255 255 255 255
44.4749 -5.21143 -19.6374 0 -0.422618 -0.906308  255 255 255 255
-10.9112 -45.719 -0.748434 0 -0.422618 -0.906308  255 255 255 255
17.5018 -12.6899 -16.1502 0 -0.422618 -0.906308  255 255 255 255
20.8051 -17.2097 -14.0425 0 -0.422618 -0.906308  255 255 255 255
-13.8028 -26.1783 -9.86039 0 -0.422618 -0.906308  255 255 255 255
20.969 -19.3966 -13.0228 0 -0.422618 -0.906308  255 255 255 255
-2.86785 -29.1301 -8.48395 0 -0.422618 -0.906308  255 255 255 255
-34.4001 -4.80083 -19.8289 0 -0.422618 -0.906308  255 255 255 255
34.4001 -4.80083 -19.8289 0 -0.422618 -0.906308  255 255 255 255
1.10291 -4.68638 -19.8823 0 -0.422618 -0.906308  255 255 255 255
19.3053 -14.132 -15.4777 0 -0.422618 -0.906308  255 255 255 255
-42.4574 -9.79168 -17.5016 0 -0.422618 -0.906308  255 255 255 255
42.4574 -9.79168 -17.5016 0 -0.422618 -0.906308  255 255 255 255
3.76868 4.05228 -23.9572 0 -0.422618 -0.906308  255 255 255 255
-15.2481 -42.6832 -2.16407 0 -0.422618 -0.906308  255 255 255 255
10.73 2.15452 -23.0722 0 -0.422618 -0.906308  255 255 255 255
-2.80799 25.3916 -33.9079 0 -0.422618 -0.906308  255 255 255 255
-23.6288 -20.4973 -12.5095 0 -0.422618 -0.906308  255 255 255 255
-34.6394 -14.6051 -15.2571 0 -0.422618 -0.906308  255 255 255 255
34.6394 -14.6051 -15.2571 0 -0.422618 -0.906308  255 255 255 255
31.7476 -4.19597 -20.1109 0 -0.422618 -0.906308  255 255 255 255
-31.7476 -4.19597 -20.1109 0 -0.422618 -0.906308  255 255 255 255
-8.3237 -35.2337 -5.63779 0 -0.422618 -0.906308  255 255 255 255
14.1244 -46.5585 -0.356982 0 -0.422618 -0.906308  255 255 255 255
-21.8291 -6.11852 -19.2144 0 -0.422618 -0.906308  255 255 255 255
21.8291 -6.11852 -19.2144 0 -0.422618 -0.906308  255 255 255 255
13.171 -15.7742 -14.7119 0 -0.422618 -0.906308  255 255 255 255
0.263356 -23.9484 -10.9002 0 -0.422618 -0.906308  255 255 255 255
-17.665 -13.0031 -16.0041 0 -0.422618 -0.906308  255 255 255 255
-4.03252 17.5122 -30.2336 0 -0.422618 -0.906308  255 255 255 255
4.232 17.2759 -30.1235 0 -0.422618 -0.906308  255 255 255 255
-16.9505 -3.99168 -20.2062 0 -0.422618 -0.906308  255 255 255 255
5.26784 0.781561 -22.432 0 -0.422618 -0.906308  255 255 255 255
-11.5833 -13.485 -15.7794 0 -0.422618 -0.906308  255 255 255 255
-41.2959 -12.4272 -16.2727 0 -0.422618 -0.906308  255 255 255 255
41.2959 -12.4272 -16.2727 0 -0.422618 -0.906308  255 255 255 255
4.20693 -48.4649 0.532004 0 -0.422618 -0.906308  255 255 255 255
-8.13306 -43.0608 -1.98798 0 -0.422618 -0.906308  255 255 255 255
-16.5414 -30.5075 -7.8417 0 -0.422618 -0.906308  255 255 255 255
1.77285 -37.4522 -4.60331 0 -0.422618 -0.906308  255 255 255 255
4.041 8.89499 -26.2154 0 -0.422618 -0.906308  255 255 255 255
44.4704 -7.9164 -18.3761 0 -0.422618 -0.906308  255 255 255 255
-44.4704 -7.9164 -18.3761 0 -0.422618 -0.906308  255 255 255 255
-2.22841 -13.6424 -15.706 0 -0.422618 -0.906308  255 255 255 255
-14.3617 -12.3579 -16.305 0 -0.422618 -0.906308  255 255 255 255
16.5343 -15.6027 -14.7919 0 -0.422618 -0.906308  255 255 255 255
-5.20302 -15.0183 -15.0644 0 -0.422618 -0.906308  255 255 255 255
7.05506 -4.7093 -19.8716 0 -0.422618 -0.906308  255 255 255 255
-3.79671 5.24093 -24.5114 0 -0.422618 -0.906308  255 255 255 255
-17.5037 -27.915 -9.05056 0 -0.422618 -0.906308  255 255 255 255
-25.8859 -18.5836 -13.4019 0 -0.422618 -0.906308  255 255 255 255
-7.95436 -15.9104 -14.6484 0 -0.422618 -0.906308  255 255 255 255
-9.35129 -40.7776 -3.05267 0 -0.422618 -0.906308  255 255 255 255
-13.3124 -47.1991 -0.058269 0 -0.422618 -0.906308  255 255 255 255
-7.59445 16.2218 -29.6319 0 -0.422618 -0.906308  255 255 255 255
7.59445 16.2218 -29.6319 0 -0.422618 -0.906308  255 255 255 255
13.6754 -28.6838 -8.69211 0 -0.422618 -0.906308  255 255 255 255
-9.97808 -37.7594 -4.46006 0 -0.422618 -0.906308  255 255 255 255
-6.04543 -42.247 -2.36748 0 -0.422618 -0.906308  255 255 255 255
17.5164 -8.6273 -18.0446 0 -0.422618 -0.906308  255 255 255 255
-2.13877 -8.5096 -18.0995 0 -0.422618 -0.906308  255 255 255 255
-10.3996 2.00609 -23.003 0 -0.422618 -0.906308  255 255 255 255
0.687838 26.6059 -34.4741 0 -0.422618 -0.906308  255 255 255 255
-10.6163 -35.7469 -5.39852 0 -0.422618 -0.906308  255 255 255 255
-11.0952 -23.6975 -11.0172 0 -0.422618 -0.906308  255 255 255 255
-12.8165 -43.9764 -1.56102 0 -0.422618 -0.906308  255 255 255 255
-26.9612 -10.4798 -17.1807 0 -0.422618 -0.906308  255 255 255 255
26.9612 -10.4798 -17.1807 0 -0.422618 -0.906308  255 255 255 255
-12.1479 -10.4217 -17.2078 0 -0.422618 -0.906308  255 255 255 255
-3.18466 22.9852 -32.7857 0 -0.422618 -0.906308  255 255 255 255
-38.8887 -7.91531 -18.3766 0 -0.422618 -0.906308  255 255 255 255
38.8887 -7.91531 -18.3766 0 -0.422618 -0.906308  255 255 255 255
14.4455 -2.42356 -20.9374 0 -0.422618 -0.906308  255 255 255 255
1.21499 3.64672 -23.7681 0 -0.422618 -0.906308  255 255 255 255
12.5778 -6.25388 -19.1513 0 -0.422618 -0.906308  255 255 255 255
-1.17355 3.48893 -23.6945 0 -0.422618 -0.906308  255 255 255 255
3.9574 -4.70948 -19.8715 0 -0.422618 -0.906308  255 255 255 255
25.9746 -18.5281 -13.4278 0 -0.422618 -0.906308  255 255 255 255
-17.5523 -8.7212 -18.0008 0 -0.422618 -0.906308  255 255 255 255
5.8751 13.2182 -28.2313 0 -0.422618 -0.906308  255 255 255 255
-5.87094 13.2281 -28.2359 0 -0.422618 -0.906308  255 255 255 255
0.704774 -11.6619 -16.6295 0 -0.422618 -0.906308  255 255 255 255
13.6191 -17.1149 -14.0868 0 -0.422618 -0.906308  255 255 255 255
-2.75394 -21.2374 -12.1644 0 -0.422618 -0.906308  255 255 255 255
2.85367 -13.3871 -15.8251 0 -0.422618 -0.906308  255 255 255 255
-20.4794 -13.6535 -15.7008 0 -0.422618 -0.906308  255 255 255 255
-2.96529 -36.2327 -5.17199 0 -0.422618 -0.906308  255 255 255 255
-22.1569 -14.3001 -15.3993 0 -0.422618 -0.906308  255 255 255 255
22.1411 -14.2757 -15.4107 0 -0.422618 -0.906308  255 255 255 255
9.27411 -6.52022 -19.0271 0 -0.422618 -0.906308  255 255 255 255
-2.60017 8.09311 -25.8414 0 -0.422618 -0.906308  255 255 255 255
-3.72437 11.1118 -27.2491 0 -0.422618 -0.906308  255 255 255 255
3.25186 22.8342 -32.7153 0 -0.422618 -0.906308  255 255 255 255
-4.98806 -30.8773 -7.66925 0 -0.422618 -0.906308  255 255 255 255
15.3973 0.271824 -22.1943 0 -0.422618 -0.906308  255 255 255 255
1.23439 -39.8415 -3.48915 0 -0.422618 -0.906308  255 255 255 255
-5.84594 -48.4613 0.530307 0 -0.422618 -0.906308  255 255 255 255
11.5117 8.86348 -26.2007 0 -0.422618 -0.906308  255 255 255 255
0.133733 -1.38214 -21.4231 0 -0.422618 -0.906308  255 255 255 255
13.7763 2.93558 -23.4364 0 -0.422618 -0.906308  255 255 255 255
-12.0307 -7.58623 -18.53 0 -0.422618 -0.906308  255 255 255 255
19.1008 -15.6825 -14.7547 0 -0.422618 -0.906308  255 255 255 255
20.9876 3.31725 -23.6144 0 -0.422618 -0.906308  255 255 255 255
-20.9876 3.31725 -23.6144 0 -0.422618 -0.906308  255 255 255 255
-13.7872 2.96686 -23.451 0 -0.422618 -0.906308  255 255 255 255
3.34493 -7.2233 -18.6993 0 -0.422618 -0.906308  255 255 255 255
-11.5959 13.3842 -28.3087 0 -0.422618 -0.906308  255 255 255 255
11.5778 13.3745 -28.3042 0 -0.422618 -0.906308  255 255 255 255
5.20667 -15.5502 -14.8164 0 -0.422618 -0.906308  255 255 255 255
-1.46341 -33.4778 -6.45662 0 -0.422618 -0.906308  255 255 255 255
-15.4986 -10.6698 -17.0922 0 -0.422618 -0.906308  255 255 255 255
5.18902 -30.2169 -7.97719 0 -0.422618 -0.906308  255 255 255 255
-12.7023 -6.45987 -19.0553 0 -0.422618 -0.906308  255 255 255 255
5.5238 -3.93063 -20.2347 0 -0.422618 -0.906308  255 255 255 255
1.27311 13.1581 -28.2033 0 -0.422618 -0.906308  255 255 255 255
-10.1788 11.5578 -27.457 0 -0.422618 -0.906308  255 255 255 255
6.1174 -6.88914 -18.8551 0 -0.422618 -0.906308  255 255 255 255
-8.79453 0.070233 -22.1003 0 -0.422618 -0.906308  255 255 255 255
9.24076 -35.3677 -5.57533 0 -0.422618 -0.906308  255 255 255 255
7.58976 10.7209 -27.0668 0 -0.422618 -0.906308  255 255 255 255
-15.5694 -39.2995 -3.74191 0 -0.422618 -0.906308  255 255 255 255
-2.50958 -43.4843 -1.79048 0 -0.422618 -0.906308  255 255 255 255
4.66683 -25.7637 -10.0538 0 -0.422618 -0.906308  255 255 255 255
-1.81909 -6.40595 -19.0804 0 -0.422618 -0.906308  255 255 255 255
10.5137 -24.4298 -10.6758 0 -0.422618 -0.906308  255 255 255 255
16.9758 -29.2368 -8.43422 0 -0.422618 -0.906308  255 255 255 255
-1.03295 21.7511 -32.2102 0 -0.422618 -0.906308  255 255 255 255
-16.679 -24.3916 -10.6936 0 -0.422618 -0.906308  255 255 255 255
-4.56459 9.31277 -26.4102 0 -0.422618 -0.906308  255 255 255 255
-4.19112 -11.1734 -16.8573 0 -0.422618 -0.906308  255 255 255 255
11.76 -18.3155 -13.5269 0 -0.422618 -0.906308  255 255 255 255
-29.1552 -8.6774 -18.0212 0 -0.422618 -0.906308  255 255 255 255
29.1552 -8.6774 -18.0212 0 -0.422618 -0.906308  255 255 255 255
-4.00751 -25.7942 -10.0395 0 -0.422618 -0.906308  255 255 255 255
21.9048 -3.45115 -20.4583 0 -0.422618 -0.906308  255 255 255 255
-21.9048 -3.45115 -20.4583 0 -0.422618 -0.906308  255 255 255 255
8.7148 -3.48067 -20.4445 0 -0.422618 -0.906308  255 255 255 255
4.86207 -38.1449 -4.2803 0 -0.422618 -0.906308  255 255 255 255
23.0727 -7.18337 -18.7179 0 -0.422618 -0.906308  255 255 255 255
-23.0727 -7.18337 -18.7179 0 -0.422618 -0.906308  255 255 255 255
-41.1008 -5.00777 -19.7324 0 -0.422618 -0.906308  255 255 255 255
41.1008 -5.00777 -19.7324 0 -0.422618 -0.906308  255 255 255 255
0.542811 -8.75824 -17.9835 0 -0.422618 -0.906308  255 255 255 255
-11.3004 -26.6568 -9.6373 0 -0.422618 -0.906308  255 255 255 255
-18.1025 -22.4406 -11.6033 0 -0.422618 -0.906308  255 255 255 255
-24.3087 -15.7757 -14.7112 0 -0.422618 -0.906308  255 255 255 255
24.3363 -15.7979 -14.7009 0 -0.422618 -0.906308  255 255 255 255
-23.796 -17.0662 -14.1095 0 -0.422618 -0.906308  255 255 255 255
23.5824 -17.5093 -13.9028 0 -0.422618 -0.906308  255 255 255 255
-7.45246 -7.11542 -18.7496 0 -0.422618 -0.906308  255 255 255 255
-11.4058 9.0227 -26.2749 0 -0.422618 -0.906308  255 255 255 255
-19.4464 -24.2213 -10.773 0 -0.422618 -0.906308  255 255 255 255
0.181913 -16.0771 -14.5707 0 -0.422618 -0.906308  255 255 255 255
1.59082 22.5796 -32.5966 0 -0.422618 -0.906308  255 255 255 255
15.6658 -10.7958 -17.0334 0 -0.422618 -0.906308  255 255 255 255
-4.92333 27.7151 -34.9913 0 -0.422618 -0.906308  255 255 255 255
29.0733 -5.88365 -19.324 0 -0.422618 -0.906308  255 255 255 255
-29.0733 -5.88365 -19.324 0 -0.422618 -0.906308  255 255 255 255
-21.5578 -22.1123 -11.7564 0 -0.422618 -0.906308  255 255 255 255
15.9831 -19.4289 -13.0077 0 -0.422618 -0.906308  255 255 255 255
-15.4894 0.131526 -22.1289 0 -0.422618 -0.906308  255 255 255 255
-4.29493 3.0387 -23.4845 0 -0.422618 -0.906308  255 255 255 255
11.7617 -45.0988 -1.03763 0 -0.422618 -0.906308  255 255 255 255
11.647 -8.40641 -18.1476 0 -0.422618 -0.906308  255 255 255 255
-8.25668 -13.5196 -15.7633 0 -0.422618 -0.906308  255 255 255 255
-34.2828 -2.4956 -20.9038 0 -0.422618 -0.906308  255 255 255 255
34.2828 -2.4956 -20.9038 0 -0.422618 -0.906308  255 255 255 255
9.84645 -30.835 -7.68898 0 -0.422618 -0.906308  255 255 255 255
-13.6946 -17.8926 -13.7241 0 -0.422618 -0.906308  255 255 255 255
20.3651 1.25005 -22.6505 0 -0.422618 -0.906308  255 255 255 255
-20.3651 1.25005 -22.6505 0 -0.422618 -0.906308  255 255 255 255
23.4008 -0.47386 -21.8466 0 -0.422618 -0.906308  255 255 255 255
-23.4008 -0.47386 -21.8466 0 -0.422618 -0.906308  255 255 255 255
8.50685 -17.3321 -13.9855 0 -0.422618 -0.906308  255 255 255 255
-26.1376 0.459426 -22.2818 0 -0.422618 -0.906308  255 255 255 255
26.1376 0.459426 -22.2818 0 -0.422618 -0.906308  255 255 255 255
5.9045 22.4538 -32.5379 0 -0.422618 -0.906308  255 255 255 255
-5.93472 22.4906 -32.5551 0 -0.422618 -0.906308  255 255 255 255
-34.6007 -10.0187 -17.3958 0 -0.422618 -0.906308  255 255 255 255
34.6007 -10.0187 -17.3958 0 -0.422618 -0.906308  255 255 255 255
-0.082494 -49.0829 0.820158 0 -0.422618 -0.906308  255 255 255 255
41.652 -7.61894 -18.5148 0 -0.422618 -0.906308  255 255 255 255
-41.652 -7.61895 -18.5148 0 -0.422618 -0.906308  255 255 255 255
-4.45399 -5.97453 -19.2816 0 -0.422618 -0.906308  255 255 255 255
-42.5141 -2.67086 -20.8221 0 -0.422618 -0.906308  255 255 255 255
42.5141 -2.67086 -20.8221 0 -0.422618 -0.906308  255 255 255 255
-9.47527 -6.53669 -19.0194 0 -0.422618 -0.906308  255 255 255 255
15.1032 -36.4965 -5.04895 0 -0.422618 -0.906308  255 255 255 255
9.38443 6.59757 -25.1441 0 -0.422618 -0.906308  255 255 255 255
-1.38371 -9.8283 -17.4845 0 -0.422618 -0.906308  255 255 255 255
22.3084 -21.8094 -11.8977 0 -0.422618 -0.906308  255 255 255 255
-29.8311 -13.3823 -15.8273 0 -0.422618 -0.906308  255 255 255 255
29.8311 -13.3823 -15.8273 0 -0.422618 -0.906308  255 255 255 255
11.2762 -30.5201 -7.83582 0 -0.422618 -0.906308  255 255 255 255
-12.8399 -12.1772 -16.3893 0 -0.422618 -0.906308  255 255 255 255
-14.3861 9.15315 -26.3357 0 -0.422618 -0.906308  255 255 255 255
14.6866 9.23852 -26.3756 0 -0.422618 -0.906308  255 255 255 255
24.378 -2.04372 -21.1146 0 -0.422618 -0.906308  255 255 255 255
-24.378 -2.04372 -21.1146 0 -0.422618 -0.906308  255 255 255 255
-6.2733 26.6656 -34.502 0 -0.422618 -0.906308  255 255 255 255
-5.15078 24.8618 -33.6608 0 -0.422618 -0.906308  255 255 255 255
19.1216 -19.5578 -12.9476 0 -0.422618 -0.906308  255 255 255 255
11.6076 -3.83019 -20.2815 0 -0.422618 -0.906308  255 255 255 255
17.3394 -3.3171 -20.5208 0 -0.422618 -0.906308  255 255 255 255
2.22127 -0.440101 -21.8623 0 -0.422618 -0.906308  255 255 255 255
6.94418 8.65875 -26.1052 0 -0.422618 -0.906308  255 255 255 255
-5.99803 -3.52738 -20.4227 0 -0.422618 -0.906308  255 255 255 255
-0.002268 -25.4867 -10.1829 0 -0.422618 -0.906308  255 255 255 255
-5.40423 -44.9364 -1.11339 0 -0.422618 -0.906308  255 255 255 255
11.8583 -36.8506 -4.88382 0 -0.422618 -0.906308  255 255 255 255
12.8205 -38.2372 -4.23725 0 -0.422618 -0.906308  255 255 255 255
-11.231 -16.3683 -14.4349 0 -0.422618 -0.906308  255 255 255 255
20.366 -8.9103 -17.9126 0 -0.422618 -0.906308  255 255 255 255
-20.366 -8.9103 -17.9126 0 -0.422618 -0.906308  255 255 255 255
-14.1544 -2.30124 -20.9945 0 -0.422618 -0.906308  255 255 255 255
12.7674 -41.3038 -2.8073 0 -0.422618 -0.906308  255 255 255 255
5.80107 -16.8835 -14.1947 0 -0.422618 -0.906308  255 255 255 255
3.05199 -28.7962 -8.63968 0 -0.422618 -0.906308  255 255 255 255
-8.78898 7.47364 -25.5526 0 -0.422618 -0.906308  255 255 255 255
3.88304 1.61819 -22.8221 0 -0.422618 -0.906308  255 255 255 255
-18.7937 -10.9962 -16.9399 0 -0.422618 -0.906308  255 255 255 255
4.25965 -32.7641 -6.78939 0 -0.422618 -0.906308  255 255 255 255
-15.0584 -4.51963 -19.96 0 -0.422618 -0.906308  255 255 255 255
-5.00718 -9.98192 -17.4129 0 -0.422618 -0.906308  255 255 255 255
-9.4726 4.37936 -24.1097 0 -0.422618 -0.906308  255 255 255 255
-6.42602 -16.2061 -14.5105 0 -0.422618 -0.906308  255 255 255 255
-12.2604 -31.0051 -7.60965 0 -0.422618 -0.906308  255 255 255 255
3.72586 20.3951 -31.578 0 -0.422618 -0.906308  255 255 255 255
-3.52585 20.449 -31.6031 0 -0.422618 -0.906308  255 255 255 255
18.7737 -11.0926 -16.895 0 -0.422618 -0.906308  255 255 255 255
3.98939 -31.3548 -7.44659 0 -0.422618 -0.906308  255 255 255 255
11.3737 0.952117 -22.5115 0 -0.422618 -0.906308  255 255 255 255
5.89721 27.3314 -34.8124 0 -0.422618 -0.906308  255 255 255 255
-0.501804 1.08482 -22.5734 0 -0.422618 -0.906308  255 255 255 255
-4.46125 -39.974 -3.42738 0 -0.422618 -0.906308  255 255 255 255
-21.0644 -19.0641 -13.1778 0 -0.422618 -0.906308  255 255 255 255
-5.80038 -17.5143 -13.9005 0 -0.422618 -0.906308  255 255 255 255
-13.8453 -24.6957 -10.5518 0 -0.422618 -0.906308  255 255 255 255
3.92552 -21.0122 -12.2694 0 -0.422618 -0.906308  255 255 255 255
3.68134 -8.70604 -18.0079 0 -0.422618 -0.906308  255 255 255 255
5.65787 24.571 -33.5252 0 -0.422618 -0.906308  255 255 255 255
-39.9296 -2.94457 -20.6945 0 -0.422618 -0.906308  255 255 255 255
39.9296 -2.94457 -20.6945 0 -0.422618 -0.906308  255 255 255 255
-5.68109 18.031 -30.4756 0 -0.422618 -0.906308  255 255 255 255
5.66241 18.0386 -30.4791 0 -0.422618 -0.906308  255 255 255 255
-0.013497 -22.5233 -11.5648 0 -0.422618 -0.906308  255 255 255 255
6.54893 -30.6037 -7.79682 0 -0.422618 -0.906308  255 255 255 255
-6.09027 1.84286 -22.9269 0 -0.422618 -0.906308  255 255 255 255
9.45057 -20.8417 -12.3489 0 -0.422618 -0.906308  255 255 255 255
-42.5205 -14.1592 -15.465 0 -0.422618 -0.906308  255 255 255 255
42.5205 -14.1592 -15.465 0 -0.422618 -0.906308  255 255 255 255
-9.22191 -32.338 -6.9881 0 -0.422618 -0.906308  255 255 255 255
-37.8428 -10.496 -17.1732 0 -0.422618 -0.906308  255 255 255 255
37.8428 -10.496 -17.1732 0 -0.422618 -0.906308  255 255 255 255
16.0515 -13.9179 -15.5775 0 -0.422618 -0.906308  255 255 255 255
7.09693 -27.9575 -9.03077 0 -0.422618 -0.906308  255 255 255 255
-42.414 -11.8047 -16.5629 0 -0.422618 -0.906308  255 255 255 255
42.414 -11.8047 -16.5629 0 -0.422618 -0.906308  255 255 255 255
2.82309 -21.8429 -11.8821 0 -0.422618 -0.906308  255 255 255 255
4.22642 -40.6817 -3.09736 0 -0.422618 -0.906308  255 255 255 255
2.51826 -15.4035 -14.8848 0 -0.422618 -0.906308  255 255 255 255
-0.973678 -47.0166 -0.143376 0 -0.422618 -0.906308  255 255 255 255
14.0796 -3.87508 -20.2606 0 -0.422618 -0.906308  255 255 255 255
11.5491 7.14931 -25.4013 0 -0.422618 -0.906308  255 255 255 255
6.34924 -19.2711 -13.0813 0 -0.422618 -0.906308  255 255 255 255
-16.3916 -16.1187 -14.5513 0 -0.422618 -0.906308  255 255 255 255
-2.78963 0.005638 -22.0702 0 -0.422618 -0.906308  255 255 255 255
-9.6484 -11.5445 -16.6843 0 -0.422618 -0.906308  255 255 255 255
-18.0481 -18.116 -13.6199 0 -0.422618 -0.906308  255 255 255 255
-29.2208 -3.201 -20.5749 0 -0.422618 -0.906308  255 255 255 255
29.2208 -3.201 -20.5749 0 -0.422618 -0.906308  255 255 255 255
-20.2505 -21.3524 -12.1108 0 -0.422618 -0.906308  255 255 255 255
-7.61596 -24.4588 -10.6623 0 -0.422618 -0.906308  255 255 255 255
-15.4107 -13.4162 -15.8115 0 -0.422618 -0.906308  255 255 255 255
-15.8394 -19.8362 -12.8178 0 -0.422618 -0.906308  255 255 255 255
1.71892 9.67331 -26.5783 0 -0.422618 -0.906308  255 255 255 255
18.6185 0.914747 -22.4941 0 -0.422618 -0.906308  255 255 255 255
-18.6319 0.886093 -22.4807 0 -0.422618 -0.906308  255 255 255 255
-12.902 -34.9677 -5.76185 0 -0.422618 -0.906308  255 255 255 255
-18.3025 6.08649 -24.9057 0 -0.422618 -0.906308  255 255 255 255
18.3024 6.08586 -24.9054 0 -0.422618 -0.906308  255 255 255 255
-8.57285 -27.0765 -9.44158 0 -0.422618 -0.906308  255 255 255 255
-7.13887 -26.6169 -9.65589 0 -0.422618 -0.906308  255 255 255 255
7.54757 -26.4829 -9.71839 0 -0.422618 -0.906308  255 255 255 255
33.0032 -12.175 -16.3903 0 -0.422618 -0.906308  255 255 255 255
-33.0032 -12.175 -16.3903 0 -0.422618 -0.906308  255 255 255 255
-21.5068 -16.6685 -14.2949 0 -0.422618 -0.906308  255 255 255 255
7.15934 -48.3199 0.464387 0 -0.422618 -0.906308  255 255 255 255
20.7059 -23.8926 -10.9263 0 -0.422618 -0.906308  255 255 255 255
15.7134 -42.2727 -2.35547 0 -0.422618 -0.906308  255 255 255 255
-2.73962 -1.39259 -21.4182 0 -0.422618 -0.906308  255 255 255 255
-6.74832 8.80995 -26.1757 0 -0.422618 -0.906308  255 255 255 255
-32.9677 -5.09547 -19.6915 0 -0.422618 -0.906308  255 255 255 255
32.9677 -5.09547 -19.6915 0 -0.422618 -0.906308  255 255 255 255
2.88549 -44.959 -1.10283 0 -0.422618 -0.906308  255 255 255 255
-13.1676 -20.0098 -12.7368 0 -0.422618 -0.906308  255 255 255 255
-31.9342 -15.7702 -14.7138 0 -0.422618 -0.906308  255 255 255 255
31.9342 -15.7702 -14.7138 0 -0.422618 -0.906308  255 255 255 255
9.67319 -1.59395 -21.3243 0 -0.422618 -0.906308  255 255 255 255
13.7876 -25.5072 -10.1733 0 -0.422618 -0.906308  255 255 255 255
14.6559 -30.7348 -7.73567 0 -0.422618 -0.906308  255 255 255 255
-15.6378 -33.7125 -6.34718 0 -0.422618 -0.906308  255 255 255 255
-0.758026 14.242 -28.7087 0 -0.422618 -0.906308  255 255 255 255
11.6739 -33.0106 -6.67447 0 -0.422618 -0.906308  255 255 255 255
7.65371 1.99699 -22.9988 0 -0.422618 -0.906308  255 255 255 255
-10.594 -28.8518 -8.61374 0 -0.422618 -0.906308  255 255 255 255
3.96156 -37.0016 -4.81341 0 -0.422618 -0.906308  255 255 255 255
0.335546 -13.1986 -15.9129 0 -0.422618 -0.906308  255 255 255 255
-15.1264 -8.00939 -18.3327 0 -0.422618 -0.906308  255 255 255 255
23.2537 2.18608 -23.0869 0 -0.422618 -0.906308  255 255 255 255
-23.2537 2.18608 -23.0869 0 -0.422618 -0.906308  255 255 255 255
18.0907 -0.623297 -21.7769 0 -0.422618 -0.906308  255 255 255 255
-18.0381 -0.757476 -21.7143 0 -0.422618 -0.906308  255 255 255 255
-10.5128 -7.77032 -18.4442 0 -0.422618 -0.906308  255 255 255 255
8.74153 -43.5952 -1.73881 0 -0.422618 -0.906308  255 255 255 255
16.524 -4.78687 -19.8354 0 -0.422618 -0.906308  255 255 255 255
16.5526 1.66957 -22.8461 0 -0.422618 -0.906308  255 255 255 255
-16.6832 1.7244 -22.8717 0 -0.422618 -0.906308  255 255 255 255
6.9142 -31.921 -7.18253 0 -0.422618 -0.906308  255 255 255 255
11.0496 -13.6269 -15.7132 0 -0.422618 -0.906308  255 255 255 255
-1.91865 13.2321 -28.2378 0 -0.422618 -0.906308  255 255 255 255
6.19657 -12.6589 -16.1646 0 -0.422618 -0.906308  255 255 255 255
-2.92625 -48.796 0.686386 0 -0.422618 -0.906308  255 255 255 255
9.42149 -14.5409 -15.287 0 -0.422618 -0.906308  255 255 255 255
