ply
format ascii 1.0
comment VCGLIB generated
element vertex 843
property float x
property float y
property float z
property float nx
property float ny
property float nz
property uchar red
property uchar green
property uchar blue
property uchar alpha
element face 0
property list uchar int vertex_indices
end_header
2.04259 -10.3754 4.0772 0 0.680802 0.732467  255 255 255 255
-2.03502 -10.3785 4.08006 0 0.681004 0.73228  255 255 255 255
2.92133 -0.399869 0.005247 0 0.026238 0.999656  255 255 255 255
-2.91973 -0.399008 0.005224 0 0.026182 0.999657  255 255 255 255
2.91831 -10.4926 4.18728 0 0.688492 0.725244  255 255 255 255
-2.91667 -10.4932 4.18786 0 0.688532 0.725206  255 255 255 255
2.37242 -8.3489 2.49036 0 0.547828 0.836591  255 255 255 255
2.16244 -3.31958 0.36593 0 0.21782 0.975989  255 255 255 255
-2.36208 -8.35131 2.49193 0 0.547986 0.836487  255 255 255 255
-2.15118 -3.31657 0.365258 0 0.217623 0.976033  255 255 255 255
2.73261 -6.7459 1.57433 0 0.442644 0.896697  255 255 255 255
-2.72962 -6.74619 1.57448 0 0.442663 0.896688  255 255 255 255
2.58066 -6.22602 1.32978 0 0.408531 0.912744  255 255 255 255
2.45016 -5.78537 1.14081 0 0.379618 0.925144  255 255 255 255
2.50875 -4.98431 0.838118 0 0.327055 0.945005  255 255 255 255
-2.57782 -6.22612 1.32982 0 0.408538 0.912741  255 255 255 255
-2.44714 -5.78531 1.14079 0 0.379613 0.925145  255 255 255 255
-2.50503 -4.98386 0.837962 0 0.327025 0.945016  255 255 255 255
2.45843 -7.53874 1.99519 0 0.494668 0.869082  255 255 255 255
-2.45255 -7.53969 1.99573 0 0.49473 0.869047  255 255 255 255
1.26987 -7.97107 2.25079 0 0.523036 0.852311  255 255 255 255
-1.25582 -7.97284 2.25187 0 0.523152 0.852239  255 255 255 255
2.22207 -3.88722 0.504089 0 0.255067 0.966923  255 255 255 255
-2.21394 -3.88549 0.503631 0 0.254953 0.966953  255 255 255 255
2.3413 -4.42829 0.65755 0 0.29057 0.956854  255 255 255 255
-2.33567 -4.42734 0.65726 0 0.290508 0.956873  255 255 255 255
2.64422 -8.53021 2.61094 0 0.559725 0.828678  255 255 255 255
2.70618 -3.18934 0.33746 0 0.209274 0.977857  255 255 255 255
-2.63506 -8.53262 2.61257 0 0.559883 0.828572  255 255 255 255
-2.69813 -3.18684 0.336925 0 0.20911 0.977892  255 255 255 255
2.99466 -7.27144 1.84658 0 0.477129 0.878833  255 255 255 255
-2.9916 -7.27191 1.84683 0 0.477159 0.878817  255 255 255 255
2.64134 -5.44794 1.00703 0 0.357477 0.933922  255 255 255 255
-2.6385 -5.44775 1.00695 0 0.357464 0.933927  255 255 255 255
2.74166 -4.11827 0.566981 0 0.270227 0.962797  255 255 255 255
-2.73667 -4.11719 0.56668 0 0.270157 0.962816  255 255 255 255
1.05316 -4.10712 0.563858 0 0.269496 0.963001  255 255 255 255
-1.0423 -4.10593 0.563523 0 0.269418 0.963023  255 255 255 255
0.918425 -6.6652 1.53479 0 0.437349 0.899292  255 255 255 255
-0.91211 -6.66547 1.53492 0 0.437367 0.899283  255 255 255 255
0.864947 -6.02374 1.241 0 0.395259 0.91857  255 255 255 255
-0.859844 -6.02378 1.24101 0 0.395261 0.918569  255 255 255 255
0.861254 -5.38078 0.9815 0 0.353069 0.935597  255 255 255 255
-0.855712 -5.38061 0.981435 0 0.353058 0.935601  255 255 255 255
1.06499 -3.64228 0.441642 0 0.238995 0.971021  255 255 255 255
-1.05033 -3.64026 0.441144 0 0.238862 0.971054  255 255 255 255
3.00127 -7.82211 2.16054 0 0.513262 0.858232  255 255 255 255
-2.99699 -7.82298 2.16106 0 0.513319 0.858198  255 255 255 255
2.6619 -8.10356 2.33303 0 0.53173 0.846914  255 255 255 255
-2.65472 -8.10514 2.33402 0 0.531833 0.846849  255 255 255 255
0.569502 -7.7767 2.1335 0 0.510282 0.860007  255 255 255 255
-0.55532 -7.77747 2.13395 0 0.510333 0.859977  255 255 255 255
0.533135 -4.43946 0.660947 0 0.291303 0.956631  255 255 255 255
-0.523531 -4.43899 0.660804 0 0.291272 0.95664  255 255 255 255
0.665117 -6.34589 1.38405 0 0.416397 0.909183  255 255 255 255
-0.659382 -6.346 1.3841 0 0.416404 0.90918  255 255 255 255
0.645277 -5.70275 1.10719 0 0.374196 0.927349  255 255 255 255
-0.639957 -5.7027 1.10717 0 0.374193 0.927351  255 255 255 255
0.657091 -4.96936 0.832951 0 0.326073 0.945344  255 255 255 255
-0.650145 -4.96908 0.832853 0 0.326055 0.945351  255 255 255 255
0.722183 -7.01806 1.71209 0 0.460503 0.887658  255 255 255 255
-0.714097 -7.01843 1.71228 0 0.460527 0.887646  255 255 255 255
0.620723 -8.28672 2.44985 0 0.543748 0.839249  255 255 255 255
-0.600056 -8.28829 2.45087 0 0.543851 0.839182  255 255 255 255
0.576238 -3.31892 0.365782 0 0.217777 0.975999  255 255 255 255
-0.556271 -3.31715 0.365387 0 0.217661 0.976024  255 255 255 255
1.05524 -0.720061 0.01702 0 0.047248 0.998883  255 255 255 255
-1.01878 -0.69402 0.015811 0 0.045539 0.998963  255 255 255 255
1.04649 -10.2733 3.98318 0 0.674104 0.738637  255 255 255 255
-1.00995 -10.2918 4.0001 0 0.675318 0.737526  255 255 255 255
0.090247 -0.510219 0.008543 0 0.033479 0.999439  255 255 255 255
0.090436 -10.4247 4.12316 0 0.684033 0.729451  255 255 255 255
0.587687 -8.79647 2.79493 0 0.577196 0.816605  255 255 255 255
-0.557034 -8.79959 2.79714 0 0.577401 0.816461  255 255 255 255
0.590646 -2.72548 0.245689 0 0.178837 0.983879  255 255 255 255
-0.561351 -2.72179 0.245018 0 0.178595 0.983923  255 255 255 255
1.69594 -9.09169 3.00895 0 0.596568 0.802563  255 255 255 255
1.728 -2.27381 0.170581 0 0.1492 0.988807  255 255 255 255
-1.70576 -2.26559 0.169342 0 0.148661 0.988888  255 255 255 255
-1.67326 -9.09801 3.01364 0 0.596982 0.802254  255 255 255 255
3.37556 -8.7083 2.73308 0 0.571411 0.820664  255 255 255 255
3.44927 -2.67265 0.236182 0 0.17537 0.984503  255 255 255 255
-3.37202 -8.70938 2.73383 0 0.571482 0.820615  255 255 255 255
-3.4463 -2.67147 0.235972 0 0.175293 0.984516  255 255 255 255
0.536351 -9.72862 3.5092 0 0.638361 0.769737  255 255 255 255
0.547841 -1.48124 0.072155 0 0.097194 0.995265  255 255 255 255
-0.481066 -1.45691 0.069799 0 0.095598 0.99542  255 255 255 255
-0.469044 -9.74673 3.52425 0 0.639549 0.76875  255 255 255 255
1.04345 -9.04912 2.97742 0 0.593774 0.804632  255 255 255 255
1.1218 -2.43831 0.196322 0 0.159994 0.987118  255 255 255 255
-1.09252 -2.43052 0.195062 0 0.159483 0.987201  255 255 255 255
-1.01162 -9.0556 2.9822 0 0.594199 0.804318  255 255 255 255
1.8108 -8.22631 2.41092 0 0.539784 0.841803  255 255 255 255
-1.79732 -8.22882 2.41252 0 0.539949 0.841698  255 255 255 255
3.23713 -3.37146 0.377603 0 0.221225 0.975223  255 255 255 255
-3.23321 -3.37025 0.377328 0 0.221145 0.975241  255 255 255 255
0.932203 -9.9137 3.66519 0 0.650505 0.759502  255 255 255 255
0.946905 -1.22233 0.049098 0 0.080206 0.996778  255 255 255 255
-0.891243 -1.18823 0.046393 0 0.077968 0.996956  255 255 255 255
-0.876243 -9.93867 3.68663 0 0.652144 0.758095  255 255 255 255
1.89476 -8.59904 2.6577 0 0.564241 0.82561  255 255 255 255
1.76756 -2.88865 0.276268 0 0.189544 0.981872  255 255 255 255
-1.87863 -8.60275 2.66024 0 0.564485 0.825443  255 255 255 255
-1.75043 -2.88375 0.275323 0 0.189223 0.981934  255 255 255 255
0.030093 -9.50966 3.33101 0 0.623993 0.78143  255 255 255 255
0.029672 -1.78175 0.104513 0 0.116913 0.993142  255 255 255 255
1.14234 -0.339958 0.003792 0 0.022307 0.999751  255 255 255 255
-1.1296 -0.331187 0.003599 0 0.021731 0.999764  255 255 255 255
1.13792 -10.5408 4.23324 0 0.691655 0.722228  255 255 255 255
-1.12512 -10.5469 4.23909 0 0.692055 0.721845  255 255 255 255
-0.2482 -0.317171 0.003301 0 0.020812 0.999783  255 255 255 255
-0.246808 -10.5589 4.25058 0 0.692841 0.721091  255 255 255 255
2.79998 -3.65988 0.445985 0 0.24015 0.970736  255 255 255 255
-2.79395 -3.6583 0.445595 0 0.240046 0.970761  255 255 255 255
3.00543 -8.30797 2.46365 0 0.545142 0.838343  255 255 255 255
-2.99978 -8.30939 2.46457 0 0.545235 0.838283  255 255 255 255
3.08943 -4.5846 0.705935 0 0.300827 0.953679  255 255 255 255
-3.08674 -4.58413 0.705786 0 0.300796 0.953689  255 255 255 255
3.22406 -6.41745 1.41705 0 0.421093 0.907018  255 255 255 255
-3.22258 -6.41754 1.41709 0 0.421099 0.907015  255 255 255 255
3.09654 -5.82566 1.15741 0 0.382261 0.924054  255 255 255 255
-3.09484 -5.82562 1.1574 0 0.382259 0.924055  255 255 255 255
3.15934 -5.22403 0.923329 0 0.342784 0.939414  255 255 255 255
-3.15752 -5.22384 0.923259 0 0.342772 0.939419  255 255 255 255
3.31427 -6.8784 1.64054 0 0.451339 0.892353  255 255 255 255
-3.31276 -6.87857 1.64063 0 0.45135 0.892347  255 255 255 255
0.468892 -7.36013 1.89511 0 0.482948 0.875649  255 255 255 255
-0.458244 -7.36053 1.89533 0 0.482974 0.875635  255 255 255 255
1.69957 -3.21874 0.343782 0 0.211204 0.977442  255 255 255 255
-1.68439 -3.21513 0.343003 0 0.210967 0.977493  255 255 255 255
0.299486 -4.76989 0.765687 0 0.312985 0.949758  255 255 255 255
-0.291489 -4.7697 0.765626 0 0.312973 0.949762  255 255 255 255
0.462596 -6.6784 1.54122 0 0.438215 0.89887  255 255 255 255
-0.455667 -6.67855 1.54129 0 0.438225 0.898865  255 255 255 255
0.436229 -6.02642 1.24215 0 0.395435 0.918494  255 255 255 255
-0.430676 -6.02644 1.24216 0 0.395436 0.918494  255 255 255 255
0.433959 -5.36506 0.975578 0 0.352038 0.935986  255 255 255 255
-0.427928 -5.36496 0.975541 0 0.352032 0.935988  255 255 255 255
1.35091 -3.88566 0.503676 0 0.254965 0.96695  255 255 255 255
-1.3392 -3.8839 0.503211 0 0.254849 0.966981  255 255 255 255
1.78372 -7.92193 2.22076 0 0.519812 0.854281  255 255 255 255
-1.77254 -7.9237 2.22183 0 0.519928 0.85421  255 255 255 255
0.540355 -3.87364 0.500511 0 0.254176 0.967158  255 255 255 255
-0.526303 -3.87273 0.500273 0 0.254116 0.967174  255 255 255 255
1.57142 -1.7426 0.099956 0 0.114344 0.993441  255 255 255 255
-1.54393 -1.73011 0.098524 0 0.113524 0.993535  255 255 255 255
1.54511 -9.51502 3.3353 0 0.624345 0.781149  255 255 255 255
-1.51709 -9.52448 3.34286 0 0.624966 0.780652  255 255 255 255
3.25445 -4.0266 0.541561 0 0.264212 0.964465  255 255 255 255
-3.25165 -4.02593 0.541379 0 0.264169 0.964476  255 255 255 255
1.46427 -2.66657 0.235101 0 0.174972 0.984573  255 255 255 255
-1.44217 -2.66034 0.233995 0 0.174563 0.984646  255 255 255 255
3.48046 -9.20683 3.09538 0 0.604123 0.796891  255 255 255 255
3.49639 -2.09107 0.144139 0 0.13721 0.990542  255 255 255 255
-3.4779 -9.20771 3.09604 0 0.60418 0.796848  255 255 255 255
-3.49399 -2.08998 0.143988 0 0.137138 0.990552  255 255 255 255
1.80781 -1.1515 0.043565 0 0.075558 0.997141  255 255 255 255
-1.78923 -1.14129 0.042795 0 0.074888 0.997192  255 255 255 255
1.79071 -9.95467 3.70041 0 0.653194 0.757191  255 255 255 255
-1.77184 -9.96216 3.70688 0 0.653685 0.756767  255 255 255 255
1.04218 -7.44216 1.94068 0 0.488331 0.872659  255 255 255 255
-1.03181 -7.443 1.94115 0 0.488386 0.872628  255 255 255 255
3.40398 -7.53865 1.99514 0 0.494662 0.869085  255 255 255 255
-3.40215 -7.53899 1.99533 0 0.494684 0.869073  255 255 255 255
-3.2722 -3.69938 0.455814 0 0.242742 0.970091  255 255 255 255
-3.2633 -8.52059 2.60445 0 0.559094 0.829104  255 255 255 255
3.27539 -3.70025 0.45603 0 0.242798 0.970077  255 255 255 255
3.26752 -8.5194 2.60365 0 0.559016 0.829157  255 255 255 255
-3.40419 -8.06882 2.31128 0 0.52945 0.848341  255 255 255 255
3.40668 -8.06825 2.31093 0 0.529413 0.848364  255 255 255 255
-2.23132 -11.216 4.02403 0 -0.707107 0.707107  255 255 255 255
-0.9525 -11.2253 4.01468 0 -0.707107 0.707107  255 255 255 255
0.326319 -11.216 4.02403 0 -0.707107 0.707107  255 255 255 255
2.23573 -11.2362 4.00377 0 -0.707107 0.707107  255 255 255 255
-2.92286 -11.2161 4.02392 0 -0.707107 0.707107  255 255 255 255
0.95838 -11.2347 4.00532 0 -0.707107 0.707107  255 255 255 255
2.92349 -11.2348 4.00521 0 -0.707107 0.707107  255 255 255 255
-0.31603 -11.2238 4.01624 0 -0.707107 0.707107  255 255 255 255
-1.58897 -11.2238 4.01624 0 -0.707107 0.707107  255 255 255 255
1.59069 -11.2287 4.0113 0 -0.707107 0.707107  255 255 255 255
-3.37871 -11.3588 3.88124 0 -0.707107 0.707107  255 255 255 255
3.37874 -11.0919 4.14811 0 -0.707107 0.707107  255 255 255 255
-3.4287 -11.0551 4.1849 0 -0.707107 0.707107  255 255 255 255
3.42877 -11.3956 3.84444 0 -0.707107 0.707107  255 255 255 255
-7.2e-05 -8.7859 1.26187 0 -0.532156 -0.846646  255 255 255 255
-6.3e-05 -7.8659 0.724227 0 -0.476433 -0.879211  255 255 255 255
-7.5e-05 -3.53061 -0.888079 0 -0.213846 -0.976867  255 255 255 255
-7.1e-05 -9.84404 1.98576 0 -0.596247 -0.802801  255 255 255 255
-6.7e-05 -8.32246 0.981081 0 -0.504086 -0.863654  255 255 255 255
-5.8e-05 -7.32095 0.441902 0 -0.443426 -0.896311  255 255 255 255
-5.5e-05 -6.7106 0.155307 0 -0.406457 -0.91367  255 255 255 255
-5.6e-05 -6.09305 -0.104538 0 -0.369052 -0.929409  255 255 255 255
-5.8e-05 -5.45809 -0.341699 0 -0.330593 -0.943773  255 255 255 255
-6.3e-05 -4.8063 -0.554922 0 -0.291115 -0.956688  255 255 255 255
-6.9e-05 -4.15369 -0.738953 0 -0.251586 -0.967835  255 255 255 255
-7.6e-05 -2.34901 -1.10204 0 -0.142278 -0.989827  255 255 255 255
1.72916 -9.92672 2.04756 0 -0.601255 -0.799057  255 255 255 255
-1.72925 -9.92671 2.04756 0 -0.601255 -0.799058  255 255 255 255
1.67079 -10.5627 2.55105 0 -0.639776 -0.768562  255 255 255 255
1.62772 -1.49721 -1.20197 0 -0.090685 -0.99588  255 255 255 255
-1.67087 -10.5627 2.55105 0 -0.639776 -0.768562  255 255 255 255
-1.6278 -1.49719 -1.20197 0 -0.090684 -0.99588  255 255 255 255
2.22756 -10.3334 2.36361 0 -0.625886 -0.779915  255 255 255 255
2.2103 -1.81407 -1.17004 0 -0.109877 -0.993945  255 255 255 255
-2.22762 -10.3334 2.36361 0 -0.625886 -0.779915  255 255 255 255
-2.21037 -1.81405 -1.17004 0 -0.109876 -0.993945  255 255 255 255
2.17533 -10.7389 2.69981 0 -0.650448 -0.759551  255 255 255 255
2.15746 -1.27498 -1.2207 0 -0.077225 -0.997014  255 255 255 255
-2.17538 -10.7389 2.69981 0 -0.650447 -0.759551  255 255 255 255
-2.15751 -1.27496 -1.2207 0 -0.077224 -0.997014  255 255 255 255
2.7028 -10.4689 2.47352 0 -0.634093 -0.773257  255 255 255 255
2.69272 -1.62862 -1.18948 0 -0.098645 -0.995123  255 255 255 255
-2.70284 -10.4689 2.47352 0 -0.634092 -0.773257  255 255 255 255
-2.69276 -1.62861 -1.18948 0 -0.098644 -0.995123  255 255 255 255
2.67628 -10.8859 2.82722 0 -0.659353 -0.751834  255 255 255 255
2.66811 -1.08066 -1.23459 0 -0.065455 -0.997856  255 255 255 255
-2.67631 -10.8859 2.82722 0 -0.659353 -0.751834  255 255 255 255
-2.66814 -1.08065 -1.23459 0 -0.065454 -0.997856  255 255 255 255
3.22292 -11.0271 2.95245 0 -0.667902 -0.744249  255 255 255 255
3.21994 -0.89171 -1.2459 0 -0.05401 -0.99854  255 255 255 255
-3.22293 -11.0271 2.95245 0 -0.667902 -0.744249  255 255 255 255
-3.21995 -0.891707 -1.2459 0 -0.05401 -0.99854  255 255 255 255
3.19433 -11.4311 3.32741 0 -0.692375 -0.721538  255 255 255 255
3.19323 -0.340545 -1.26649 0 -0.020627 -0.999787  255 255 255 255
-3.19433 -11.4311 3.32741 0 -0.692375 -0.721538  255 255 255 255
-3.19323 -0.340544 -1.26649 0 -0.020627 -0.999787  255 255 255 255
1.08714 -9.32908 1.61838 0 -0.565056 -0.825052  255 255 255 255
1.254 -2.91943 -1.00983 0 -0.176828 -0.984242  255 255 255 255
-1.08727 -9.32908 1.61838 0 -0.565056 -0.825052  255 255 255 255
-1.25413 -2.9194 -1.00984 0 -0.176826 -0.984242  255 255 255 255
2.48276 -8.62137 1.1598 0 -0.522191 -0.852829  255 255 255 255
1.82265 -8.31369 0.975964 0 -0.503555 -0.863963  255 255 255 255
2.24507 -7.78124 0.678665 0 -0.471304 -0.881971  255 255 255 255
1.49987 -7.75534 0.664855 0 -0.469736 -0.882807  255 255 255 255
1.93453 -7.24959 0.406808 0 -0.439103 -0.898437  255 255 255 255
1.40014 -6.96859 0.272742 0 -0.422083 -0.906557  255 255 255 255
1.86102 -6.6074 0.109818 0 -0.400206 -0.916425  255 255 255 255
1.31036 -6.19657 -0.063028 0 -0.375322 -0.926894  255 255 255 255
1.9454 -5.98779 -0.145916 0 -0.362677 -0.931915  255 255 255 255
1.42882 -5.74454 -0.238384 0 -0.347943 -0.937516  255 255 255 255
1.90269 -5.3622 -0.374957 0 -0.324785 -0.945788  255 255 255 255
2.08402 -4.68052 -0.59265 0 -0.283496 -0.958973  255 255 255 255
1.46136 -4.41902 -0.667621 0 -0.267657 -0.963514  255 255 255 255
1.87239 -4.02417 -0.772064 0 -0.243741 -0.96984  255 255 255 255
1.7427 -3.42971 -0.909835 0 -0.207735 -0.978185  255 255 255 255
-2.48283 -8.62136 1.15979 0 -0.52219 -0.852829  255 255 255 255
-1.82274 -8.31368 0.975962 0 -0.503554 -0.863964  255 255 255 255
-2.24515 -7.78123 0.678664 0 -0.471304 -0.881971  255 255 255 255
-1.49997 -7.75533 0.664854 0 -0.469736 -0.882807  255 255 255 255
-1.93461 -7.24959 0.406808 0 -0.439103 -0.898437  255 255 255 255
-1.40023 -6.96859 0.272742 0 -0.422083 -0.906557  255 255 255 255
-1.8611 -6.6074 0.109818 0 -0.400206 -0.916425  255 255 255 255
-1.31046 -6.19657 -0.063028 0 -0.375322 -0.926894  255 255 255 255
-1.94548 -5.98779 -0.145917 0 -0.362677 -0.931915  255 255 255 255
-1.42891 -5.74454 -0.238384 0 -0.347943 -0.937516  255 255 255 255
-1.90278 -5.3622 -0.374958 0 -0.324785 -0.945788  255 255 255 255
-2.08411 -4.68052 -0.592651 0 -0.283496 -0.958973  255 255 255 255
-1.46147 -4.41901 -0.667622 0 -0.267657 -0.963514  255 255 255 255
-1.87249 -4.02416 -0.772066 0 -0.243741 -0.96984  255 255 255 255
-1.74281 -3.4297 -0.909838 0 -0.207735 -0.978185  255 255 255 255
0.745216 -10.5878 2.57203 0 -0.641299 -0.767291  255 255 255 255
-0.745311 -10.5879 2.57203 0 -0.6413 -0.767291  255 255 255 255
0.722203 -1.4234 -1.20853 0 -0.086214 -0.996277  255 255 255 255
-0.722306 -1.42334 -1.20853 0 -0.086211 -0.996277  255 255 255 255
-4.6e-05 -10.6796 2.6493 0 -0.646858 -0.76261  255 255 255 255
-5e-05 -1.31073 -1.21789 0 -0.07939 -0.996844  255 255 255 255
2.56196 -9.50272 1.73895 0 -0.575574 -0.81775  255 255 255 255
2.47656 -2.76879 -1.03618 0 -0.167704 -0.985837  255 255 255 255
-2.56203 -9.50272 1.73895 0 -0.575573 -0.81775  255 255 255 255
-2.47664 -2.76877 -1.03618 0 -0.167703 -0.985838  255 255 255 255
0.750785 -11.1229 3.03912 0 -0.673706 -0.738999  255 255 255 255
-0.750835 -11.1229 3.03912 0 -0.673706 -0.738999  255 255 255 255
0.738912 -0.742386 -1.2533 0 -0.044966 -0.998989  255 255 255 255
-0.738967 -0.742366 -1.2533 0 -0.044965 -0.998989  255 255 255 255
0.785847 -10.0157 2.11496 0 -0.606642 -0.794975  255 255 255 255
-0.785972 -10.0157 2.11497 0 -0.606643 -0.794975  255 255 255 255
0.788876 -2.12344 -1.13288 0 -0.128615 -0.991695  255 255 255 255
-0.789011 -2.12337 -1.13289 0 -0.128611 -0.991695  255 255 255 255
3.23883 -10.5812 2.56647 0 -0.640896 -0.767628  255 255 255 255
3.23384 -1.4807 -1.20347 0 -0.089685 -0.99597  255 255 255 255
-3.23885 -10.5812 2.56647 0 -0.640896 -0.767628  255 255 255 255
-3.23386 -1.48069 -1.20347 0 -0.089684 -0.99597  255 255 255 255
3.21096 -10.1405 2.21115 0 -0.614202 -0.789149  255 255 255 255
3.20229 -2.04401 -1.14298 0 -0.123804 -0.992307  255 255 255 255
-3.21099 -10.1405 2.21115 0 -0.614202 -0.789149  255 255 255 255
-3.20232 -2.044 -1.14298 0 -0.123804 -0.992307  255 255 255 255
2.68771 -10.1174 2.19325 0 -0.612807 -0.790233  255 255 255 255
2.68421 -2.07357 -1.13927 0 -0.125595 -0.992082  255 255 255 255
-2.68776 -10.1174 2.19325 0 -0.612806 -0.790233  255 255 255 255
-2.68426 -2.07355 -1.13927 0 -0.125594 -0.992082  255 255 255 255
-7.2e-05 -9.3236 1.61464 0 -0.564724 -0.825279  255 255 255 255
-7.6e-05 -2.92811 -1.00827 0 -0.177353 -0.984147  255 255 255 255
2.10967 -11.1661 3.07865 0 -0.676323 -0.736605  255 255 255 255
-2.10969 -11.1661 3.07865 0 -0.676323 -0.736605  255 255 255 255
2.10022 -0.702574 -1.25504 0 -0.042554 -0.999094  255 255 255 255
-2.10025 -0.702566 -1.25505 0 -0.042554 -0.999094  255 255 255 255
2.60803 -11.3135 3.21562 0 -0.685249 -0.728309  255 255 255 255
-2.60804 -11.3135 3.21562 0 -0.685249 -0.728309  255 255 255 255
2.60441 -0.502744 -1.26234 0 -0.030451 -0.999536  255 255 255 255
-2.60443 -0.502741 -1.26234 0 -0.030451 -0.999536  255 255 255 255
1.66473 -10.9984 2.9268 0 -0.666167 -0.745803  255 255 255 255
-1.66478 -10.9984 2.92679 0 -0.666167 -0.745803  255 255 255 255
1.6456 -0.923155 -1.24417 0 -0.055915 -0.998436  255 255 255 255
-1.64565 -0.923138 -1.24417 0 -0.055914 -0.998436  255 255 255 255
2.49432 -9.11017 1.47102 0 -0.551797 -0.833978  255 255 255 255
2.21217 -3.11836 -0.972833 0 -0.188877 -0.982001  255 255 255 255
-2.4944 -9.11016 1.47101 0 -0.551797 -0.833979  255 255 255 255
-2.21226 -3.11834 -0.972836 0 -0.188876 -0.982001  255 255 255 255
2.61686 -7.39063 0.476576 0 -0.447646 -0.894211  255 255 255 255
-2.61692 -7.39063 0.476575 0 -0.447646 -0.894211  255 255 255 255
2.65988 -6.8924 0.237503 0 -0.417468 -0.908691  255 255 255 255
2.57909 -6.29537 -0.022649 0 -0.381306 -0.924449  255 255 255 255
2.59044 -5.70368 -0.253486 0 -0.345468 -0.93843  255 255 255 255
2.69038 -5.09875 -0.462957 0 -0.308828 -0.951118  255 255 255 255
-2.65993 -6.8924 0.237503 0 -0.417468 -0.908692  255 255 255 255
-2.57914 -6.29536 -0.02265 0 -0.381306 -0.924449  255 255 255 255
-2.5905 -5.70368 -0.253487 0 -0.345468 -0.93843  255 255 255 255
-2.69044 -5.09875 -0.462957 0 -0.308828 -0.951118  255 255 255 255
2.54625 -8.17357 0.895216 0 -0.495068 -0.868854  255 255 255 255
-2.54631 -8.17357 0.895214 0 -0.495068 -0.868854  255 255 255 255
1.13881 -8.71845 1.2197 0 -0.528071 -0.8492  255 255 255 255
-1.13893 -8.71844 1.2197 0 -0.528071 -0.849201  255 255 255 255
2.42764 -3.63083 -0.865811 0 -0.219917 -0.975519  255 255 255 255
-2.42772 -3.63082 -0.865813 0 -0.219917 -0.975519  255 255 255 255
2.6582 -4.24591 -0.714697 0 -0.257172 -0.966366  255 255 255 255
-2.65826 -4.2459 -0.714698 0 -0.257172 -0.966366  255 255 255 255
3.05043 -7.78755 0.682038 0 -0.471687 -0.881766  255 255 255 255
-3.05046 -7.78754 0.682038 0 -0.471686 -0.881766  255 255 255 255
3.19445 -7.23155 0.398007 0 -0.43801 -0.89897  255 255 255 255
3.21375 -6.55628 0.087597 0 -0.39711 -0.917771  255 255 255 255
3.20405 -6.00918 -0.137574 0 -0.363972 -0.93141  255 255 255 255
3.22104 -5.45467 -0.342898 0 -0.330386 -0.943846  255 255 255 255
3.16397 -4.70357 -0.58582 0 -0.284892 -0.95856  255 255 255 255
-3.19447 -7.23155 0.398006 0 -0.43801 -0.89897  255 255 255 255
-3.21378 -6.55628 0.087597 0 -0.39711 -0.917771  255 255 255 255
-3.20408 -6.00918 -0.137575 0 -0.363972 -0.93141  255 255 255 255
-3.22107 -5.45467 -0.342898 0 -0.330386 -0.943846  255 255 255 255
-3.16401 -4.70356 -0.585821 0 -0.284892 -0.95856  255 255 255 255
3.10143 -3.77393 -0.832882 0 -0.228585 -0.973524  255 255 255 255
-3.10147 -3.77393 -0.832883 0 -0.228584 -0.973524  255 255 255 255
1.02576 -8.18288 0.900524 0 -0.495632 -0.868533  255 255 255 255
-1.02588 -8.18288 0.900523 0 -0.495632 -0.868533  255 255 255 255
1.23115 -4.00165 -0.777706 0 -0.242377 -0.970182  255 255 255 255
-1.23128 -4.00164 -0.777707 0 -0.242377 -0.970182  255 255 255 255
1.25903 -7.32949 0.446128 0 -0.443943 -0.896055  255 255 255 255
-1.25913 -7.32949 0.446128 0 -0.443943 -0.896055  255 255 255 255
1.19784 -6.63914 0.123719 0 -0.402128 -0.915583  255 255 255 255
-1.19794 -6.63914 0.123718 0 -0.402128 -0.915583  255 255 255 255
1.22586 -5.38844 -0.365921 0 -0.326375 -0.94524  255 255 255 255
-1.22596 -5.38844 -0.365921 0 -0.326375 -0.945241  255 255 255 255
1.35389 -4.91095 -0.522699 0 -0.297453 -0.954736  255 255 255 255
-1.35399 -4.91095 -0.5227 0 -0.297453 -0.954737  255 255 255 255
1.1598 -3.52482 -0.889345 0 -0.213496 -0.976944  255 255 255 255
-1.15993 -3.5248 -0.889348 0 -0.213495 -0.976944  255 255 255 255
0.369393 -10.9793 2.90976 0 -0.66501 -0.746835  255 255 255 255
-0.369458 -10.9793 2.90976 0 -0.66501 -0.746835  255 255 255 255
0.361628 -0.926813 -1.24397 0 -0.056136 -0.998423  255 255 255 255
-0.361699 -0.926796 -1.24397 0 -0.056135 -0.998423  255 255 255 255
3.13038 -8.35297 0.998936 0 -0.505934 -0.862572  255 255 255 255
-3.13042 -8.35297 0.998935 0 -0.505934 -0.862572  255 255 255 255
0.534178 -9.63945 1.83623 0 -0.583855 -0.811858  255 255 255 255
-0.534315 -9.63945 1.83623 0 -0.583855 -0.811858  255 255 255 255
0.57717 -2.61443 -1.06168 0 -0.158354 -0.987382  255 255 255 255
-0.577316 -2.6144 -1.06169 0 -0.158352 -0.987383  255 255 255 255
0.527825 -8.52323 1.10017 0 -0.516246 -0.85644  255 255 255 255
-0.527957 -8.52323 1.10017 0 -0.516246 -0.85644  255 255 255 255
3.08285 -8.82541 1.28679 0 -0.534549 -0.845137  255 255 255 255
-3.08289 -8.82541 1.28678 0 -0.534549 -0.845137  255 255 255 255
0.549382 -9.00348 1.40102 0 -0.545335 -0.838218  255 255 255 255
-0.549518 -9.00348 1.40101 0 -0.545335 -0.838218  255 255 255 255
0.602887 -3.22399 -0.952159 0 -0.195275 -0.980749  255 255 255 255
-0.60303 -3.22397 -0.952161 0 -0.195274 -0.980749  255 255 255 255
0.765269 -4.46612 -0.65446 0 -0.27051 -0.962717  255 255 255 255
-0.765393 -4.46612 -0.654461 0 -0.27051 -0.962717  255 255 255 255
0.748362 -7.00748 0.290909 0 -0.424439 -0.905457  255 255 255 255
-0.748469 -7.00748 0.290909 0 -0.424439 -0.905457  255 255 255 255
0.66937 -6.40666 0.023732 0 -0.388047 -0.921639  255 255 255 255
-0.669476 -6.40666 0.023732 0 -0.388047 -0.921639  255 255 255 255
0.759771 -5.77737 -0.226159 0 -0.349932 -0.936775  255 255 255 255
-0.759878 -5.77737 -0.226159 0 -0.349932 -0.936775  255 255 255 255
0.68411 -5.13661 -0.450614 0 -0.311121 -0.95037  255 255 255 255
-0.684224 -5.13661 -0.450614 0 -0.311121 -0.95037  255 255 255 255
0.712292 -7.65647 0.612676 0 -0.463747 -0.885968  255 255 255 255
-0.712405 -7.65647 0.612675 0 -0.463747 -0.885968  255 255 255 255
1.33 -10.2367 2.2866 0 -0.620029 -0.784579  255 255 255 255
1.23601 -1.82358 -1.16898 0 -0.110453 -0.993881  255 255 255 255
-1.3301 -10.2367 2.2866 0 -0.620029 -0.784579  255 255 255 255
-1.23612 -1.82354 -1.16899 0 -0.11045 -0.993882  255 255 255 255
3.01636 -9.7302 1.90196 0 -0.589352 -0.807876  255 255 255 255
2.98289 -2.55286 -1.07144 0 -0.154625 -0.987973  255 255 255 255
-3.01639 -9.7302 1.90196 0 -0.589352 -0.807877  255 255 255 255
-2.98294 -2.55285 -1.07144 0 -0.154624 -0.987973  255 255 255 255
0.542657 -9.32517 1.61571 0 -0.56482 -0.825214  255 255 255 255
-0.542794 -9.32517 1.61571 0 -0.56482 -0.825214  255 255 255 255
1.84767 -10.1945 2.25339 0 -0.617475 -0.786591  255 255 255 255
1.76674 -2.0793 -1.13854 0 -0.125942 -0.992038  255 255 255 255
-1.84775 -10.1945 2.25338 0 -0.617474 -0.786591  255 255 255 255
-1.76684 -2.07927 -1.13855 0 -0.12594 -0.992038  255 255 255 255
-2.5e-05 -11.1648 3.07747 0 -0.676246 -0.736676  255 255 255 255
-2.7e-05 -0.684673 -1.2558 0 -0.04147 -0.99914  255 255 255 255
1.89508 -9.50274 1.73896 0 -0.575575 -0.817749  255 255 255 255
1.87589 -2.65747 -1.05472 0 -0.160961 -0.986961  255 255 255 255
-1.89518 -9.50273 1.73896 0 -0.575574 -0.817749  255 255 255 255
-1.87599 -2.65745 -1.05473 0 -0.16096 -0.986961  255 255 255 255
1.1933 -11.2854 3.18924 0 -0.683547 -0.729907  255 255 255 255
-1.19333 -11.2854 3.18924 0 -0.683547 -0.729907  255 255 255 255
1.18253 -0.532693 -1.2614 0 -0.032265 -0.999479  255 255 255 255
-1.18256 -0.53268 -1.2614 0 -0.032264 -0.999479  255 255 255 255
3.12312 -9.25652 1.56898 0 -0.560662 -0.828045  255 255 255 255
-3.12316 -9.25652 1.56897 0 -0.560661 -0.828045  255 255 255 255
0.351031 -11.3265 3.22794 0 -0.686041 -0.727563  255 255 255 255
-0.351064 -11.3265 3.22794 0 -0.686041 -0.727563  255 255 255 255
0.347103 -0.470897 -1.26328 0 -0.028522 -0.999593  255 255 255 255
-0.347139 -0.47089 -1.26328 0 -0.028521 -0.999593  255 255 255 255
0.275675 -10.2151 2.26956 0 -0.61872 -0.785611  255 255 255 255
-0.275798 -10.2151 2.26959 0 -0.618723 -0.785609  255 255 255 255
0.274416 -1.89141 -1.1613 0 -0.114561 -0.993416  255 255 255 255
-0.274548 -1.89121 -1.16132 0 -0.114549 -0.993418  255 255 255 255
1.82013 -8.93659 1.35773 0 -0.541284 -0.84084  255 255 255 255
-1.82022 -8.93659 1.35773 0 -0.541284 -0.84084  255 255 255 255
1.21068 -10.8563 2.80132 0 -0.657559 -0.753403  255 255 255 255
1.18495 -1.09697 -1.23352 0 -0.066443 -0.99779  255 255 255 255
-1.21074 -10.8563 2.80132 0 -0.657559 -0.753403  255 255 255 255
-1.18502 -1.09695 -1.23352 0 -0.066441 -0.99779  255 255 255 255
0.398907 -9.92984 2.04992 0 -0.601444 -0.798915  255 255 255 255
-0.399039 -9.92986 2.04993 0 -0.601445 -0.798914  255 255 255 255
0.410097 -2.24488 -1.11667 0 -0.135971 -0.990713  255 255 255 255
-0.410238 -2.2448 -1.11668 0 -0.135966 -0.990714  255 255 255 255
1.29201 -9.78681 1.94344 0 -0.592781 -0.805364  255 255 255 255
1.31766 -2.35184 -1.10163 0 -0.142449 -0.989802  255 255 255 255
-1.29212 -9.78681 1.94344 0 -0.592781 -0.805364  255 255 255 255
-1.31778 -2.3518 -1.10164 0 -0.142447 -0.989802  255 255 255 255
0.924794 -9.69443 1.87594 0 -0.587185 -0.809453  255 255 255 255
0.984427 -2.5027 -1.07921 0 -0.151587 -0.988444  255 255 255 255
-0.92492 -9.69443 1.87594 0 -0.587185 -0.809453  255 255 255 255
-0.984561 -2.50266 -1.07922 0 -0.151584 -0.988444  255 255 255 255
2.28079 -9.9038 2.03035 0 -0.599867 -0.8001  255 255 255 255
2.33277 -2.32488 -1.10549 0 -0.140816 -0.990036  255 255 255 255
-2.28085 -9.9038 2.03035 0 -0.599866 -0.8001  255 255 255 255
-2.33284 -2.32486 -1.10549 0 -0.140815 -0.990036  255 255 255 255
1.23917 -10.5625 2.55085 0 -0.639761 -0.768574  255 255 255 255
1.19272 -1.46047 -1.20528 0 -0.08846 -0.99608  255 255 255 255
-1.23925 -10.5625 2.55085 0 -0.639761 -0.768574  255 255 255 255
-1.19281 -1.46043 -1.20528 0 -0.088457 -0.99608  255 255 255 255
2.97891 -3.18357 -0.960153 0 -0.192827 -0.981233  255 255 255 255
-2.97896 -3.18357 -0.960154 0 -0.192827 -0.981233  255 255 255 255
3.30872 -4.21287 -0.723454 0 -0.255171 -0.966896  255 255 255 255
-3.30875 -4.21286 -0.723454 0 -0.25517 -0.966896  255 255 255 255
3.21952 -6.89895 0.240514 0 -0.417865 -0.908509  255 255 255 255
-3.21955 -6.89895 0.240514 0 -0.417865 -0.908509  255 255 255 255
3.22135 -5.09044 -0.465652 0 -0.308325 -0.951281  255 255 255 255
-3.22138 -5.09044 -0.465653 0 -0.308325 -0.951281  255 255 255 255
1.77119 -3.0317 -0.98926 0 -0.183628 -0.982996  255 255 255 255
-1.7713 -3.03168 -0.989264 0 -0.183627 -0.982996  255 255 255 255
0.453149 -8.11209 0.860357 0 -0.491344 -0.870966  255 255 255 255
-0.453274 -8.11209 0.860357 0 -0.491344 -0.870966  255 255 255 255
1.50151 -3.74561 -0.839505 0 -0.226869 -0.973925  255 255 255 255
-1.50163 -3.7456 -0.839507 0 -0.226869 -0.973925  255 255 255 255
0.626494 -3.81816 -0.822433 0 -0.231264 -0.972891  255 255 255 255
-0.626629 -3.81816 -0.822434 0 -0.231263 -0.972891  255 255 255 255
1.62854 -11.3627 3.2621 0 -0.688229 -0.725494  255 255 255 255
-1.62856 -11.3627 3.2621 0 -0.688229 -0.725494  255 255 255 255
1.62067 -0.431792 -1.26435 0 -0.026153 -0.999658  255 255 255 255
-1.62069 -0.431785 -1.26435 0 -0.026153 -0.999658  255 255 255 255
2.64914 -4.68304 -0.591907 0 -0.283648 -0.958928  255 255 255 255
-2.6492 -4.68303 -0.591908 0 -0.283648 -0.958928  255 255 255 255
3.42509 -3.5088 -0.892838 0 -0.212525 -0.977156  255 255 255 255
-3.42511 -3.50879 -0.892838 0 -0.212525 -0.977156  255 255 255 255
3.39545 -2.88558 -1.01588 0 -0.174778 -0.984608  255 255 255 255
-3.39547 -2.88557 -1.01588 0 -0.174777 -0.984608  255 255 255 255
3.43987 -9.46754 1.71425 0 -0.573443 -0.819246  255 255 255 255
-3.43989 -9.46754 1.71425 0 -0.573443 -0.819246  255 255 255 255
3.45649 -8.97174 1.38042 0 -0.543412 -0.839466  255 255 255 255
-3.45651 -8.97174 1.38042 0 -0.543412 -0.839466  255 255 255 255
-0.013815 37.3069 -1.27 0 0 -1  255 255 255 255
0 3.81029 -1.27 0 0 -1  255 255 255 255
-0.051113 22.1796 -1.27 0 0 -1  255 255 255 255
-0.02835 11.2824 -1.27 0 0 -1  255 255 255 255
-0.056667 16.9387 -1.27 0 0 -1  255 255 255 255
-0.009966 29.2867 -1.27 0 0 -1  255 255 255 255
-0.13475 33.0934 -1.27 0 0 -1  255 255 255 255
0.130111 7.59294 -1.27 0 0 -1  255 255 255 255
-0.266581 25.7497 -1.27 0 0 -1  255 255 255 255
-0.918696 14.1599 -1.27 0 0 -1  255 255 255 255
1.10501 19.6361 -1.27 0 0 -1  255 255 255 255
-1.47606 35.1892 -1.27 0 0 -1  255 255 255 255
1.31194 35.257 -1.27 0 0 -1  255 255 255 255
-1.45883 20.0875 -1.27 0 0 -1  255 255 255 255
1.39329 13.2762 -1.27 0 0 -1  255 255 255 255
1.43033 31.1825 -1.27 0 0 -1  255 255 255 255
-1.45779 31.1775 -1.27 0 0 -1  255 255 255 255
-1.54189 9.4151 -1.27 0 0 -1  255 255 255 255
-1.48706 5.52623 -1.27 0 0 -1  255 255 255 255
1.51737 24.0194 -1.27 0 0 -1  255 255 255 255
1.52067 27.3563 -1.27 0 0 -1  255 255 255 255
1.54893 9.39589 -1.27 0 0 -1  255 255 255 255
1.42897 5.62978 -1.27 0 0 -1  255 255 255 255
-1.65281 23.8863 -1.27 0 0 -1  255 255 255 255
-1.54257 27.5909 -1.27 0 0 -1  255 255 255 255
1.60402 2.18484 -1.27 0 0 -1  255 255 255 255
1.65124 38.9481 -1.27 0 0 -1  255 255 255 255
-1.68068 2.17101 -1.27 0 0 -1  255 255 255 255
-1.5875 38.9293 -1.27 0 0 -1  255 255 255 255
1.5621 15.4835 -1.27 0 0 -1  255 255 255 255
-1.75587 18.1092 -1.27 0 0 -1  255 255 255 255
-1.83415 12.3154 -1.27 0 0 -1  255 255 255 255
-1.77709 15.9785 -1.27 0 0 -1  255 255 255 255
1.83723 21.4314 -1.27 0 0 -1  255 255 255 255
1.81257 17.8843 -1.27 0 0 -1  255 255 255 255
1.88941 33.0439 -1.27 0 0 -1  255 255 255 255
-1.93436 33.1601 -1.27 0 0 -1  255 255 255 255
1.95516 29.2525 -1.27 0 0 -1  255 255 255 255
1.96735 11.2879 -1.27 0 0 -1  255 255 255 255
1.92004 37.0577 -1.27 0 0 -1  255 255 255 255
-1.88974 37.1074 -1.27 0 0 -1  255 255 255 255
-1.86457 22.0004 -1.27 0 0 -1  255 255 255 255
-1.94679 7.51547 -1.27 0 0 -1  255 255 255 255
1.98097 7.48267 -1.27 0 0 -1  255 255 255 255
-1.95615 29.3821 -1.27 0 0 -1  255 255 255 255
-2.00073 3.98476 -1.27 0 0 -1  255 255 255 255
2.03345 3.99952 -1.27 0 0 -1  255 255 255 255
-2.00095 25.5253 -1.27 0 0 -1  255 255 255 255
2.09433 25.7226 -1.27 0 0 -1  255 255 255 255
-0.08553 1.60984 -1.27 0 0 -1  255 255 255 255
0.061078 39.5183 -1.27 0 0 -1  255 255 255 255
-0.231551 18.6329 -1.27 0 0 -1  255 255 255 255
-2.25532 10.6779 -1.27 0 0 -1  255 255 255 255
-0.097595 15.4279 -1.27 0 0 -1  255 255 255 255
-0.069038 12.7912 -1.27 0 0 -1  255 255 255 255
-2.25596 13.8204 -1.27 0 0 -1  255 255 255 255
-0.020954 24.2669 -1.27 0 0 -1  255 255 255 255
-0.054198 27.1864 -1.27 0 0 -1  255 255 255 255
2.30744 22.8767 -1.27 0 0 -1  255 255 255 255
0.065477 8.95847 -1.27 0 0 -1  255 255 255 255
0.213673 5.25959 -1.27 0 0 -1  255 255 255 255
0.043439 31.6155 -1.27 0 0 -1  255 255 255 255
0.005324 20.7003 -1.27 0 0 -1  255 255 255 255
0.022117 35.9128 -1.27 0 0 -1  255 255 255 255
2.39323 14.2764 -1.27 0 0 -1  255 255 255 255
2.43916 19.9639 -1.27 0 0 -1  255 255 255 255
-2.35958 34.399 -1.27 0 0 -1  255 255 255 255
2.43096 34.378 -1.27 0 0 -1  255 255 255 255
2.70653 16.518 -1.27 0 0 -1  255 255 255 255
0.172832 34.4794 -1.27 0 0 -1  255 255 255 255
-2.5104 19.2169 -1.27 0 0 -1  255 255 255 255
0.429731 14.303 -1.27 0 0 -1  255 255 255 255
-2.5588 35.9344 -1.27 0 0 -1  255 255 255 255
2.5588 35.9344 -1.27 0 0 -1  255 255 255 255
-2.52618 20.8713 -1.27 0 0 -1  255 255 255 255
2.58491 12.3973 -1.27 0 0 -1  255 255 255 255
-2.63048 17.1151 -1.27 0 0 -1  255 255 255 255
-2.48635 32.07 -1.27 0 0 -1  255 255 255 255
2.48799 31.9859 -1.27 0 0 -1  255 255 255 255
2.52655 30.3254 -1.27 0 0 -1  255 255 255 255
2.53759 8.48944 -1.27 0 0 -1  255 255 255 255
2.47903 1.20455 -1.27 0 0 -1  255 255 255 255
-2.50915 1.30057 -1.27 0 0 -1  255 255 255 255
2.43709 39.9633 -1.27 0 0 -1  255 255 255 255
-2.43709 39.9633 -1.27 0 0 -1  255 255 255 255
2.45566 27.9965 -1.27 0 0 -1  255 255 255 255
-2.53973 8.69305 -1.27 0 0 -1  255 255 255 255
-2.5355 26.7538 -1.27 0 0 -1  255 255 255 255
-2.58313 30.4601 -1.27 0 0 -1  255 255 255 255
-2.44249 6.27802 -1.27 0 0 -1  255 255 255 255
2.53812 10.2317 -1.27 0 0 -1  255 255 255 255
2.58673 18.8684 -1.27 0 0 -1  255 255 255 255
-2.61089 23.1221 -1.27 0 0 -1  255 255 255 255
2.56768 6.27668 -1.27 0 0 -1  255 255 255 255
0.894693 25.223 -1.27 0 0 -1  255 255 255 255
1.09385 22.9126 -1.27 0 0 -1  255 255 255 255
2.56227 38.1267 -1.27 0 0 -1  255 255 255 255
-2.54719 38.1186 -1.27 0 0 -1  255 255 255 255
-2.56332 14.9956 -1.27 0 0 -1  255 255 255 255
-0.977984 34.0052 -1.27 0 0 -1  255 255 255 255
-2.70927 5.10132 -1.27 0 0 -1  255 255 255 255
0.376614 30.4597 -1.27 0 0 -1  255 255 255 255
1.2428 16.564 -1.27 0 0 -1  255 255 255 255
-2.56262 28.3091 -1.27 0 0 -1  255 255 255 255
2.57669 24.5899 -1.27 0 0 -1  255 255 255 255
2.63534 26.7416 -1.27 0 0 -1  255 255 255 255
2.54171 5.14189 -1.27 0 0 -1  255 255 255 255
0.943418 12.0658 -1.27 0 0 -1  255 255 255 255
-0.995633 10.5524 -1.27 0 0 -1  255 255 255 255
-2.61196 2.91038 -1.27 0 0 -1  255 255 255 255
-0.919433 8.23669 -1.27 0 0 -1  255 255 255 255
-0.874284 6.89703 -1.27 0 0 -1  255 255 255 255
-1.07516 30.0346 -1.27 0 0 -1  255 255 255 255
2.53136 2.88208 -1.27 0 0 -1  255 255 255 255
1.05003 28.4372 -1.27 0 0 -1  255 255 255 255
1.15201 8.34521 -1.27 0 0 -1  255 255 255 255
-2.55102 24.5312 -1.27 0 0 -1  255 255 255 255
0.999899 32.2331 -1.27 0 0 -1  255 255 255 255
-0.994226 32.3191 -1.27 0 0 -1  255 255 255 255
0.565463 10.1806 -1.27 0 0 -1  255 255 255 255
0.517964 6.41041 -1.27 0 0 -1  255 255 255 255
0.972315 4.53176 -1.27 0 0 -1  255 255 255 255
-0.922234 4.55261 -1.27 0 0 -1  255 255 255 255
-1.22504 17.0412 -1.27 0 0 -1  255 255 255 255
-1.22396 26.4353 -1.27 0 0 -1  255 255 255 255
-0.474552 38.5089 -1.27 0 0 -1  255 255 255 255
0.571305 2.60906 -1.27 0 0 -1  255 255 255 255
0.997835 1.20018 -1.27 0 0 -1  255 255 255 255
-1.06187 1.16186 -1.27 0 0 -1  255 255 255 255
1.06187 39.9861 -1.27 0 0 -1  255 255 255 255
-0.997835 39.9478 -1.27 0 0 -1  255 255 255 255
-1.0266 22.7669 -1.27 0 0 -1  255 255 255 255
0.655838 26.4239 -1.27 0 0 -1  255 255 255 255
-1.03018 28.6625 -1.27 0 0 -1  255 255 255 255
1.20019 37.8411 -1.27 0 0 -1  255 255 255 255
-1.11883 3.35754 -1.27 0 0 -1  255 255 255 255
1.27799 34.1862 -1.27 0 0 -1  255 255 255 255
-0.856578 21.4762 -1.27 0 0 -1  255 255 255 255
-1.05371 24.8689 -1.27 0 0 -1  255 255 255 255
0.907765 18.4672 -1.27 0 0 -1  255 255 255 255
0.866088 36.6028 -1.27 0 0 -1  255 255 255 255
-0.912678 36.703 -1.27 0 0 -1  255 255 255 255
2.68621 15.4361 -1.27 0 0 -1  255 255 255 255
-2.70523 9.65886 -1.27 0 0 -1  255 255 255 255
-2.78659 11.7693 -1.27 0 0 -1  255 255 255 255
-1.23262 19.054 -1.27 0 0 -1  255 255 255 255
-0.475243 19.6764 -1.27 0 0 -1  255 255 255 255
-0.921258 15.1021 -1.27 0 0 -1  255 255 255 255
1.08614 20.6393 -1.27 0 0 -1  255 255 255 255
-1.01147 11.6187 -1.27 0 0 -1  255 255 255 255
-2.78919 18.27 -1.27 0 0 -1  255 255 255 255
-1.07075 13.123 -1.27 0 0 -1  255 255 255 255
-2.75715 12.8135 -1.27 0 0 -1  255 255 255 255
2.73287 21.9146 -1.27 0 0 -1  255 255 255 255
1.4356 30.2181 -1.27 0 0 -1  255 255 255 255
-2.78209 16.0422 -1.27 0 0 -1  255 255 255 255
0.103092 23.1998 -1.27 0 0 -1  255 255 255 255
-0.152364 28.2293 -1.27 0 0 -1  255 255 255 255
-1.41987 37.9378 -1.27 0 0 -1  255 255 255 255
2.79484 17.6696 -1.27 0 0 -1  255 255 255 255
0.903563 21.751 -1.27 0 0 -1  255 255 255 255
-0.679629 16.1368 -1.27 0 0 -1  255 255 255 255
1.13702 3.45346 -1.27 0 0 -1  255 255 255 255
1.45193 10.4163 -1.27 0 0 -1  255 255 255 255
2.87397 33.3775 -1.27 0 0 -1  255 255 255 255
-2.86768 33.442 -1.27 0 0 -1  255 255 255 255
-2.91602 22.1199 -1.27 0 0 -1  255 255 255 255
2.85686 13.3861 -1.27 0 0 -1  255 255 255 255
-2.82808 36.9767 -1.27 0 0 -1  255 255 255 255
2.82808 36.9767 -1.27 0 0 -1  255 255 255 255
2.84797 11.266 -1.27 0 0 -1  255 255 255 255
2.84822 29.2563 -1.27 0 0 -1  255 255 255 255
0.613956 38.7358 -1.27 0 0 -1  255 255 255 255
-2.89295 7.39378 -1.27 0 0 -1  255 255 255 255
-0.60571 2.40993 -1.27 0 0 -1  255 255 255 255
1.01251 7.24773 -1.27 0 0 -1  255 255 255 255
2.90593 20.9386 -1.27 0 0 -1  255 255 255 255
2.85295 23.6653 -1.27 0 0 -1  255 255 255 255
-1.72463 14.5213 -1.27 0 0 -1  255 255 255 255
-2.90704 29.2537 -1.27 0 0 -1  255 255 255 255
0.84343 17.4974 -1.27 0 0 -1  255 255 255 255
2.86873 7.40831 -1.27 0 0 -1  255 255 255 255
1.45862 14.4934 -1.27 0 0 -1  255 255 255 255
-0.601632 17.7648 -1.27 0 0 -1  255 255 255 255
-2.92349 4.17909 -1.27 0 0 -1  255 255 255 255
-2.88407 38.9797 -1.27 0 0 -1  255 255 255 255
2.88407 38.9797 -1.27 0 0 -1  255 255 255 255
2.93391 4.17909 -1.27 0 0 -1  255 255 255 255
1.51902 6.51427 -1.27 0 0 -1  255 255 255 255
-2.93566 25.9453 -1.27 0 0 -1  255 255 255 255
2.94085 25.4256 -1.27 0 0 -1  255 255 255 255
0.926733 11.1108 -1.27 0 0 -1  255 255 255 255
-0.560642 30.8852 -1.27 0 0 -1  255 255 255 255
0.861182 29.5276 -1.27 0 0 -1  255 255 255 255
-0.362295 9.85554 -1.27 0 0 -1  255 255 255 255
-1.61375 36.0854 -1.27 0 0 -1  255 255 255 255
1.61012 36.0787 -1.27 0 0 -1  255 255 255 255
0.942562 33.2156 -1.27 0 0 -1  255 255 255 255
-0.577727 5.99193 -1.27 0 0 -1  255 255 255 255
1.67822 18.8351 -1.27 0 0 -1  255 255 255 255
-2.80894 1.979 -1.27 0 0 -1  255 255 255 255
2.98198 31.1825 -1.27 0 0 -1  255 255 255 255
-1.60719 20.9708 -1.27 0 0 -1  255 255 255 255
1.65308 26.5069 -1.27 0 0 -1  255 255 255 255
-0.710993 23.6556 -1.27 0 0 -1  255 255 255 255
-0.248956 0.838646 -1.27 0 0 -1  255 255 255 255
0.248956 40.3094 -1.27 0 0 -1  255 255 255 255
2.98269 9.38153 -1.27 0 0 -1  255 255 255 255
1.71997 24.9037 -1.27 0 0 -1  255 255 255 255
-2.99432 35.0681 -1.27 0 0 -1  255 255 255 255
2.99432 35.0681 -1.27 0 0 -1  255 255 255 255
-2.97074 20.0867 -1.27 0 0 -1  255 255 255 255
2.91256 2.0575 -1.27 0 0 -1  255 255 255 255
-2.80995 27.5559 -1.27 0 0 -1  255 255 255 255
-0.454535 35.1228 -1.27 0 0 -1  255 255 255 255
0.394312 16.2593 -1.27 0 0 -1  255 255 255 255
0.828609 15.1224 -1.27 0 0 -1  255 255 255 255
-0.212944 13.5857 -1.27 0 0 -1  255 255 255 255
1.71712 22.2567 -1.27 0 0 -1  255 255 255 255
0.654323 27.6281 -1.27 0 0 -1  255 255 255 255
-1.61091 30.4572 -1.27 0 0 -1  255 255 255 255
-0.838706 33.0332 -1.27 0 0 -1  255 255 255 255
-1.72391 4.90576 -1.27 0 0 -1  255 255 255 255
2.93078 32.7078 -1.27 0 0 -1  255 255 255 255
-2.863 32.6885 -1.27 0 0 -1  255 255 255 255
-1.75029 8.25678 -1.27 0 0 -1  255 255 255 255
1.794 3.03866 -1.27 0 0 -1  255 255 255 255
1.78879 4.65565 -1.27 0 0 -1  255 255 255 255
-2.96151 14.3107 -1.27 0 0 -1  255 255 255 255
-2.98149 10.6336 -1.27 0 0 -1  255 255 255 255
-3.0068 31.2572 -1.27 0 0 -1  255 255 255 255
-0.845811 39.1925 -1.27 0 0 -1  255 255 255 255
0.791581 1.92516 -1.27 0 0 -1  255 255 255 255
2.91981 19.5304 -1.27 0 0 -1  255 255 255 255
-1.69352 6.50535 -1.27 0 0 -1  255 255 255 255
1.82414 0.828168 -1.27 0 0 -1  255 255 255 255
-1.88526 0.842536 -1.27 0 0 -1  255 255 255 255
-1.82414 40.3198 -1.27 0 0 -1  255 255 255 255
1.87913 40.3153 -1.27 0 0 -1  255 255 255 255
1.77972 12.0764 -1.27 0 0 -1  255 255 255 255
0.5285 23.8045 -1.27 0 0 -1  255 255 255 255
-0.1645 14.667 -1.27 0 0 -1  255 255 255 255
-0.785964 12.2353 -1.27 0 0 -1  255 255 255 255
-2.97483 23.7285 -1.27 0 0 -1  255 255 255 255
-0.729747 27.7096 -1.27 0 0 -1  255 255 255 255
-1.73395 11.4642 -1.27 0 0 -1  255 255 255 255
0.350205 19.2489 -1.27 0 0 -1  255 255 255 255
1.69341 28.1657 -1.27 0 0 -1  255 255 255 255
0.527581 35.173 -1.27 0 0 -1  255 255 255 255
-1.67172 10.1935 -1.27 0 0 -1  255 255 255 255
0.690025 13.2594 -1.27 0 0 -1  255 255 255 255
0.12707 24.8738 -1.27 0 0 -1  255 255 255 255
-1.84479 2.94653 -1.27 0 0 -1  255 255 255 255
-0.749321 37.3473 -1.27 0 0 -1  255 255 255 255
1.77829 32.3263 -1.27 0 0 -1  255 255 255 255
-1.7906 32.3524 -1.27 0 0 -1  255 255 255 255
-2.09286 35.0167 -1.27 0 0 -1  255 255 255 255
1.91546 35.0783 -1.27 0 0 -1  255 255 255 255
-0.416922 26.5575 -1.27 0 0 -1  255 255 255 255
-1.84912 33.9303 -1.27 0 0 -1  255 255 255 255
-1.82071 28.634 -1.27 0 0 -1  255 255 255 255
-3.0156 5.76368 -1.27 0 0 -1  255 255 255 255
-2.05991 20.0362 -1.27 0 0 -1  255 255 255 255
3.03204 27.494 -1.27 0 0 -1  255 255 255 255
0.185116 12.0575 -1.27 0 0 -1  255 255 255 255
-1.80904 24.589 -1.27 0 0 -1  255 255 255 255
-0.038852 18.0468 -1.27 0 0 -1  255 255 255 255
-1.74213 13.0559 -1.27 0 0 -1  255 255 255 255
-1.76335 23.1016 -1.27 0 0 -1  255 255 255 255
1.85057 8.21928 -1.27 0 0 -1  255 255 255 255
-0.708527 20.6438 -1.27 0 0 -1  255 255 255 255
-3.00986 21.3815 -1.27 0 0 -1  255 255 255 255
1.70467 23.3233 -1.27 0 0 -1  255 255 255 255
-2.90046 24.9713 -1.27 0 0 -1  255 255 255 255
-0.139579 3.00462 -1.27 0 0 -1  255 255 255 255
-0.812094 35.8206 -1.27 0 0 -1  255 255 255 255
2.96049 5.72776 -1.27 0 0 -1  255 255 255 255
1.81238 38.2259 -1.27 0 0 -1  255 255 255 255
0.156724 8.21916 -1.27 0 0 -1  255 255 255 255
0.806727 8.99276 -1.27 0 0 -1  255 255 255 255
0.153397 38.1164 -1.27 0 0 -1  255 255 255 255
2.98626 26.2838 -1.27 0 0 -1  255 255 255 255
0.648709 31.1735 -1.27 0 0 -1  255 255 255 255
0.197402 32.3181 -1.27 0 0 -1  255 255 255 255
-0.674331 8.90303 -1.27 0 0 -1  255 255 255 255
-0.141683 6.78945 -1.27 0 0 -1  255 255 255 255
-1.02222 25.669 -1.27 0 0 -1  255 255 255 255
3.03364 16.0391 -1.27 0 0 -1  255 255 255 255
2.09148 31.1897 -1.27 0 0 -1  255 255 255 255
-1.39269 13.6865 -1.27 0 0 -1  255 255 255 255
0.2397 4.52118 -1.27 0 0 -1  255 255 255 255
0.810778 5.30567 -1.27 0 0 -1  255 255 255 255
2.99478 14.5861 -1.27 0 0 -1  255 255 255 255
3.28863 22.8058 -1.27 0 0 -1  255 255 255 255
-2.96924 0.850701 -1.27 0 0 -1  255 255 255 255
2.94209 40.2843 -1.27 0 0 -1  255 255 255 255
2.96418 0.831106 -1.27 0 0 -1  255 255 255 255
-2.94209 40.2843 -1.27 0 0 -1  255 255 255 255
0.298506 20.1469 -1.27 0 0 -1  255 255 255 255
-0.228419 33.8318 -1.27 0 0 -1  255 255 255 255
-2.14408 31.2304 -1.27 0 0 -1  255 255 255 255
-3.17044 17.7079 -1.27 0 0 -1  255 255 255 255
3.18583 17.0847 -1.27 0 0 -1  255 255 255 255
1.71266 20.7604 -1.27 0 0 -1  255 255 255 255
1.79834 17.1084 -1.27 0 0 -1  255 255 255 255
2.08305 13.5459 -1.27 0 0 -1  255 255 255 255
-3.16354 29.8981 -1.27 0 0 -1  255 255 255 255
-3.17123 8.02874 -1.27 0 0 -1  255 255 255 255
-0.117978 21.4339 -1.27 0 0 -1  255 255 255 255
3.17766 11.8347 -1.27 0 0 -1  255 255 255 255
3.15544 8.00701 -1.27 0 0 -1  255 255 255 255
-3.05518 13.4636 -1.27 0 0 -1  255 255 255 255
1.30813 25.8364 -1.27 0 0 -1  255 255 255 255
-3.12454 18.9756 -1.27 0 0 -1  255 255 255 255
1.72834 16.034 -1.27 0 0 -1  255 255 255 255
-0.691316 7.53622 -1.27 0 0 -1  255 255 255 255
-0.226258 29.984 -1.27 0 0 -1  255 255 255 255
2.13134 9.38037 -1.27 0 0 -1  255 255 255 255
3.09237 3.57532 -1.27 0 0 -1  255 255 255 255
3.14823 29.8529 -1.27 0 0 -1  255 255 255 255
0.875702 35.7059 -1.27 0 0 -1  255 255 255 255
0.133219 36.5978 -1.27 0 0 -1  255 255 255 255
3.14833 36.3878 -1.27 0 0 -1  255 255 255 255
-3.14833 36.3878 -1.27 0 0 -1  255 255 255 255
1.95768 33.8084 -1.27 0 0 -1  255 255 255 255
-1.80643 26.8964 -1.27 0 0 -1  255 255 255 255
-1.96415 16.6851 -1.27 0 0 -1  255 255 255 255
-3.18417 3.53197 -1.27 0 0 -1  255 255 255 255
-0.94032 31.6384 -1.27 0 0 -1  255 255 255 255
-0.792551 29.3357 -1.27 0 0 -1  255 255 255 255
3.1488 18.2898 -1.27 0 0 -1  255 255 255 255
0.476125 0.717721 -1.27 0 0 -1  255 255 255 255
-0.476125 40.4303 -1.27 0 0 -1  255 255 255 255
3.14918 28.6434 -1.27 0 0 -1  255 255 255 255
0.427218 33.8792 -1.27 0 0 -1  255 255 255 255
1.78731 19.6826 -1.27 0 0 -1  255 255 255 255
-0.84066 5.26777 -1.27 0 0 -1  255 255 255 255
2.18182 23.9201 -1.27 0 0 -1  255 255 255 255
-2.14317 5.74403 -1.27 0 0 -1  255 255 255 255
-1.06266 18.2318 -1.27 0 0 -1  255 255 255 255
-3.14385 37.5923 -1.27 0 0 -1  255 255 255 255
3.14601 37.5934 -1.27 0 0 -1  255 255 255 255
2.17496 27.4571 -1.27 0 0 -1  255 255 255 255
-3.0616 9.10941 -1.27 0 0 -1  255 255 255 255
-1.91553 15.3549 -1.27 0 0 -1  255 255 255 255
3.14948 20.2637 -1.27 0 0 -1  255 255 255 255
2.05753 14.9293 -1.27 0 0 -1  255 255 255 255
3.15078 10.6755 -1.27 0 0 -1  255 255 255 255
-2.29535 23.6787 -1.27 0 0 -1  255 255 255 255
-0.302757 10.6499 -1.27 0 0 -1  255 255 255 255
-2.18346 9.27784 -1.27 0 0 -1  255 255 255 255
2.19394 5.67911 -1.27 0 0 -1  255 255 255 255
1.09669 15.8976 -1.27 0 0 -1  255 255 255 255
1.88311 1.57074 -1.27 0 0 -1  255 255 255 255
1.84825 39.6538 -1.27 0 0 -1  255 255 255 255
-1.85462 1.5131 -1.27 0 0 -1  255 255 255 255
-1.8349 39.6026 -1.27 0 0 -1  255 255 255 255
3.17165 6.817 -1.27 0 0 -1  255 255 255 255
-1.15307 22.0982 -1.27 0 0 -1  255 255 255 255
-1.90621 18.8128 -1.27 0 0 -1  255 255 255 255
-3.1356 34.5061 -1.27 0 0 -1  255 255 255 255
3.14291 34.4289 -1.27 0 0 -1  255 255 255 255
0.622522 24.4906 -1.27 0 0 -1  255 255 255 255
-3.14711 6.82876 -1.27 0 0 -1  255 255 255 255
-1.88139 17.3996 -1.27 0 0 -1  255 255 255 255
-1.29076 3.94547 -1.27 0 0 -1  255 255 255 255
-2.22525 27.7219 -1.27 0 0 -1  255 255 255 255
0.403055 25.85 -1.27 0 0 -1  255 255 255 255
-1.65707 34.5995 -1.27 0 0 -1  255 255 255 255
