ply
format ascii 1.0
comment VCGLIB generated
element vertex 900
property float x
property float y
property float z
property float nx
property float ny
property float nz
property uchar red
property uchar green
property uchar blue
property uchar alpha
element face 0
property list uchar int vertex_indices
end_header
-11.6897 -4.79804 2.31514 -0.853609 -0.520914 0  255 255 255 255
-11.3774 -5.30976 2.26265 -0.853609 -0.520914 0  255 255 255 255
-11.9489 -4.37329 1.82754 -0.853609 -0.520914 0  255 255 255 255
-13.9182 -5.86262 1.4934 -0.002294 -0.0014 0.999996  255 255 255 255
-11.5401 6.12999 0.786258 -0.265951 0.141271 0.953579  255 255 255 255
-11.1438 6.36191 0.860553 -0.26154 0.149312 0.953574  255 255 255 255
-9.59987 -8.00578 1.44583 -0.76799 -0.640462 0  255 255 255 255
-9.60739 7.99675 1.46486 -0.768591 0.63974 0  255 255 255 255
-8.49738 -9.16758 1.49753 -0.67979 -0.733406 0  255 255 255 255
-8.49777 9.16722 1.4984 -0.679822 0.733377 0  255 255 255 255
-7.29988 -10.147 1.49989 -0.58399 -0.811761 0  255 255 255 255
-7.2999 10.147 1.49993 -0.583992 0.81176 0  255 255 255 255
-5.99275 -10.9698 1.49999 -0.47942 -0.877586 0  255 255 255 255
-5.99275 10.9698 1.5 -0.47942 0.877586 0  255 255 255 255
-4.59423 -11.6251 1.5 -0.367538 -0.930008 0  255 255 255 255
-4.59423 11.6251 1.5 -0.367538 0.930008 0  255 255 255 255
-3.12558 -12.1029 1.5 -0.250046 -0.968234 0  255 255 255 255
-3.12558 12.1029 1.5 -0.250046 0.968234 0  255 255 255 255
-1.60921 -12.396 1.5 -0.128737 -0.991679 0  255 255 255 255
-1.60921 12.396 1.5 -0.128737 0.991679 0  255 255 255 255
-0.068285 -12.4998 1.5 -0.005463 -0.999985 0  255 255 255 255
-0.068285 12.4998 1.5 -0.005463 0.999985 0  255 255 255 255
1.47369 -12.4128 1.5 0.117895 -0.993026 0  255 255 255 255
1.47369 12.4128 1.5 0.117895 0.993026 0  255 255 255 255
2.99316 -12.1363 1.5 0.239453 -0.970908 0  255 255 255 255
2.99316 12.1363 1.5 0.239453 0.970908 0  255 255 255 255
4.46694 -11.6746 1.5 0.357355 -0.933968 0  255 255 255 255
4.46694 11.6746 1.5 0.357355 0.933968 0  255 255 255 255
5.87253 -11.0346 1.5 0.469803 -0.882771 0  255 255 255 255
5.87253 11.0346 1.5 0.469803 0.882771 0  255 255 255 255
7.18848 -10.2262 1.5 0.575078 -0.818098 0  255 255 255 255
7.18848 10.2262 1.5 0.575078 0.818098 0  255 255 255 255
8.39469 -9.26171 1.5 0.671575 -0.740937 0  255 255 255 255
8.39469 9.26171 1.5 0.671575 0.740937 0  255 255 255 255
9.47275 -8.1558 1.5 0.75782 -0.652464 0  255 255 255 255
9.47275 8.1558 1.5 0.75782 0.652464 0  255 255 255 255
10.4062 -6.92539 1.5 0.832496 -0.554031 0  255 255 255 255
10.4062 6.92539 1.5 0.832496 0.554031 0  255 255 255 255
11.1808 -5.58926 1.50001 0.894464 -0.44714 0  255 255 255 255
11.1808 5.58926 1.50001 0.894464 0.44714 0  255 255 255 255
11.7848 -4.16768 1.50012 0.94278 -0.333414 0  255 255 255 255
11.7848 4.16768 1.50012 0.94278 0.333414 0  255 255 255 255
12.2094 -2.67974 1.50256 0.97675 -0.214379 0  255 255 255 255
12.2094 2.67974 1.50256 0.97675 0.214379 0  255 255 255 255
12.4524 -1.08977 1.55619 0.996192 -0.087182 0  255 255 255 255
12.4524 1.08977 1.55619 0.996192 0.087182 0  255 255 255 255
12.5 -0 1.82248 1 0 0  255 255 255 255
12.3538 -1.90603 1.51469 0.988306 -0.152483 0  255 255 255 255
12.3538 1.90603 1.51469 0.988306 0.152483 0  255 255 255 255
12.0199 -3.43106 1.50067 0.961592 -0.274484 0  255 255 255 255
12.0199 3.43106 1.50067 0.961592 0.274484 0  255 255 255 255
11.5047 -4.88784 1.50003 0.920379 -0.391027 0  255 255 255 255
11.5047 4.88784 1.50003 0.920379 0.391027 0  255 255 255 255
10.8142 -6.2693 1.5 0.865132 -0.501544 0  255 255 255 255
10.8142 6.2693 1.5 0.865132 0.501544 0  255 255 255 255
9.95849 -7.55503 1.5 0.796679 -0.604402 0  255 255 255 255
9.95849 7.55503 1.5 0.796679 0.604402 0  255 255 255 255
8.95081 -8.72542 1.5 0.716065 -0.698034 0  255 255 255 255
8.95081 8.72542 1.5 0.716065 0.698034 0  255 255 255 255
7.80649 -9.76262 1.5 0.624519 -0.781009 0  255 255 255 255
7.80649 9.76262 1.5 0.624519 0.781009 0  255 255 255 255
6.543 -10.6508 1.5 0.52344 -0.852062 0  255 255 255 255
6.543 10.6508 1.5 0.52344 0.852062 0  255 255 255 255
5.17963 -11.3764 1.5 0.414371 -0.910108 0  255 255 255 255
5.17963 11.3764 1.5 0.414371 0.910108 0  255 255 255 255
3.73719 -11.9283 1.5 0.298975 -0.954261 0  255 255 255 255
3.73719 11.9283 1.5 0.298975 0.954261 0  255 255 255 255
2.2377 -12.2981 1.5 0.179016 -0.983846 0  255 255 255 255
2.2377 12.2981 1.5 0.179016 0.983846 0  255 255 255 255
0.704046 -12.4802 1.5 0.056324 -0.998413 0  255 255 255 255
0.704046 12.4802 1.5 0.056324 0.998413 0  255 255 255 255
-0.840354 -12.4717 1.5 -0.067228 -0.997738 0  255 255 255 255
-0.840354 12.4717 1.5 -0.067228 0.997738 0  255 255 255 255
-2.37193 -12.2729 1.5 -0.189754 -0.981832 0  255 255 255 255
-2.37193 12.2729 1.5 -0.189754 0.981832 0  255 255 255 255
-3.86729 -11.8867 1.5 -0.309383 -0.950938 0  255 255 255 255
-3.86729 11.8867 1.5 -0.309383 0.950938 0  255 255 255 255
-5.30362 -11.3191 1.5 -0.424289 -0.905527 0  255 255 255 255
-5.30362 11.3191 1.5 -0.424289 0.905527 0  255 255 255 255
-6.65901 -10.5786 1.49997 -0.53272 -0.846291 0  255 255 255 255
-6.65901 10.5786 1.49998 -0.532721 0.846291 0  255 255 255 255
-7.91324 -9.67629 1.49935 -0.633059 -0.774103 0  255 255 255 255
-7.91335 9.6762 1.49958 -0.633068 0.774096 0  255 255 255 255
-9.05644 -8.61574 1.48584 -0.724515 -0.689259 0  255 255 255 255
-9.05855 8.61351 1.49082 -0.724684 0.689081 0  255 255 255 255
-10.2419 -7.16607 1.18917 -0.819355 -0.573286 0  255 255 255 255
-10.2804 7.11074 1.29834 -0.822435 0.56886 0  255 255 255 255
-10.7723 6.34088 1.79388 -0.861787 0.50727 0  255 255 255 255
-10.7935 -6.30478 2.1 -0.86348 -0.504383 0  255 255 255 255
-10.4026 6.93083 0.565929 -0.832206 0.554466 0  255 255 255 255
-11.0047 6.63028 0.483441 0.564874 0.825177 0  255 0 0 255
-62.6214 36.1702 29.8066 0.614647 -0.375088 0.693915  255 0 0 255
-61.6958 35.6054 28.6996 0.604861 -0.369115 0.705618  255 255 255 255
-60.7547 35.0311 27.6105 0.594912 -0.363044 0.717132  255 255 255 255
-59.7986 34.4476 26.5396 0.584803 -0.356875 0.728454  255 255 255 255
-58.8276 33.8551 25.4873 0.574538 -0.350611 0.73958  255 255 255 255
-57.842 33.2536 24.4537 0.564118 -0.344252 0.750507  255 255 255 255
-56.8421 32.6434 23.4391 0.553547 -0.337801 0.761233  255 255 255 255
-55.8282 32.0247 22.4439 0.542827 -0.33126 0.771755  255 255 255 255
-54.8004 31.3975 21.4683 0.531962 -0.324629 0.782069  255 255 255 255
-53.7592 30.7621 20.5125 0.520954 -0.317911 0.792174  255 255 255 255
-52.7047 30.1186 19.5768 0.509806 -0.311108 0.802066  255 255 255 255
-51.6373 29.4672 18.6615 0.498521 -0.304222 0.811743  255 255 255 255
-50.5573 28.8081 17.7668 0.487102 -0.297253 0.821201  255 255 255 255
-49.4648 28.1414 16.893 0.475553 -0.290205 0.83044  255 255 255 255
-48.3603 27.4674 16.0403 0.463876 -0.28308 0.839455  255 255 255 255
-47.244 26.7862 15.2088 0.452074 -0.275878 0.848245  255 255 255 255
-46.1163 26.098 14.3989 0.440151 -0.268602 0.856808  255 255 255 255
-44.9773 25.403 13.6108 0.42811 -0.261254 0.86514  255 255 255 255
-43.8275 24.7013 12.8446 0.415954 -0.253836 0.873241  255 255 255 255
-42.6672 23.9932 12.1005 0.403687 -0.246349 0.881107  255 255 255 255
-41.4966 23.2788 11.3789 0.391311 -0.238797 0.888736  255 255 255 255
-40.316 22.5584 10.6798 0.37883 -0.23118 0.896127  255 255 255 255
-39.1259 21.8321 10.0035 0.366247 -0.223502 0.903277  255 255 255 255
-37.9264 21.1001 9.35008 0.353566 -0.215763 0.910185  255 255 255 255
-36.7179 20.3627 8.71979 0.34079 -0.207967 0.916849  255 0 0 255
-35.5009 19.62 8.11277 0.327923 -0.200115 0.923266  255 0 0 255
-34.2754 18.8721 7.52919 0.314968 -0.192209 0.929436  255 0 0 255
-33.042 18.1195 6.96921 0.301928 -0.184251 0.935356  255 0 0 255
-31.8009 17.3621 6.43298 0.288807 -0.176244 0.941025  255 0 0 255
-30.5525 16.6003 5.92064 0.275608 -0.16819 0.946442  255 0 0 255
-29.2971 15.8341 5.43233 0.262336 -0.16009 0.951604  255 0 0 255
-28.0351 15.064 4.96818 0.248993 -0.151948 0.956512  255 255 255 255
-26.7667 14.2899 4.52831 0.235583 -0.143764 0.961162  255 255 255 255
-25.4923 13.5122 4.11284 0.222111 -0.135543 0.965554  255 255 255 255
-24.2123 12.7311 3.72189 0.208578 -0.127284 0.969688  255 255 255 255
-22.927 11.9468 3.35556 0.19499 -0.118992 0.97356  255 255 255 255
-63.6217 36.7806 31.0446 0.625222 -0.381541 0.680826  255 255 255 255
-21.6367 11.1594 3.01394 0.181349 -0.110668 0.977172  255 255 255 255
-20.3419 10.3692 2.69713 0.167659 -0.102314 0.980521  255 255 255 255
-19.0427 9.57642 2.40522 0.153925 -0.093932 0.983608  255 255 255 255
-17.7397 8.78125 2.13828 0.140149 -0.085526 0.98643  255 255 255 255
-16.4331 7.98391 1.89638 0.126335 -0.077096 0.988987  255 255 255 255
-15.1233 7.18461 1.67959 0.112488 -0.068646 0.991279  255 255 255 255
-13.8107 6.38357 1.48797 0.09861 -0.060177 0.993305  255 255 255 255
-42.3341 61.029 31.5 0 0 -1  255 255 255 255
-63.4984 38.7003 31.5 0 0 -1  255 0 0 255
-65.5764 34.9977 31.5 0 0 -1  255 255 255 255
-64.3189 37.7138 31.5 0 0 -1  255 0 0 255
-64.0206 36.6 31.5 0 0 -1  255 255 255 255
-41.8429 61.4626 31.5 0 0 -1  255 0 0 255
-43.6108 60.1314 31.5 0 0 -1  255 255 255 255
-44.8591 59.206 31.5 0 0 -1  255 255 255 255
-46.0877 58.2547 31.5 0 0 -1  255 255 255 255
-66.3659 33.3654 31.5 0 0 -1  255 255 255 255
-65.6448 -34.7627 31.5 0 0 -1  255 255 255 255
-47.2962 57.2778 31.5 0 0 -1  255 255 255 255
-67.05 31.9684 31.5 0 0 -1  255 255 255 255
-66.3583 -33.3804 31.5 0 0 -1  255 255 255 255
-48.484 56.2759 31.5 0 0 -1  255 255 255 255
-63.4586 -37.9608 31.5 0 0 -1  255 255 255 255
-63.5736 -38.7486 31.5 0 0 -1  255 255 255 255
-42.5535 -60.8821 31.5 0 0 -1  255 255 255 255
-64.1405 -36.6667 31.5 0 0 -1  255 255 255 255
-42.0672 -61.3154 31.5 0 0 -1  255 0 0 255
-63.3378 -38.3288 31.5 0 0 -1  255 255 255 255
-43.8128 -59.9844 31.5 0 0 -1  255 255 255 255
-63.7007 -37.591 31.5 0 0 -1  255 255 255 255
-45.0495 -59.0612 31.5 0 0 -1  255 255 255 255
-46.2669 -58.1125 31.5 0 0 -1  255 255 255 255
-47.4642 -57.1387 31.5 0 0 -1  255 255 255 255
-48.6411 -56.1403 31.5 0 0 -1  255 255 255 255
-63.7519 -38.0316 30.9634 0.520914 -0.853609 0  255 0 0 255
-63.4871 -37.87 30.7166 0.520914 -0.853609 0  255 255 255 255
-62.9478 -37.5409 29.7469 0.520914 -0.853609 0  255 255 255 255
-62.6762 -37.3752 29.5069 0.520914 -0.853609 0  255 255 255 255
-62.1231 -37.0376 28.5496 0.520914 -0.853609 0  255 255 255 255
-61.8447 -36.8678 28.3165 0.520914 -0.853609 0  255 255 255 255
-61.278 -36.5219 27.3718 0.520914 -0.853609 0  255 255 255 255
-60.9929 -36.3479 27.1459 0.520914 -0.853609 0  255 255 255 255
-60.4128 -35.9939 26.2141 0.520914 -0.853609 0  255 255 255 255
-60.1211 -35.8159 25.9957 0.520914 -0.853609 0  255 255 255 255
-21.1712 -12.0468 1.64109 0.520914 -0.853609 0  255 255 255 255
-19.3381 -10.9712 1.28065 0.483534 -0.867808 0.114475  255 255 255 255
-11.3805 -6.47322 0.002259 -0.006626 -0.003769 -0.999971  255 255 255 255
-23.1248 -11.4817 1.13211 -0.14489 -0.088419 -0.985489  255 255 255 255
-24.4325 -12.2797 1.41174 -0.161651 -0.098647 -0.981905  255 255 255 255
-25.7345 -13.0743 1.72174 -0.17834 -0.108832 -0.977932  255 255 255 255
-27.031 -13.8655 2.06208 -0.194957 -0.118972 -0.973569  255 255 255 255
-28.3213 -14.6529 2.43265 -0.211496 -0.129065 -0.96882  255 255 255 255
-29.6051 -15.4363 2.8333 -0.227951 -0.139107 -0.963684  255 255 255 255
-30.8818 -16.2154 3.26386 -0.244315 -0.149093 -0.958166  255 255 255 255
-32.1509 -16.9899 3.72414 -0.260581 -0.159019 -0.952266  255 255 255 255
-33.4114 -17.7591 4.21384 -0.276738 -0.168879 -0.945989  255 255 255 255
-34.6611 -18.5218 4.73191 -0.292756 -0.178654 -0.939349  255 255 255 255
-35.8887 -19.2709 5.27307 -0.30849 -0.188256 -0.932413  255 255 255 255
-56.7669 -32.0118 20.4475 -0.576095 -0.351561 -0.737916  255 255 255 255
-37.0311 -19.9681 5.80608 -0.323133 -0.197192 -0.925581  255 255 255 255
-55.692 -31.3558 19.3206 -0.562317 -0.343153 -0.75236  255 255 255 255
-38.3602 -20.7791 6.46266 -0.340169 -0.207588 -0.917165  255 255 255 255
-54.6798 -30.7381 18.3032 -0.549344 -0.335236 -0.765401  255 255 255 255
-39.5781 -21.5224 7.09964 -0.355779 -0.217114 -0.909001  255 255 255 255
-53.6543 -30.1123 17.3133 -0.536199 -0.327214 -0.778088  255 255 255 255
-40.7804 -22.2561 7.76254 -0.37119 -0.226518 -0.900504  255 255 255 255
-52.6122 -29.4764 16.3477 -0.522843 -0.319064 -0.790464  255 255 255 255
-41.971 -22.9826 8.45329 -0.386449 -0.23583 -0.891651  255 255 255 255
-51.554 -28.8306 15.4067 -0.509279 -0.310787 -0.802525  255 255 255 255
-43.1495 -23.7018 9.17172 -0.401556 -0.245049 -0.882442  255 255 255 255
-50.4798 -28.1752 14.4906 -0.495511 -0.302385 -0.814268  255 255 255 255
-44.3157 -24.4136 9.91761 -0.416503 -0.25417 -0.872882  255 255 255 255
-49.387 -27.5112 13.5982 -0.481521 -0.293847 -0.825707  255 255 255 255
-45.4697 -25.1207 10.692 -0.431311 -0.263207 -0.862956  255 255 255 255
-48.2087 -26.855 12.6979 -0.466776 -0.284849 -0.837246  255 255 255 255
-46.6279 -25.8903 11.5251 -0.446514 -0.272485 -0.852278  255 255 255 255
-47.2822 -26.6015 12.1043 -0.456678 -0.278687 -0.844854  255 255 255 255
-46.0455 -25.4863 11.096 -0.438772 -0.26776 -0.857778  255 255 255 255
-48.82 -27.1794 13.1543 -0.474334 -0.289462 -0.831396  255 255 255 255
-44.8941 -24.7672 10.301 -0.423921 -0.258697 -0.867967  255 255 255 255
-49.9362 -27.8441 14.0416 -0.488547 -0.298135 -0.820023  255 255 255 255
-43.7342 -24.0586 9.54124 -0.409049 -0.249622 -0.877706  255 255 255 255
-51.0189 -28.5041 14.9456 -0.50242 -0.306601 -0.808437  255 255 255 255
-42.5618 -23.3431 8.80906 -0.394022 -0.240451 -0.887091  255 255 255 255
-52.0851 -29.1547 15.8742 -0.516086 -0.314941 -0.796534  255 255 255 255
-41.3772 -22.6202 8.10444 -0.378838 -0.231186 -0.896122  255 255 255 255
-53.1353 -29.7956 16.8275 -0.529547 -0.323155 -0.784315  255 255 255 255
-40.1808 -21.8901 7.42761 -0.363503 -0.221827 -0.904797  255 255 255 255
-54.1691 -30.4265 17.8052 -0.542797 -0.331241 -0.771784  255 255 255 255
-38.9719 -21.1524 6.77826 -0.348008 -0.212371 -0.91312  255 255 255 255
-55.187 -31.0476 18.8078 -0.555845 -0.339203 -0.758932  255 255 255 255
-37.7259 -20.3921 6.14436 -0.332039 -0.202626 -0.921245  255 255 255 255
-56.2088 -31.6712 19.8563 -0.568941 -0.347196 -0.745494  255 255 255 255
-57.6666 -32.5608 21.4295 -0.587627 -0.358598 -0.725329  255 255 255 255
-58.609 -33.1359 22.4982 -0.599706 -0.36597 -0.711631  255 255 255 255
-59.5431 -33.7059 23.6002 -0.611678 -0.373276 -0.697506  255 255 255 255
-60.4599 -34.2654 24.7258 -0.623429 -0.380446 -0.683079  255 255 255 255
-61.3576 -34.8129 25.8728 -0.634934 -0.387467 -0.668377  255 255 255 255
-62.2356 -35.3472 27.0398 -0.646178 -0.394329 -0.65342  255 255 255 255
-63.0931 -35.8616 28.2218 -0.657119 -0.401006 -0.63827  255 255 255 255
-63.9287 -36.3198 29.3928 -0.667535 -0.407362 -0.623261  255 255 255 255
-21.8092 -10.6789 0.882507 -0.128027 -0.078128 -0.988689  255 255 255 255
-20.4861 -9.87148 0.663262 -0.111069 -0.06778 -0.991499  255 255 255 255
-19.1589 -9.06153 0.475069 -0.094057 -0.057398 -0.993911  255 255 255 255
-17.828 -8.24938 0.318057 -0.076999 -0.046988 -0.995923  255 255 255 255
-16.4915 -7.43379 0.192125 -0.059869 -0.036535 -0.997537  255 255 255 255
-15.1345 -6.60567 0.096647 -0.042475 -0.02592 -0.998761  255 255 255 255
-13.6674 -5.71038 0.030003 -0.023671 -0.014445 -0.999615  255 255 255 255
-64.7373 -36.5114 30.4009 -0.676178 -0.412637 -0.610339  255 255 255 255
-12.8781 -4.64294 0.005587 -0.010215 -0.006234 -0.999928  255 255 255 255
-12.3552 -5.49534 0.005559 -0.01019 -0.006218 -0.999929  255 255 255 255
-40.7183 61.176 35 0 0 1  255 255 255 255
-40.9405 -61.0276 35 0 0 1  255 255 255 255
-73.4952 0.133624 35 0 0 1  255 255 255 255
-64.4975 -35.2461 35 0 0 1  255 255 255 255
-64.3689 35.4804 35 0 0 1  255 255 255 255
-41.9806 60.3589 35 0 0 1  255 255 255 255
-42.1999 -60.2058 35 0 0 1  255 255 255 255
-65.8363 32.7009 35 0 0 1  255 255 255 255
-65.9548 -32.4613 35 0 0 1  255 255 255 255
-73.4477 -3.01724 35 0 0 1  255 255 255 255
-73.4363 3.2843 35 0 0 1  255 255 255 255
-62.9313 -37.9902 35 0 0 1  255 255 255 255
-62.7927 38.2188 35 0 0 1  255 255 255 255
-66.5303 31.308 35 0 0 1  255 255 255 255
-66.6437 -31.0659 35 0 0 1  255 255 255 255
-73.3871 -4.57221 35 0 0 1  255 255 255 255
-73.3699 4.83903 35 0 0 1  255 255 255 255
-62.1308 -39.3246 35 0 0 1  255 255 255 255
-61.9874 39.5502 35 0 0 1  255 255 255 255
-44.5234 58.4953 35 0 0 1  255 255 255 255
-44.7358 -58.333 35 0 0 1  255 255 255 255
-46.004 -57.2576 35 0 0 1  255 255 255 255
-45.7955 57.4245 35 0 0 1  255 255 255 255
-67.8034 28.4041 35 0 0 1  255 255 255 255
-67.9062 -28.1573 35 0 0 1  255 255 255 255
-73.1051 -7.73182 35 0 0 1  255 255 255 255
-73.0765 7.9976 35 0 0 1  255 255 255 255
-60.3621 -41.9595 35 0 0 1  255 255 255 255
-60.2091 42.1788 35 0 0 1  255 255 255 255
-68.3709 26.7972 35 0 0 1  255 255 255 255
-68.4679 -26.5484 35 0 0 1  255 255 255 255
-72.8266 -9.41862 35 0 0 1  255 255 255 255
-72.7919 9.68338 35 0 0 1  255 255 255 255
-59.3014 -43.3074 35 0 0 1  255 255 255 255
-59.1436 43.5228 35 0 0 1  255 255 255 255
-47.243 -56.2297 35 0 0 1  255 255 255 255
-47.0382 56.4011 35 0 0 1  255 255 255 255
-68.9351 25.2889 35 0 0 1  255 255 255 255
-69.0266 -25.038 35 0 0 1  255 255 255 255
-49.4363 54.2845 35 0 0 1  255 255 255 255
-49.6333 -54.1043 35 0 0 1  255 255 255 255
-72.5954 -11.0118 35 0 0 1  255 255 255 255
-72.5549 11.2757 35 0 0 1  255 255 255 255
-58.3323 -44.5922 35 0 0 1  255 255 255 255
-58.1698 44.8041 35 0 0 1  255 255 255 255
-69.9576 22.216 35 0 0 1  255 255 255 255
-70.0379 -21.9615 35 0 0 1  255 255 255 255
-50.6328 53.1438 35 0 0 1  255 255 255 255
-50.8257 -52.9593 35 0 0 1  255 255 255 255
-72.0128 -14.1998 35 0 0 1  255 255 255 255
-71.9607 14.4615 35 0 0 1  255 255 255 255
-56.1146 47.3128 35 0 0 1  255 255 255 255
-56.2863 -47.1084 35 0 0 1  255 255 255 255
-70.4244 20.6796 35 0 0 1  255 255 255 255
-70.4991 -20.4234 35 0 0 1  255 255 255 255
-71.6828 -15.7709 35 0 0 1  255 255 255 255
-71.625 16.0315 35 0 0 1  255 255 255 255
-55.2412 -48.3267 35 0 0 1  255 255 255 255
-55.0651 48.5273 35 0 0 1  255 255 255 255
-53.08 -50.6896 35 0 0 1  255 255 255 255
-52.8953 50.8823 35 0 0 1  255 255 255 255
-70.8582 19.1354 35 0 0 1  255 255 255 255
-70.9273 -18.8776 35 0 0 1  255 255 255 255
-54.1755 -49.5217 35 0 0 1  255 255 255 255
-53.995 49.7184 35 0 0 1  255 255 255 255
-51.9696 -51.841 35 0 0 1  255 255 255 255
-51.7807 52.0297 35 0 0 1  255 255 255 255
-71.263 17.5887 35 0 0 1  255 255 255 255
-71.3264 -17.3295 35 0 0 1  255 255 255 255
-57.3117 -45.8831 35 0 0 1  255 255 255 255
-57.1444 46.0912 35 0 0 1  255 255 255 255
-72.2771 12.8959 35 0 0 1  255 255 255 255
-72.3235 -12.633 35 0 0 1  255 255 255 255
-69.5637 -23.4863 35 0 0 1  255 255 255 255
-69.4778 23.7391 35 0 0 1  255 255 255 255
-48.4632 -55.188 35 0 0 1  255 255 255 255
-48.2622 55.3639 35 0 0 1  255 255 255 255
-73.4783 -1.43827 35 0 0 1  255 255 255 255
-73.4726 1.70545 35 0 0 1  255 255 255 255
-65.1041 34.0986 35 0 0 1  255 255 255 255
-65.2277 -33.8617 35 0 0 1  255 255 255 255
-63.586 36.8516 35 0 0 1  255 255 255 255
-63.7196 -36.6201 35 0 0 1  255 255 255 255
-43.2422 59.4304 35 0 0 1  255 255 255 255
-43.458 -59.2727 35 0 0 1  255 255 255 255
-67.1592 29.8604 35 0 0 1  255 255 255 255
-67.2673 -29.616 35 0 0 1  255 255 255 255
-73.2412 -6.14407 35 0 0 1  255 255 255 255
-73.2184 6.41035 35 0 0 1  255 255 255 255
-61.2459 -40.6322 35 0 0 1  255 255 255 255
-61.0978 40.8546 35 0 0 1  255 255 255 255
-39.8932 -61.7328 35 0 0 1  255 255 255 255
-39.6684 61.8775 35 0 0 1  255 255 255 255
-71.9009 -18.2947 35 0 0 1  255 255 255 255
-71.8339 18.556 35 0 0 1  255 255 255 255
-54.1967 -50.6394 35 0 0 1  255 255 255 255
-54.0122 50.8361 35 0 0 1  255 255 255 255
-55.1054 49.6397 35 0 0 1  255 255 255 255
-55.2855 -49.439 35 0 0 1  255 255 255 255
-38.6152 62.2232 33.5 0.926588 0.376078 0  255 255 255 255
-39.4243 63.0422 33.5 0.387134 0.922023 0  255 255 255 255
-38.6167 61.0913 34 0.925571 -0.378573 0  255 255 255 255
-40.1107 63.1554 34 -0.070415 0.997518 0  255 255 255 255
-38.6167 61.0913 33 0.925571 -0.378573 0  255 255 255 255
-40.1107 63.1554 33 -0.070415 0.997518 0  255 255 255 255
-12.2793 5.42262 2.14705 -0.933781 0.357844 0  255 255 255 255
-12.4683 4.92934 2.52511 -0.933781 0.357844 0  255 255 255 255
-12.47 4.92479 1.75231 -0.933781 0.357844 0  255 255 255 255
-12.6456 -5.5758 1.48591 -0.001725 -0.000761 0.999998  255 255 255 255
-11.827 -6.07166 1.48874 -0.0079 -0.004056 0.999961  255 255 255 255
-12.6254 -6.46471 1.48611 0.002629 0.001346 0.999996  255 255 255 255
-11.2493 -6.33442 1.49314 -0.012193 -0.006866 0.999902  255 255 255 255
-13.3665 -5.50225 1.48739 0.006056 0.002493 0.999979  255 255 255 255
-12.3442 -4.8846 1.48892 -0.008492 -0.00336 0.999958  255 255 255 255
-12.4553 -7.62328 0.650739 0.564874 -0.825177 0  255 255 255 255
-11.2451 -6.79487 0.749899 0.564874 -0.825177 0  255 255 255 255
-14.0099 -8.68748 0.489806 0.564874 -0.825177 0  255 255 255 255
-13.7361 -8.50009 0.430168 0.564874 -0.825177 0  255 255 255 255
-12.5977 3.19437 2.25 -0.357844 -0.933781 0  255 255 255 255
-12.5977 3.19437 0.75 -0.357844 -0.933781 0  255 255 255 255
-0.015845 -0.019883 0 0 0 -1  255 255 255 255
-5.59829 2.91158 0 0 0 -1  255 255 255 255
-5.45806 -3.18001 0 0 0 -1  255 255 255 255
-8.22283 4.50676 0 0 0 -1  255 255 255 255
-0.15447 6.21242 0 0 0 -1  255 255 255 255
-0.01144 -6.25438 0 0 0 -1  255 255 255 255
-8.24905 -4.52113 0 0 0 -1  255 255 255 255
5.95941 -2.8128 0 0 0 -1  255 255 255 255
5.43802 3.75029 0 0 0 -1  255 255 255 255
-8.58618 0.591434 0 0 0 -1  255 255 255 255
-5.19208 6.87501 0 0 0 -1  255 255 255 255
-9.56697 5.17834 0 0 0 -1  255 255 255 255
-5.30594 -6.96679 0 0 0 -1  255 255 255 255
-9.92722 3.09763 0 0 0 -1  255 255 255 255
-3.70666 -0.136563 0 0 0 -1  255 255 255 255
-1.97354 2.9356 0 0 0 -1  255 255 255 255
4.35424 -6.82834 0 0 0 -1  255 255 255 255
-9.51717 -1.98497 0 0 0 -1  255 255 255 255
-1.94892 -3.11059 0 0 0 -1  255 255 255 255
8.33976 0.590088 0 0 0 -1  255 255 255 255
3.77256 7.36354 0 0 0 -1  255 255 255 255
1.67723 3.13676 0 0 0 -1  255 255 255 255
1.97768 -3.27593 0 0 0 -1  255 255 255 255
-10.8494 4.29162 0 0 0 -1  255 255 255 255
-7.91158 6.75516 0 0 0 -1  255 255 255 255
-2.54431 -8.68054 0 0 0 -1  255 255 255 255
-2.4352 9.22683 0 0 0 -1  255 255 255 255
-9.58887 -5.23238 0 0 0 -1  255 255 255 255
3.37841 0.14689 0 0 0 -1  255 255 255 255
-6.37549 -0.534196 0 0 0 -1  255 255 255 255
-7.46568 2.25736 0 0 0 -1  255 255 255 255
7.26966 -5.32402 0 0 0 -1  255 255 255 255
1.90049 -9.02392 0 0 0 -1  255 255 255 255
-5.83977 4.95652 0 0 0 -1  255 255 255 255
-3.89062 4.69486 0 0 0 -1  255 255 255 255
1.06721 8.8187 0 0 0 -1  255 255 255 255
8.49328 -2.80534 0 0 0 -1  255 255 255 255
8.20038 3.95639 0 0 0 -1  255 255 255 255
-7.43528 -2.69348 0 0 0 -1  255 255 255 255
6.83775 6.41715 0 0 0 -1  255 255 255 255
-7.981 -6.58789 0 0 0 -1  255 255 255 255
-3.8611 -4.93606 0 0 0 -1  255 255 255 255
-9.61018 -3.65057 0 0 0 -1  255 255 255 255
-6.47836 -5.01032 0 0 0 -1  255 255 255 255
-6.13553 1.24721 0 0 0 -1  255 255 255 255
-3.64536 2.21951 0 0 0 -1  255 255 255 255
-10.2314 5.74359 0 0 0 -1  255 255 255 255
-1.82889 1.00081 0 0 0 -1  255 255 255 255
-3.66225 -2.15032 0 0 0 -1  255 255 255 255
5.86261 1.031 0 0 0 -1  255 255 255 255
-9.33824 4.10004 0 0 0 -1  255 255 255 255
-10.5011 -0.344646 0 0 0 -1  255 255 255 255
-6.94484 3.79777 0 0 0 -1  255 255 255 255
-0.288426 -10.0143 0 0 0 -1  255 255 255 255
-10.7306 -2.77778 0 0 0 -1  255 255 255 255
-4.59518 9.1504 0 0 0 -1  255 255 255 255
-1.83863 -1.12331 0 0 0 -1  255 255 255 255
3.20219 5.01278 0 0 0 -1  255 255 255 255
-2.97059 6.74904 0 0 0 -1  255 255 255 255
-4.56965 -9.231 0 0 0 -1  255 255 255 255
2.30359 -5.53587 0 0 0 -1  255 255 255 255
4.22434 -9.21018 0 0 0 -1  255 255 255 255
6.60777 -7.78692 0 0 0 -1  255 255 255 255
0.00118 -2.18659 0 0 0 -1  255 255 255 255
-8.18178 -1.04798 0 0 0 -1  255 255 255 255
10.2513 -0.706847 0 0 0 -1  255 255 255 255
-9.43653 6.60573 0 0 0 -1  255 255 255 255
4.31581 -4.4239 0 0 0 -1  255 255 255 255
-6.64039 8.15482 0 0 0 -1  255 255 255 255
3.42683 9.62927 0 0 0 -1  255 255 255 255
10.1565 2.06945 0 0 0 -1  255 255 255 255
-8.26007 3.37647 0 0 0 -1  255 255 255 255
-2.1938 -6.45902 0 0 0 -1  255 255 255 255
-8.49967 5.61583 0 0 0 -1  255 255 255 255
-0.073311 2.05732 0 0 0 -1  255 255 255 255
5.68061 8.4179 0 0 0 -1  255 255 255 255
-0.542233 10.4038 0 0 0 -1  255 255 255 255
-10.1582 1.40154 0 0 0 -1  255 255 255 255
-1.80026 5.02173 0 0 0 -1  255 255 255 255
-7.32812 5.32012 0 0 0 -1  255 255 255 255
0.040413 -4.33189 0 0 0 -1  255 255 255 255
7.28458 -1.24559 0 0 0 -1  255 255 255 255
1.83619 7.26905 0 0 0 -1  255 255 255 255
3.5951 2.2635 0 0 0 -1  255 255 255 255
1.80716 -1.03808 0 0 0 -1  255 255 255 255
9.27105 -4.51691 0 0 0 -1  255 255 255 255
-8.8409 2.02064 0 0 0 -1  255 255 255 255
3.7656 -2.07044 0 0 0 -1  255 255 255 255
-6.64529 -8.02273 0 0 0 -1  255 255 255 255
-0.238803 3.88426 0 0 0 -1  255 255 255 255
1.7465 1.13504 0 0 0 -1  255 255 255 255
-10.054 -5.92021 0 0 0 -1  255 255 255 255
8.87968 5.47321 0 0 0 -1  255 255 255 255
-6.92106 -3.89814 0 0 0 -1  255 255 255 255
-10.8945 2.22665 0 0 0 -1  255 255 255 255
-6.32478 6.54237 0 0 0 -1  255 255 255 255
-0.51835 8.20124 0 0 0 -1  255 255 255 255
-10.5414 -5.099 0 0 0 -1  255 255 255 255
1.39926 5.14016 0 0 0 -1  255 255 255 255
-0.628474 -8.41669 0 0 0 -1  255 255 255 255
-4.73757 0.804886 0 0 0 -1  255 255 255 255
-5.11937 -1.68988 0 0 0 -1  255 255 255 255
-8.3722 -3.14767 0 0 0 -1  255 255 255 255
7.3755 2.35507 0 0 0 -1  255 255 255 255
-4.94976 4.31797 0 0 0 -1  255 255 255 255
5.40244 -0.313437 0 0 0 -1  255 255 255 255
-10.9803 5.09051 0 0 0 -1  255 255 255 255
5.52042 5.40138 0 0 0 -1  255 255 255 255
-4.02195 3.39783 0 0 0 -1  255 255 255 255
-3.36552 -7.54491 0 0 0 -1  255 255 255 255
7.1031 -3.67145 0 0 0 -1  255 255 255 255
-10.6267 -1.45624 0 0 0 -1  255 255 255 255
-10.9222 -4.0363 0 0 0 -1  255 255 255 255
-2.01149 -4.887 0 0 0 -1  255 255 255 255
-9.03222 -6.25177 0 0 0 -1  255 255 255 255
-2.48252 -10.71 0 0 0 -1  255 255 255 255
6.76306 4.66192 0 0 0 -1  255 255 255 255
1.5504 -7.19786 0 0 0 -1  255 255 255 255
-8.97435 4.67826 0 0 0 -1  255 255 255 255
-7.23618 0.389215 0 0 0 -1  255 255 255 255
-4.08289 -3.47078 0 0 0 -1  255 255 255 255
2.89804 -10.4584 0 0 0 -1  255 255 255 255
-3.74798 10.27 0 0 0 -1  255 255 255 255
-10.2368 4.88741 0 0 0 -1  255 255 255 255
-4.85279 5.62082 0 0 0 -1  255 255 255 255
8.22782 -6.88185 0 0 0 -1  255 255 255 255
-5.16212 -4.58216 0 0 0 -1  255 255 255 255
5.51596 -5.69076 0 0 0 -1  255 255 255 255
1.24661 -10.6449 0 0 0 -1  255 255 255 255
-6.48389 2.30687 0 0 0 -1  255 255 255 255
-5.1054 -0.552044 0 0 0 -1  255 255 255 255
10.4063 -3.36811 0 0 0 -1  255 255 255 255
1.62882 11.1609 0 0 0 -1  255 255 255 255
-6.26401 -2.21327 0 0 0 -1  255 255 255 255
-7.53672 -5.46253 0 0 0 -1  255 255 255 255
7.6095 7.91473 0 0 0 -1  255 255 255 255
9.97943 4.66811 0 0 0 -1  255 255 255 255
3.13883 -7.95652 0 0 0 -1  255 255 255 255
-3.98076 7.83563 0 0 0 -1  255 255 255 255
-9.17432 -4.49554 0 0 0 -1  255 255 255 255
-9.38525 -0.813625 0 0 0 -1  255 255 255 255
10.9797 0.751627 0 0 0 -1  255 255 255 255
5.7126 -9.38308 0 0 0 -1  255 255 255 255
-5.31866 1.92653 0 0 0 -1  255 255 255 255
-11.2273 3.18075 0 0 0 -1  255 255 255 255
-8.5937 -5.42521 0 0 0 -1  255 255 255 255
-8.49573 -2.28639 0 0 0 -1  255 255 255 255
-1.25557 7.05355 0 0 0 -1  255 255 255 255
-6.64784 -6.5464 0 0 0 -1  255 255 255 255
5.25136 9.7373 0 0 0 -1  255 255 255 255
5.32978 7.01746 0 0 0 -1  255 255 255 255
-11.2607 0.844183 0 0 0 -1  255 255 255 255
-7.05198 -1.47728 0 0 0 -1  255 255 255 255
-11.7076 5.30242 0 0 0 -1  255 255 255 255
5.80648 -4.20944 0 0 0 -1  255 255 255 255
-11.37 -2.13989 0 0 0 -1  255 255 255 255
-2.69868 4.03422 0 0 0 -1  255 255 255 255
-4.77071 -5.75376 0 0 0 -1  255 255 255 255
-7.20474 1.44203 0 0 0 -1  255 255 255 255
-3.98175 -10.5466 0 0 0 -1  255 255 255 255
-5.91936 3.89219 0 0 0 -1  255 255 255 255
8.73321 -0.838854 0 0 0 -1  255 255 255 255
-11.3254 -3.30824 0 0 0 -1  255 255 255 255
-11.7602 -3.64927 0 0 0 -1  255 255 255 255
2.68684 8.55856 0 0 0 -1  255 255 255 255
-7.81504 3.89558 0 0 0 -1  255 255 255 255
-9.66281 5.84927 0 0 0 -1  255 255 255 255
1.45082 -4.39603 0 0 0 -1  255 255 255 255
-10.0602 4.21034 0 0 0 -1  255 255 255 255
-6.17342 9.31631 0 0 0 -1  255 255 255 255
11.0811 -1.86855 0 0 0 -1  255 255 255 255
-3.31569 1.08366 0 0 0 -1  255 255 255 255
3.44705 -3.38575 0 0 0 -1  255 255 255 255
-7.46623 4.53264 0 0 0 -1  255 255 255 255
-7.76158 7.86375 0 0 0 -1  255 255 255 255
-2.51422 2.00693 0 0 0 -1  255 255 255 255
-6.00113 -9.38707 0 0 0 -1  255 255 255 255
-2.06593 10.6915 0 0 0 -1  255 255 255 255
10.793 3.28422 0 0 0 -1  255 255 255 255
-2.49113 -0.055592 0 0 0 -1  255 255 255 255
-9.86858 -2.82673 0 0 0 -1  255 255 255 255
3.8465 3.63928 0 0 0 -1  255 255 255 255
2.57579 6.19033 0 0 0 -1  255 255 255 255
6.99803 0.035138 0 0 0 -1  255 255 255 255
-3.05371 -1.1308 0 0 0 -1  255 255 255 255
-10.6182 5.96903 0 0 0 -1  255 255 255 255
-10.1356 6.26363 0 0 0 -1  255 255 255 255
-1.14552 -11.1498 0 0 0 -1  255 255 255 255
-9.63531 4.61088 0 0 0 -1  255 255 255 255
-5.42231 8.12011 0 0 0 -1  255 255 255 255
-3.73461 5.86224 0 0 0 -1  255 255 255 255
-2.73208 -4.15439 0 0 0 -1  255 255 255 255
0.221355 11.3665 0 0 0 -1  255 255 255 255
5.01087 -8.05861 0 0 0 -1  255 255 255 255
4.30461 0.847106 0 0 0 -1  255 255 255 255
-2.46983 -2.12851 0 0 0 -1  255 255 255 255
-4.1817 -1.27486 0 0 0 -1  255 255 255 255
-9.12866 3.18723 0 0 0 -1  255 255 255 255
-10.0278 -4.30814 0 0 0 -1  255 255 255 255
-5.85977 0.276662 0 0 0 -1  255 255 255 255
9.56001 -6.0213 0 0 0 -1  255 255 255 255
-11.5454 -0.688383 0 0 0 -1  255 255 255 255
-9.68734 -6.70984 0 0 0 -1  255 0 0 255
-1.2989 2.01248 0 0 0 -1  255 255 255 255
-8.64009 3.96186 0 0 0 -1  255 255 255 255
7.83063 -8.33385 0 0 0 -1  255 255 255 255
0.631067 -8.83472 0 0 0 -1  255 255 255 255
8.6718 1.98081 0 0 0 -1  255 255 255 255
-3.6956 -6.21747 0 0 0 -1  255 255 255 255
-5.49316 -8.23669 0 0 0 -1  255 255 255 255
2.96663 10.9165 0 0 0 -1  255 255 255 255
8.59649 6.73441 0 0 0 -1  255 255 255 255
-6.02741 -4.02329 0 0 0 -1  255 255 255 255
3.6526 -5.64718 0 0 0 -1  255 255 255 255
-1.26847 -2.14676 0 0 0 -1  255 255 255 255
-11.8418 3.98595 0 0 0 -1  255 255 255 255
-9.01969 5.3769 0 0 0 -1  255 255 255 255
-8.02755 -7.89814 0 0 0 -1  255 255 255 255
9.67052 0.494299 0 0 0 -1  255 255 255 255
-0.624725 -1.10607 0 0 0 -1  255 255 255 255
6.15695 2.34379 0 0 0 -1  255 255 255 255
-4.60276 -2.59085 0 0 0 -1  255 255 255 255
-9.64752 0.406083 0 0 0 -1  255 255 255 255
4.43198 -10.471 0 0 0 -1  255 255 255 255
-8.73079 7.36205 0 0 0 -1  255 255 255 255
0.696671 -3.27436 0 0 0 -1  255 255 255 255
4.28478 8.63568 0 0 0 -1  255 255 255 255
-1.23783 -0.04592 0 0 0 -1  255 255 255 255
-0.814855 -5.28312 0 0 0 -1  255 255 255 255
-0.649078 1.01096 0 0 0 -1  255 255 255 255
-9.81906 2.29104 0 0 0 -1  255 255 255 255
-7.03394 7.20331 0 0 0 -1  255 255 255 255
-2.82395 5.39479 0 0 0 -1  255 255 255 255
-7.96636 5.13032 0 0 0 -1  255 255 255 255
4.13938 5.93539 0 0 0 -1  255 255 255 255
2.86797 -6.69555 0 0 0 -1  255 255 255 255
-6.40355 -3.14893 0 0 0 -1  255 255 255 255
0.496135 7.36099 0 0 0 -1  255 255 255 255
-1.63106 -9.54677 0 0 0 -1  255 255 255 255
-8.20694 1.57646 0 0 0 -1  255 255 255 255
-7.89127 5.90382 0 0 0 -1  255 255 255 255
0.075348 -11.3509 0 0 0 -1  255 255 255 255
-6.0489 7.34178 0 0 0 -1  255 255 255 255
-6.43848 3.21049 0 0 0 -1  255 255 255 255
2.77932 -4.40444 0 0 0 -1  255 255 255 255
6.72712 9.00456 0 0 0 -1  255 255 255 255
-5.17591 10.1903 0 0 0 -1  255 255 255 255
-5.22825 -10.2523 0 0 0 -1  255 255 255 255
2.32752 4.09533 0 0 0 -1  255 255 255 255
-1.74147 -7.70848 0 0 0 -1  255 255 255 255
-0.520659 5.05423 0 0 0 -1  255 255 255 255
-9.11332 -2.91146 0 0 0 -1  255 255 255 255
-10.345 -2.20868 0 0 0 -1  255 255 255 255
11.3007 2.12397 0 0 0 -1  255 255 255 255
-10.408 3.55597 0 0 0 -1  255 255 255 255
-0.636054 -3.19092 0 0 0 -1  255 255 255 255
1.06968 -5.64899 0 0 0 -1  255 255 255 255
6.62878 -6.46679 0 0 0 -1  255 255 255 255
-3.61294 -8.6404 0 0 0 -1  255 255 255 255
1.26492 -2.162 0 0 0 -1  255 255 255 255
0.588342 -1.1133 0 0 0 -1  255 255 255 255
-3.50456 8.89833 0 0 0 -1  255 255 255 255
11.4654 -0.692588 0 0 0 -1  255 255 255 255
6.90184 -2.42166 0 0 0 -1  255 255 255 255
0.557808 1.05625 0 0 0 -1  255 255 255 255
1.1744 0.030667 0 0 0 -1  255 255 255 255
-7.50203 -0.592775 0 0 0 -1  255 255 255 255
-5.76214 -5.92298 0 0 0 -1  255 255 255 255
-7.39873 -4.61749 0 0 0 -1  255 255 255 255
-7.85112 -3.80753 0 0 0 -1  255 255 255 255
-4.70618 2.60459 0 0 0 -1  255 255 255 255
-1.252 9.22153 0 0 0 -1  255 255 255 255
4.69092 -3.12532 0 0 0 -1  255 255 255 255
2.95412 1.16985 0 0 0 -1  255 255 255 255
-8.84593 -7.28715 0 0 0 -1  255 255 255 255
-1.3346 3.99595 0 0 0 -1  255 255 255 255
8.13051 -4.37751 0 0 0 -1  255 255 255 255
2.9912 -0.947676 0 0 0 -1  255 255 255 255
7.66672 5.46758 0 0 0 -1  255 255 255 255
6.78678 3.41349 0 0 0 -1  255 255 255 255
4.24551 10.6643 0 0 0 -1  255 255 255 255
2.07324 9.88912 0 0 0 -1  255 255 255 255
0.427428 3.05276 0 0 0 -1  255 255 255 255
-8.86558 -1.51021 0 0 0 -1  255 255 255 255
4.8673 2.31249 0 0 0 -1  255 255 255 255
3.02231 -9.26171 0 0 0 -1  255 255 255 255
-0.748622 2.98973 0 0 0 -1  255 255 255 255
-11.5796 4.6936 0 0 0 -1  255 255 255 255
-0.059952 9.36759 0 0 0 -1  255 255 255 255
5.62352 -6.96628 0 0 0 -1  255 255 255 255
0.101975 -7.50008 0 0 0 -1  255 255 255 255
-8.21252 2.60143 0 0 0 -1  255 255 255 255
-7.37286 3.1904 0 0 0 -1  255 255 255 255
-2.97919 -3.00292 0 0 0 -1  255 255 255 255
1.23058 6.43459 0 0 0 -1  255 255 255 255
10.4365 -4.86874 0 0 0 -1  255 255 255 255
2.54227 -2.14665 0 0 0 -1  255 255 255 255
9.79304 -1.91754 0 0 0 -1  255 255 255 255
-2.29789 8.03367 0 0 0 -1  255 255 255 255
-0.954977 -6.86829 0 0 0 -1  255 255 255 255
-10.0325 6.75278 0 0 0 -1  255 0 0 255
7.02094 -9.05645 0 0 0 -1  255 255 255 255
1.1033 2.0986 0 0 0 -1  255 255 255 255
-9.19311 1.22056 0 0 0 -1  255 255 255 255
6.13812 -1.52281 0 0 0 -1  255 255 255 255
-8.82746 -3.77891 0 0 0 -1  255 255 255 255
-6.68704 4.6907 0 0 0 -1  255 255 255 255
-2.80121 -5.59445 0 0 0 -1  255 255 255 255
-0.982869 11.4517 0 0 0 -1  255 255 255 255
-5.80535 5.81304 0 0 0 -1  255 255 255 255
-10.5938 -5.82137 0 0 0 -1  255 255 255 255
9.55556 3.24058 0 0 0 -1  255 255 255 255
2.31445 2.1557 0 0 0 -1  255 255 255 255
-1.58758 5.91429 0 0 0 -1  255 255 255 255
2.34197 0.08278 0 0 0 -1  255 255 255 255
-2.97075 2.91882 0 0 0 -1  255 255 255 255
2.75216 3.05811 0 0 0 -1  255 255 255 255
9.79425 6.08027 0 0 0 -1  255 255 255 255
-3.07854 -9.63779 0 0 0 -1  255 255 255 255
-6.53347 5.6132 0 0 0 -1  255 255 255 255
-4.143 6.66373 0 0 0 -1  255 255 255 255
6.46535 7.68743 0 0 0 -1  255 255 255 255
-8.66473 -0.293639 0 0 0 -1  255 255 255 255
4.89252 -1.83099 0 0 0 -1  255 255 255 255
-10.5724 5.45601 0 0 0 -1  255 255 255 255
-9.7826 3.6509 0 0 0 -1  255 255 255 255
-10.39 -3.44188 0 0 0 -1  255 255 255 255
8.51544 -5.56983 0 0 0 -1  255 255 255 255
-1.34066 -4.11209 0 0 0 -1  255 255 255 255
-8.59097 6.37001 0 0 0 -1  255 255 255 255
4.12247 -0.694758 0 0 0 -1  255 255 255 255
-11.7207 2.17432 0 0 0 -1  255 0 0 255
-7.41288 8.83157 0 0 0 -1  255 255 255 255
-10.5216 2.87659 0 0 0 -1  255 255 255 255
-4.36956 1.72622 0 0 0 -1  255 255 255 255
0.731408 10.1678 0 0 0 -1  255 255 255 255
-9.076 5.97748 0 0 0 -1  255 255 255 255
0.84533 4.06058 0 0 0 -1  255 255 255 255
-10.0209 5.3678 0 0 0 -1  255 255 255 255
4.4293 4.74782 0 0 0 -1  255 255 255 255
-7.80851 0.999784 0 0 0 -1  255 255 255 255
-5.03911 3.42483 0 0 0 -1  255 255 255 255
-5.94985 -1.37948 0 0 0 -1  255 255 255 255
-4.50668 -8.10775 0 0 0 -1  255 255 255 255
-7.86537 -1.84046 0 0 0 -1  255 255 255 255
-8.50477 5.01024 0 0 0 -1  255 255 255 255
-7.17053 6.223 0 0 0 -1  255 255 255 255
-7.32542 -7.26379 0 0 0 -1  255 255 255 255
7.40433 1.15979 0 0 0 -1  255 255 255 255
-40.9924 59.1914 33.5 0.569339 -0.822103 0  255 255 255 255
-42.3997 58.1916 33.5 0.588885 -0.808217 0  255 255 255 255
-43.6811 57.236 33.5 0.606682 -0.794944 0  255 255 255 255
-44.9238 56.2659 33.5 0.623942 -0.78147 0  255 255 255 255
-46.1421 55.2712 33.5 0.640863 -0.767655 0  255 255 255 255
-47.3379 54.2505 33.5 0.657471 -0.75348 0  255 255 255 255
-48.5111 53.2041 33.5 0.673765 -0.738946 0  255 255 255 255
-49.6611 52.1323 33.5 0.689737 -0.72406 0  255 255 255 255
-50.7874 51.0357 33.5 0.70538 -0.708829 0  255 255 255 255
-51.8895 49.9147 33.5 0.720687 -0.69326 0  255 255 255 255
-52.9669 48.77 33.5 0.735651 -0.677361 0  255 255 255 255
-54.019 47.602 33.5 0.750264 -0.661138 0  255 255 255 255
-55.0454 46.4113 33.5 0.764519 -0.644601 0  255 255 255 255
-56.0455 45.1985 33.5 0.77841 -0.627756 0  255 255 255 255
-57.0189 43.9641 33.5 0.79193 -0.610612 0  255 255 255 255
-57.9652 42.7088 33.5 0.805072 -0.593177 0  255 255 255 255
-58.8838 41.4331 33.5 0.81783 -0.57546 0  255 255 255 255
-59.7743 40.1377 33.5 0.830199 -0.557467 0  255 255 255 255
-60.6364 38.8231 33.5 0.842172 -0.53921 0  255 255 255 255
-61.4695 37.49 33.5 0.853743 -0.520695 0  255 255 255 255
-62.2733 36.1391 33.5 0.864907 -0.501932 0  255 255 255 255
-63.0475 34.7709 33.5 0.875659 -0.482929 0  255 255 255 255
-63.7916 33.3862 33.5 0.885994 -0.463697 0  255 255 255 255
-64.5053 31.9855 33.5 0.895906 -0.444243 0  255 255 255 255
-65.1882 30.5696 33.5 0.905392 -0.424577 0  255 255 255 255
-65.8401 29.1391 33.5 0.914445 -0.40471 0  255 255 255 255
-66.4605 27.6947 33.5 0.923063 -0.384649 0  255 255 255 255
-67.0493 26.2371 33.5 0.931241 -0.364405 0  255 255 255 255
-67.6062 24.7671 33.5 0.938974 -0.343987 0  255 255 255 255
-68.1308 23.2852 33.5 0.946261 -0.323405 0  255 255 255 255
-68.6229 21.7922 33.5 0.953096 -0.302669 0  255 255 255 255
-69.0823 20.2888 33.5 0.959476 -0.281789 0  255 255 255 255
-69.5088 18.7758 33.5 0.9654 -0.260774 0  255 255 255 255
-69.9021 17.2538 33.5 0.970863 -0.239636 0  255 255 255 255
-70.2622 15.7235 33.5 0.975863 -0.218382 0  255 255 255 255
-70.5887 14.1858 33.5 0.980398 -0.197025 0  255 255 255 255
-70.8816 12.6413 33.5 0.984466 -0.175574 0  255 255 255 255
-71.1407 11.0908 33.5 0.988065 -0.154039 0  255 255 255 255
-71.3658 9.53504 33.5 0.991192 -0.132431 0  255 255 255 255
-71.557 7.9747 33.5 0.993847 -0.11076 0  255 255 255 255
-71.7141 6.41055 33.5 0.996028 -0.089035 0  255 255 255 255
-71.8369 4.84336 33.5 0.997735 -0.067269 0  255 255 255 255
-71.9255 3.27385 33.5 0.998966 -0.04547 0  255 255 255 255
-71.9799 1.70278 33.5 0.99972 -0.02365 0  255 255 255 255
-71.9999 0.130905 33.5 0.999998 -0.001818 0  255 255 255 255
-71.9856 -1.44104 33.5 0.9998 0.020014 0  255 255 255 255
-71.937 -3.01229 33.5 0.999124 0.041837 0  255 255 255 255
-71.854 -4.58211 33.5 0.997973 0.06364 0  255 255 255 255
-71.7369 -6.14974 33.5 0.996346 0.085413 0  255 255 255 255
-71.5855 -7.71444 33.5 0.994243 0.107145 0  255 255 255 255
-71.4 -9.27547 33.5 0.991667 0.128826 0  255 255 255 255
-71.1805 -10.8321 33.5 0.988618 0.150445 0  255 255 255 255
-70.9271 -12.3835 33.5 0.985098 0.171993 0  255 255 255 255
-70.6398 -13.929 33.5 0.981108 0.193459 0  255 255 255 255
-70.3189 -15.4679 33.5 0.976651 0.214833 0  255 255 255 255
-69.9644 -16.9995 33.5 0.971728 0.236104 0  255 255 255 255
-69.5766 -18.5229 33.5 0.966342 0.257262 0  255 255 255 255
-69.1556 -20.0375 33.5 0.960495 0.278298 0  255 255 255 255
-68.7017 -21.5425 33.5 0.95419 0.299202 0  255 255 255 255
-68.215 -23.0373 33.5 0.94743 0.319962 0  255 255 255 255
-67.6958 -24.5211 33.5 0.940219 0.34057 0  255 255 255 255
-67.1443 -25.9932 33.5 0.93256 0.361016 0  255 255 255 255
-66.5608 -27.4529 33.5 0.924456 0.38129 0  255 255 255 255
-65.9456 -28.8995 33.5 0.915911 0.401382 0  255 255 255 255
-65.2989 -30.3323 33.5 0.90693 0.421282 0  255 255 255 255
-64.6211 -31.7507 33.5 0.897516 0.440982 0  255 255 255 255
-63.9126 -33.154 33.5 0.887674 0.460472 0  255 255 255 255
-63.1735 -34.5414 33.5 0.87741 0.479742 0  255 255 255 255
-62.4043 -35.9124 33.5 0.866727 0.498783 0  255 255 255 255
-61.6054 -37.2662 33.5 0.855631 0.517587 0  255 255 255 255
-60.7771 -38.6023 33.5 0.844127 0.536144 0  255 255 255 255
-59.9199 -39.92 33.5 0.83222 0.554445 0  255 255 255 255
-59.034 -41.2187 33.5 0.819917 0.572482 0  255 255 255 255
-58.1201 -42.4977 33.5 0.807223 0.590246 0  255 255 255 255
-57.1784 -43.7565 33.5 0.794145 0.607729 0  255 255 255 255
-56.2095 -44.9944 33.5 0.780687 0.624922 0  255 255 255 255
-55.2138 -46.2108 33.5 0.766858 0.641817 0  255 255 255 255
-54.1917 -47.4052 33.5 0.752663 0.658406 0  255 255 255 255
-53.1439 -48.577 33.5 0.738109 0.674681 0  255 255 255 255
-52.0707 -49.7257 33.5 0.723204 0.690635 0  255 255 255 255
-50.9726 -50.8507 33.5 0.707953 0.706259 0  255 255 255 255
-49.8503 -51.9514 33.5 0.692365 0.721547 0  255 255 255 255
-48.7042 -53.0274 33.5 0.676447 0.736491 0  255 255 255 255
-47.5349 -54.078 33.5 0.660207 0.751084 0  255 255 255 255
-46.343 -55.1029 33.5 0.643652 0.765318 0  255 255 255 255
-45.1291 -56.1014 33.5 0.626793 0.779185 0  255 255 255 255
-43.8948 -57.0723 33.5 0.60965 0.792671 0  255 255 255 255
-42.6456 -58.0117 33.5 0.592299 0.805718 0  255 255 255 255
-41.4118 -58.8988 33.5 0.575163 0.818039 0  255 255 255 255
-40.3693 -59.6181 33.5 0.560685 0.828029 0  255 255 255 255
-39.9704 59.8863 34 0.555145 -0.831754 0  255 255 255 255
-39.9767 -59.8821 34.25 0.555232 0.831695 0  255 255 255 255
-39.9704 59.8863 33 0.555145 -0.831754 0  255 255 255 255
-39.9767 -59.8821 32.75 0.555232 0.831695 0  255 255 255 255
-39.1512 -62.5565 33.5 0.7185 -0.695527 0  255 255 255 255
-38.7292 -61.4854 33.5 0.999828 0.018561 0  255 255 255 255
-40.1872 -63.0127 34 0.027826 -0.999613 0  255 255 255 255
-38.9031 -60.8119 34 0.883948 0.467586 0  255 255 255 255
-38.9031 -60.8119 33 0.883948 0.467586 0  255 255 255 255
-40.1872 -63.0127 33 0.027826 -0.999613 0  255 255 255 255
-40.2713 -61.5095 32 0 0 -1  255 255 255 255
-40.0474 61.6555 32 0 0 -1  255 255 255 255
-64.3243 33.7685 32 0 0 -1  255 255 255 255
-63.0827 36.294 32 0 0 -1  255 255 255 255
-63.5365 -34.8673 32 0 0 -1  255 255 255 255
-62.869 -36.1798 32 0 0 -1  255 255 255 255
-64.4096 -33.9703 32 0 0 -1  255 255 255 255
-63.5295 -36.2614 32 0 0 -1  255 255 255 255
-40.4697 -60.4597 32 0 0 -1  255 255 255 255
-40.2495 60.6065 32 0 0 -1  255 255 255 255
-41.5147 59.8478 32 0 0 -1  255 255 255 255
-41.7269 -59.6995 32 0 0 -1  255 255 255 255
-64.5372 34.2671 32 0 0 -1  255 255 255 255
-15.7134 -7.5419 1.56244 0.038477 0.02348 0.998984  255 255 255 255
-17.0443 -8.35309 1.64893 0.056117 0.034245 0.997837  255 255 255 255
-18.3733 -9.16329 1.76767 0.073733 0.044996 0.996262  255 255 255 255
-19.6998 -9.97212 1.91859 0.091318 0.055727 0.994261  255 255 255 255
-21.0233 -10.7792 2.10164 0.108864 0.066434 0.991834  255 255 255 255
-22.3433 -11.5842 2.31673 0.126363 0.077113 0.988982  255 255 255 255
-23.6592 -12.3868 2.56377 0.143807 0.087758 0.985707  255 255 255 255
-24.9705 -13.1866 2.84266 0.161191 0.098366 0.982009  255 255 255 255
-26.2765 -13.9832 3.15328 0.178505 0.108932 0.977891  255 255 255 255
-27.5767 -14.7763 3.49549 0.195742 0.119451 0.973353  255 255 255 255
-28.8705 -15.5656 3.86915 0.212896 0.12992 0.968399  255 255 255 255
-30.1575 -16.3507 4.27409 0.229959 0.140332 0.96303  255 255 255 255
-31.4371 -17.1313 4.71015 0.246923 0.150684 0.957248  255 255 255 255
-32.7086 -17.907 5.17714 0.263781 0.160972 0.951056  255 255 255 255
-33.9716 -18.6776 5.67485 0.280527 0.171191 0.944457  255 255 255 255
-35.2256 -19.4426 6.20308 0.297152 0.181336 0.937453  255 255 255 255
-36.4699 -20.2018 6.7616 0.31365 0.191404 0.930047  255 255 255 255
-37.7041 -20.9548 7.35016 0.330013 0.20139 0.922244  255 255 255 255
-38.9277 -21.7013 7.96852 0.346235 0.21129 0.914045  255 255 255 255
-40.14 -22.441 8.61642 0.362309 0.221099 0.905454  255 255 255 255
-41.3407 -23.1736 9.29356 0.378228 0.230813 0.896476  255 255 255 255
-42.5291 -23.8987 9.99967 0.393984 0.240428 0.887114  255 255 255 255
-43.7048 -24.6161 10.7344 0.409572 0.249941 0.877371  255 255 255 255
-44.8672 -25.3253 11.4976 0.424985 0.259346 0.867253  255 255 255 255
-46.0159 -26.0262 12.2887 0.440215 0.26864 0.856763  255 255 255 255
-47.1504 -26.7185 13.1075 0.455257 0.27782 0.845906  255 255 255 255
-48.2702 -27.4017 13.9537 0.470103 0.28688 0.834687  255 255 255 255
-49.3748 -28.0757 14.8268 0.484749 0.295817 0.823111  255 255 255 255
-50.4637 -28.7401 15.7265 0.499186 0.304628 0.811181  255 255 255 255
-51.5365 -29.3947 16.6524 0.51341 0.313308 0.798904  255 255 255 255
-52.5927 -30.0392 17.6041 0.527414 0.321854 0.786285  255 255 255 255
-53.6319 -30.6733 18.5813 0.541192 0.330262 0.773329  255 255 255 255
-54.6535 -31.2967 19.5834 0.554738 0.338528 0.760042  255 255 255 255
-55.6573 -31.9092 20.6101 0.568047 0.34665 0.74643  255 255 255 255
-56.6427 -32.5105 21.6608 0.581112 0.354623 0.732497  255 255 255 255
-57.6093 -33.1003 22.7353 0.593928 0.362444 0.718251  255 255 255 255
-58.5567 -33.6784 23.833 0.60649 0.370109 0.703697  255 255 255 255
-59.4846 -34.2446 24.9534 0.618792 0.377617 0.688841  255 255 255 255
-60.3924 -34.7986 26.096 0.630829 0.384962 0.673691  255 255 255 255
-61.2799 -35.3401 27.2604 0.642595 0.392143 0.658252  255 255 255 255
-62.1466 -35.8689 28.4461 0.654087 0.399155 0.642531  255 255 255 255
-62.9921 -36.3849 29.6525 0.665298 0.405997 0.626534  255 255 255 255
-63.8974 -36.9373 31.003 0.677301 0.413322 0.608629  255 255 255 255
-14.248 -6.64888 1.50457 0.019054 0.011627 0.999751  255 255 255 255
-63.6177 -35.6067 31.1147 0.520914 -0.853609 0  255 255 255 255
-14.1487 -5.41835 2.15511 0.520914 -0.853609 0  255 255 255 255
-14.8907 -5.87114 2.02259 0.520914 -0.853609 0  255 255 255 255
-13.5119 -5.02976 2.03934 0.520914 -0.853609 0  255 255 255 255
-12.7073 -4.53875 2.22416 0.520914 -0.853609 0  255 255 255 255
-64.1157 -35.9106 31.0945 0.520914 -0.853609 0  255 255 255 255
-13.1038 -3.60919 1.16493 -0.520914 0.853609 0  255 255 255 255
-14.3854 -4.39126 1.56957 -0.520914 0.853609 0  255 255 255 255
-17.2741 -6.15413 1.6222 -0.520914 0.853609 0  255 255 255 255
-18.6181 -6.9743 1.7348 -0.520914 0.853609 0  255 255 255 255
-15.898 -5.31434 1.55566 -0.520914 0.853609 0  255 255 255 255
-65.3615 -35.4994 31.1368 -0.520914 0.853609 0  255 0 0 255
-19.9592 -7.79269 1.88007 -0.520914 0.853609 0  255 255 255 255
-21.2968 -8.60894 2.05794 -0.520914 0.853609 0  255 255 255 255
-22.6303 -9.42274 2.26831 -0.520914 0.853609 0  255 255 255 255
-23.9593 -10.2337 2.51104 -0.520914 0.853609 0  255 255 255 255
-25.2831 -11.0416 2.78602 -0.520914 0.853609 0  255 255 255 255
-26.6012 -11.846 3.09311 -0.520914 0.853609 0  255 255 255 255
-27.9131 -12.6465 3.43214 -0.520914 0.853609 0  255 255 255 255
-29.2182 -13.443 3.80296 -0.520914 0.853609 0  255 255 255 255
-30.5159 -14.2349 4.20538 -0.520914 0.853609 0  255 255 255 255
-64.2311 -34.8096 30.5002 -0.520914 0.853609 0  255 255 255 255
-31.8058 -15.0221 4.63922 -0.520914 0.853609 0  255 255 255 255
-13.2463 -3.69615 2.22118 -0.520914 0.853609 0  255 0 0 255
-33.0873 -15.8041 5.10426 -0.520914 0.853609 0  255 255 255 255
-34.3599 -16.5807 5.60028 -0.520914 0.853609 0  255 255 255 255
-35.623 -17.3515 6.12707 -0.520914 0.853609 0  255 255 255 255
-36.8762 -18.1162 6.68437 -0.520914 0.853609 0  255 255 255 255
-38.1188 -18.8746 7.27194 -0.520914 0.853609 0  255 255 255 255
-12.6428 -3.32784 2.17722 -0.520914 0.853609 0  255 255 255 255
-39.3505 -19.6262 7.88951 -0.520914 0.853609 0  255 255 255 255
-12.4919 -3.23576 0.666234 -0.520914 0.853609 0  255 255 255 255
-40.5706 -20.3708 8.53681 -0.520914 0.853609 0  255 255 255 255
-64.2595 -34.8269 31.1104 -0.520914 0.853609 0  255 255 255 255
-41.7788 -21.1081 9.21355 -0.520914 0.853609 0  255 255 255 255
