ply
format ascii 1.0
comment VCGLIB generated
element vertex 1110
property float x
property float y
property float z
property float nx
property float ny
property float nz
property uchar red
property uchar green
property uchar blue
property uchar alpha
element face 0
property list uchar int vertex_indices
end_header
0 13.942 -3 -0.571429 0 -0.428571  255 0 0 255
0 13.5652 -3 -0.5 0 -0.5  255 0 0 255
0 13.1884 -3 -0.5 0 -0.5  255 0 0 255
0 12.8116 -3 -0.5 0 -0.5  255 0 0 255
0 12.4348 -3 -0.5 0 -0.5  255 0 0 255
0 12.058 -3 -0.5 0 -0.5  255 0 0 255
0 11.6812 -3 -0.5 0 -0.5  255 0 0 255
0 11.3043 -3 -0.571429 0 -0.428571  255 0 0 255
0 10.9275 -3 -0.5 0 -0.5  255 0 0 255
0 10.5507 -3 -0.5 0 -0.5  255 0 0 255
0 10.1739 -3 -0.428571 0 -0.571429  255 0 0 255
0 9.7971 -3 -0.6 0 -0.4  255 0 0 255
0 9.42029 -3 -0.5 0 -0.5  255 0 0 255
0 9.04348 -3 -0.5 0 -0.5  255 0 0 255
0 8.66667 -3 -0.428571 0 -0.571429  255 0 0 255
0 8.28986 -3 -0.5 0 -0.5  255 0 0 255
0 7.91304 -3 -0.5 0 -0.5  255 0 0 255
0 7.53623 -3 -0.5 0 -0.5  255 0 0 255
0 7.15942 -3 -0.5 0 -0.5  255 0 0 255
0 6.78261 -3 -0.428571 0 -0.571429  255 0 0 255
0 6.4058 -3 -0.5 0 -0.5  255 0 0 255
0 6.02899 -3 -0.571429 0 -0.428571  255 0 0 255
0 5.65217 -3 -0.428571 0 -0.571429  255 0 0 255
0 5.27536 -3 -0.5 0 -0.5  255 0 0 255
0 4.89855 -3 -0.428571 0 -0.571429  255 0 0 255
0 4.52174 -3 -0.571429 0 -0.428571  255 0 0 255
0 4.14493 -3 -0.5 0 -0.5  255 0 0 255
0 3.76812 -3 -0.5 0 -0.5  255 0 0 255
0 3.3913 -3 -0.5 0 -0.5  255 0 0 255
0 3.01449 -3 -0.428571 0 -0.571429  255 0 0 255
0 2.63768 -3 -0.666667 0 -0.333333  255 0 0 255
0 2.26087 -3 -0.428571 0 -0.571429  255 0 0 255
0 1.88406 -3 -0.428571 0 -0.571429  255 0 0 255
0 1.50725 -3 -0.6 0 -0.4  255 0 0 255
0 1.13043 -3 -0.428571 0 -0.571429  255 0 0 255
0 0.753623 -3 -0.5 0 -0.5  255 0 0 255
0 0.376812 -3 -0.5 0 -0.5  255 0 0 255
0 0 2.625 -0.5 -0.5 0  255 0 0 255
0 0 2.25 -0.5 -0.5 0  255 0 0 255
0 0 1.875 -0.5 -0.5 0  255 0 0 255
0 0 1.5 -0.5 -0.5 0  255 0 0 255
0 0 1.125 -0.5 -0.5 0  255 0 0 255
0 0 0.75 -0.5 -0.5 0  255 0 0 255
0 0 0.375 -0.5 -0.5 0  255 0 0 255
0 0 -0 -0.5 -0.5 0  255 0 0 255
0 0 -0.375 -0.5 -0.5 0  255 0 0 255
0 0 -0.75 -0.5 -0.5 0  255 0 0 255
0 0 -1.125 -0.428571 -0.571429 0  255 0 0 255
0 0 -1.5 -0.5 -0.5 0  255 0 0 255
0 0 -1.875 -0.5 -0.5 0  255 0 0 255
0 0 -2.25 -0.5 -0.5 0  255 0 0 255
0 0 -2.625 -0.5 -0.5 0  255 0 0 255
0 25.6232 3 -0.571429 0 0.428571  255 0 0 255
0 25.2464 3 -0.4 0 0.6  255 0 0 255
0 24.8696 3 -0.5 0 0.5  255 0 0 255
0 24.4928 3 -0.6 0 0.4  255 0 0 255
0 24.1159 3 -0.428571 0 0.571429  255 0 0 255
0 23.7391 3 -0.428571 0 0.571429  255 0 0 255
0 23.3623 3 -0.6 0 0.4  255 0 0 255
0 22.9855 3 -0.428571 0 0.571429  255 0 0 255
0 22.6087 3 -0.428571 0 0.571429  255 0 0 255
0 22.2319 3 -0.5 0 0.5  255 0 0 255
0 21.8551 3 -0.5 0 0.5  255 0 0 255
0 21.4783 3 -0.5 0 0.5  255 0 0 255
0 21.1014 3 -0.5 0 0.5  255 0 0 255
0 20.7246 3 -0.5 0 0.5  255 0 0 255
0 20.3478 3 -0.428571 0 0.571429  255 0 0 255
0 19.971 3 -0.5 0 0.5  255 0 0 255
0 19.5942 3 -0.5 0 0.5  255 0 0 255
0 19.2174 3 -0.428571 0 0.571429  255 0 0 255
0 18.8406 3 -0.5 0 0.5  255 0 0 255
0 18.4638 3 -0.5 0 0.5  255 0 0 255
0 18.087 3 -0.5 0 0.5  255 0 0 255
0 17.7101 3 -0.5 0 0.5  255 0 0 255
0 17.3333 3 -0.5 0 0.5  255 0 0 255
0 16.9565 3 -0.428571 0 0.571429  255 0 0 255
0 16.5797 3 -0.5 0 0.5  255 0 0 255
0 16.2029 3 -0.571429 0 0.428571  255 0 0 255
0 15.8261 3 -0.333333 0 0.666667  255 0 0 255
0 15.4493 3 -0.571429 0 0.428571  255 0 0 255
0 15.0725 3 -0.5 0 0.5  255 0 0 255
0 14.6957 3 -0.5 0 0.5  255 0 0 255
0 14.3188 3 -0.5 0 0.5  255 0 0 255
0 13.942 3 -0.5 0 0.5  255 0 0 255
0 13.5652 3 -0.5 0 0.5  255 0 0 255
0 13.1884 3 -0.5 0 0.5  255 0 0 255
0 12.8116 3 -0.5 0 0.5  255 0 0 255
0 12.4348 3 -0.5 0 0.5  255 0 0 255
0 12.058 3 -0.5 0 0.5  255 0 0 255
0 11.6812 3 -0.5 0 0.5  255 0 0 255
0 11.3043 3 -0.571429 0 0.428571  255 0 0 255
0 10.9275 3 -0.5 0 0.5  255 0 0 255
0 10.5507 3 -0.5 0 0.5  255 0 0 255
0 10.1739 3 -0.428571 0 0.571429  255 0 0 255
0 9.7971 3 -0.6 0 0.4  255 0 0 255
0 9.42029 3 -0.428571 0 0.571429  255 0 0 255
0 9.04348 3 -0.5 0 0.5  255 0 0 255
0 8.66667 3 -0.428571 0 0.571429  255 0 0 255
0 8.28986 3 -0.5 0 0.5  255 0 0 255
0 7.91304 3 -0.5 0 0.5  255 0 0 255
0 7.53623 3 -0.5 0 0.5  255 0 0 255
0 7.15942 3 -0.571429 0 0.428571  255 0 0 255
0 6.78261 3 -0.428571 0 0.571429  255 0 0 255
0 6.4058 3 -0.5 0 0.5  255 0 0 255
0 6.02899 3 -0.571429 0 0.428571  255 0 0 255
0 5.65217 3 -0.428571 0 0.571429  255 0 0 255
0 5.27536 3 -0.5 0 0.5  255 0 0 255
0 4.89855 3 -0.428571 0 0.571429  255 0 0 255
0 4.52174 3 -0.571429 0 0.428571  255 0 0 255
0 4.14493 3 -0.5 0 0.5  255 0 0 255
0 3.76812 3 -0.5 0 0.5  255 0 0 255
0 3.3913 3 -0.5 0 0.5  255 0 0 255
0 3.01449 3 -0.428571 0 0.571429  255 0 0 255
0 2.63768 3 -0.666667 0 0.333333  255 0 0 255
0 2.26087 3 -0.428571 0 0.571429  255 0 0 255
0 1.88406 3 -0.428571 0 0.571429  255 0 0 255
0 1.50725 3 -0.6 0 0.4  255 0 0 255
0 1.13043 3 -0.428571 0 0.571429  255 0 0 255
0 0.753623 3 -0.5 0 0.5  255 0 0 255
0 0.376812 3 -0.5 0 0.5  255 0 0 255
18.875 -0 2.06625 -0.0892785 -0.5 -0.491965  255 0 0 255
19.2379 -0 1.96609 -0.175688 -0.5 -0.468118  255 0 0 255
19.5771 -0 1.80274 -0.256449 -0.5 -0.429224  255 0 0 255
19.8817 -0 1.58145 -0.32897 -0.5 -0.376536  255 0 0 255
20.1418 -0 1.30933 -0.390916 -0.5 -0.311745  255 0 0 255
20.3493 -0 0.995124 -0.440298 -0.5 -0.236934  255 0 0 255
20.4972 -0 0.648936 -0.475529 -0.5 -0.154509  255 0 0 255
20.581 -0 0.28189 -0.495475 -0.5 -0.0671165  255 0 0 255
20.5979 -0 -0.094216 -0.42814 -0.571429 0.0192279  255 0 0 255
20.5473 -0 -0.467294 -0.584957 -0.4 0.133513  255 0 0 255
20.431 -0 -0.825353 -0.394083 -0.571429 0.168439  255 0 0 255
20.2526 -0 -1.15688 -0.417286 -0.5 0.275449  255 0 0 255
20.0179 -0 -1.45123 -0.361398 -0.5 0.345531  255 0 0 255
19.7343 -0 -1.69894 -0.251908 -0.571429 0.346722  255 0 0 255
19.4112 -0 -1.89204 -0.216942 -0.5 0.450485  255 0 0 255
19.0587 -0 -2.02432 -0.114016 -0.571429 0.413127  255 0 0 255
18.6882 -0 -2.09155 -0.0448195 -0.5 0.497987  255 0 0 255
18.3118 -0 -2.09155 0.0537834 -0.4 0.597584  255 0 0 255
17.9413 -0 -2.02432 0.0997639 -0.625 0.361486  255 0 0 255
17.5888 -0 -1.89204 0.216942 -0.5 0.450485  255 0 0 255
17.2657 -0 -1.69894 0.293893 -0.5 0.404508  255 0 0 255
16.9821 -0 -1.45123 0.361398 -0.5 0.345531  255 0 0 255
16.7474 -0 -1.15688 0.417286 -0.5 0.275449  255 0 0 255
16.569 -0 -0.825353 0.394083 -0.571429 0.168439  255 0 0 255
16.4527 -0 -0.467294 0.487464 -0.5 0.111261  255 0 0 255
16.4021 -0 -0.094216 0.499496 -0.5 0.0224325  255 0 0 255
16.419 -0 0.28189 0.495475 -0.5 -0.0671165  255 0 0 255
16.5028 -0 0.648936 0.475529 -0.5 -0.154509  255 0 0 255
16.6507 -0 0.995124 0.377398 -0.571429 -0.203087  255 0 0 255
16.8582 -0 1.30933 0.390916 -0.5 -0.311745  255 0 0 255
17.1183 -0 1.58145 0.281974 -0.571429 -0.322745  255 0 0 255
17.4229 -0 1.80274 0.256449 -0.5 -0.429224  255 0 0 255
17.7621 -0 1.96609 0.175688 -0.5 -0.468118  255 0 0 255
18.125 -0 2.06625 0.0765244 -0.571429 -0.421684  255 0 0 255
1.875 0 3 0 -0.735294 0.441177  255 0 0 255
2.25 0 3 0 -0.735294 0.441177  255 0 0 255
2.625 0 3 0 -0.735294 0.441177  255 0 0 255
3 0 3 0 -0.697479 0.504202  255 0 0 255
3.375 0 3 0 -0.773109 0.378151  255 0 0 255
3.75 0 3 0 -0.735294 0.441177  255 0 0 255
4.125 0 3 0 -0.735294 0.441177  255 0 0 255
4.5 0 3 0 -0.735294 0.441177  255 0 0 255
4.875 0 3 0 -0.735294 0.441177  255 0 0 255
5.25 0 3 0 -0.735294 0.441177  255 0 0 255
5.625 0 3 0 -0.735294 0.441177  255 0 0 255
6 0 3 0 -0.773109 0.378151  255 0 0 255
6.375 0 3 0 -0.735294 0.441177  255 0 0 255
6.75 0 3 0 -0.735294 0.441177  255 0 0 255
7.125 0 3 0 -0.735294 0.441177  255 0 0 255
7.5 0 3 0 -0.735294 0.441177  255 0 0 255
7.875 0 3 0 -0.735294 0.441177  255 0 0 255
8.25 0 3 0 -0.735294 0.441177  255 0 0 255
8.625 0 3 0 -0.735294 0.441177  255 0 0 255
9 0 3 0 -0.735294 0.441177  255 0 0 255
9.375 0 3 0 -0.773109 0.378151  255 0 0 255
9.75 0 3 0 -0.682353 0.529412  255 0 0 255
10.125 0 3 0 -0.773109 0.378151  255 0 0 255
10.5 0 3 0 -0.735294 0.441177  255 0 0 255
10.875 0 3 0 -0.735294 0.441177  255 0 0 255
11.25 0 3 0 -0.735294 0.441177  255 0 0 255
11.625 0 3 0 -0.735294 0.441177  255 0 0 255
12 0 3 0 -0.697479 0.504202  255 0 0 255
12.375 0 3 0 -0.735294 0.441177  255 0 0 255
12.75 0 3 0 -0.735294 0.441177  255 0 0 255
13.125 0 3 0 -0.735294 0.441177  255 0 0 255
13.5 0 3 0 -0.735294 0.441177  255 0 0 255
13.875 0 3 0 -0.735294 0.441177  255 0 0 255
14.25 0 3 0 -0.735294 0.441177  255 0 0 255
14.625 0 3 0 -0.735294 0.441177  255 0 0 255
15 0 3 0 -0.735294 0.441177  255 0 0 255
15.375 0 3 0 -0.697479 0.504202  255 0 0 255
15.75 0 3 0 -0.735294 0.441177  255 0 0 255
16.125 0 3 0 -0.773109 0.378151  255 0 0 255
16.5 0 3 0 -0.773109 0.378151  255 0 0 255
16.875 0 3 0 -0.735294 0.441177  255 0 0 255
17.25 0 3 0 -0.735294 0.441177  255 0 0 255
17.625 0 3 0 -0.697479 0.504202  255 0 0 255
18 0 3 0 -0.735294 0.441177  255 0 0 255
18.375 0 3 0 -0.697479 0.504202  255 0 0 255
18.75 0 3 0 -0.773109 0.378151  255 0 0 255
19.125 0 3 0 -0.735294 0.441177  255 0 0 255
19.5 0 3 0 -0.735294 0.441177  255 0 0 255
19.875 0 3 0 -0.697479 0.504202  255 0 0 255
20.25 0 3 0 -0.773109 0.378151  255 0 0 255
20.625 0 3 0 -0.735294 0.441177  255 0 0 255
21 0 3 0 -0.697479 0.504202  255 0 0 255
21.375 0 3 0 -0.823529 0.294118  255 0 0 255
21.75 0 3 0 -0.697479 0.504202  255 0 0 255
22.125 0 3 0 -0.735294 0.441177  255 0 0 255
22.5 0 3 0 -0.773109 0.378151  255 0 0 255
22.875 0 3 0 -0.735294 0.441177  255 0 0 255
23.25 0 3 0 -0.735294 0.441177  255 0 0 255
23.625 0 3 0 -0.697479 0.504202  255 0 0 255
24 0 3 0 -0.735294 0.441177  255 0 0 255
24.375 0 3 0 -0.735294 0.441177  255 0 0 255
24.75 0 3 0 -0.735294 0.441177  255 0 0 255
25.125 0 3 0 -0.735294 0.441177  255 0 0 255
0.375 0 3 0 -0.5 0.5  255 0 0 255
0.75 0 3 0 -0.6 0.4  255 0 0 255
1.125 0 3 0 -0.571429 0.428571  255 0 0 255
0.375 0 -3 0 -0.5 -0.5  255 0 0 255
0.75 0 -3 0 -0.6 -0.4  255 0 0 255
1.125 0 -3 0 -0.571429 -0.428571  255 0 0 255
1.875 0 -3 0 -0.735294 -0.441177  255 0 0 255
2.25 0 -3 0 -0.735294 -0.441177  255 0 0 255
2.625 0 -3 0 -0.735294 -0.441177  255 0 0 255
3 0 -3 0 -0.697479 -0.504202  255 0 0 255
3.375 0 -3 0 -0.735294 -0.441177  255 0 0 255
3.75 0 -3 0 -0.773109 -0.378151  255 0 0 255
4.125 0 -3 0 -0.735294 -0.441177  255 0 0 255
4.5 0 -3 0 -0.735294 -0.441177  255 0 0 255
4.875 0 -3 0 -0.735294 -0.441177  255 0 0 255
5.25 0 -3 0 -0.735294 -0.441177  255 0 0 255
5.625 0 -3 0 -0.773109 -0.378151  255 0 0 255
6 0 -3 0 -0.735294 -0.441177  255 0 0 255
6.375 0 -3 0 -0.735294 -0.441177  255 0 0 255
6.75 0 -3 0 -0.735294 -0.441177  255 0 0 255
7.125 0 -3 0 -0.735294 -0.441177  255 0 0 255
7.5 0 -3 0 -0.735294 -0.441177  255 0 0 255
7.875 0 -3 0 -0.735294 -0.441177  255 0 0 255
8.25 0 -3 0 -0.735294 -0.441177  255 0 0 255
8.625 0 -3 0 -0.735294 -0.441177  255 0 0 255
9 0 -3 0 -0.773109 -0.378151  255 0 0 255
9.375 0 -3 0 -0.735294 -0.441177  255 0 0 255
9.75 0 -3 0 -0.735294 -0.441177  255 0 0 255
10.125 0 -3 0 -0.735294 -0.441177  255 0 0 255
10.5 0 -3 0 -0.735294 -0.441177  255 0 0 255
10.875 0 -3 0 -0.773109 -0.378151  255 0 0 255
11.25 0 -3 0 -0.735294 -0.441177  255 0 0 255
11.625 0 -3 0 -0.735294 -0.441177  255 0 0 255
12 0 -3 0 -0.697479 -0.504202  255 0 0 255
12.375 0 -3 0 -0.773109 -0.378151  255 0 0 255
12.75 0 -3 0 -0.735294 -0.441177  255 0 0 255
13.125 0 -3 0 -0.735294 -0.441177  255 0 0 255
13.5 0 -3 0 -0.735294 -0.441177  255 0 0 255
13.875 0 -3 0 -0.735294 -0.441177  255 0 0 255
14.25 0 -3 0 -0.735294 -0.441177  255 0 0 255
14.625 0 -3 0 -0.735294 -0.441177  255 0 0 255
15 0 -3 0 -0.697479 -0.504202  255 0 0 255
15.375 0 -3 0 -0.735294 -0.441177  255 0 0 255
15.75 0 -3 0 -0.735294 -0.441177  255 0 0 255
16.125 0 -3 0 -0.773109 -0.378151  255 0 0 255
16.5 0 -3 0 -0.735294 -0.441177  255 0 0 255
16.875 0 -3 0 -0.735294 -0.441177  255 0 0 255
17.25 0 -3 0 -0.735294 -0.441177  255 0 0 255
17.625 0 -3 0 -0.697479 -0.504202  255 0 0 255
18 0 -3 0 -0.773109 -0.378151  255 0 0 255
18.375 0 -3 0 -0.735294 -0.441177  255 0 0 255
18.75 0 -3 0 -0.682353 -0.529412  255 0 0 255
19.125 0 -3 0 -0.773109 -0.378151  255 0 0 255
19.5 0 -3 0 -0.735294 -0.441177  255 0 0 255
19.875 0 -3 0 -0.735294 -0.441177  255 0 0 255
20.25 0 -3 0 -0.697479 -0.504202  255 0 0 255
20.625 0 -3 0 -0.735294 -0.441177  255 0 0 255
21 0 -3 0 -0.735294 -0.441177  255 0 0 255
21.375 0 -3 0 -0.735294 -0.441177  255 0 0 255
21.75 0 -3 0 -0.697479 -0.504202  255 0 0 255
22.125 0 -3 0 -0.735294 -0.441177  255 0 0 255
22.5 0 -3 0 -0.773109 -0.378151  255 0 0 255
22.875 0 -3 0 -0.735294 -0.441177  255 0 0 255
23.25 0 -3 0 -0.735294 -0.441177  255 0 0 255
23.625 0 -3 0 -0.735294 -0.441177  255 0 0 255
24 0 -3 0 -0.697479 -0.504202  255 0 0 255
24.375 0 -3 0 -0.735294 -0.441177  255 0 0 255
24.75 0 -3 0 -0.735294 -0.441177  255 0 0 255
25.125 0 -3 0 -0.735294 -0.441177  255 0 0 255
25.5 0 2.625 0.428571 -0.571429 0  255 0 0 255
25.5 0 2.25 0.5 -0.5 0  255 0 0 255
25.5 0 1.875 0.571429 -0.428571 0  255 0 0 255
25.5 0 1.5 0.5 -0.5 0  255 0 0 255
25.5 0 1.125 0.5 -0.5 0  255 0 0 255
25.5 0 0.75 0.5 -0.5 0  255 0 0 255
25.5 0 0.375 0.5 -0.5 0  255 0 0 255
25.5 0 -0 0.5 -0.5 0  255 0 0 255
25.5 0 -0.375 0.571429 -0.428571 0  255 0 0 255
25.5 0 -0.75 0.5 -0.5 0  255 0 0 255
25.5 0 -1.125 0.428571 -0.571429 0  255 0 0 255
25.5 0 -1.5 0.5 -0.5 0  255 0 0 255
25.5 0 -1.875 0.5 -0.5 0  255 0 0 255
25.5 0 -2.25 0.571429 -0.428571 0  255 0 0 255
25.5 0 -2.625 0.5 -0.5 0  255 0 0 255
25.5 4.0625 3 0.5 0 0.5  255 0 0 255
25.5 4.375 3 0.5 0 0.5  255 0 0 255
25.5 4.6875 3 0.5 0 0.5  255 0 0 255
25.5 3.75 3.33333 0.6 0.4 0  255 0 0 255
25.5 3.75 3.66667 0.5 0.5 0  255 0 0 255
25.5 3.75 4 0.428571 0.571429 0  255 0 0 255
25.5 3.75 4.33333 0.571429 0.428571 0  255 0 0 255
25.5 3.75 4.66667 0.6 0.4 0  255 0 0 255
25.5 3.4375 4.83333 0.5 -0.235294 0.441177  255 0 0 255
25.5 3.125 4.66667 0.571429 -0.201681 0.378151  255 0 0 255
25.5 2.8125 4.5 0.428571 -0.268907 0.504202  255 0 0 255
25.5 2.5 4.33333 0.5 -0.235294 0.441177  255 0 0 255
25.5 2.1875 4.16667 0.5 -0.235294 0.441177  255 0 0 255
25.5 1.875 4 0.5 -0.235294 0.441177  255 0 0 255
25.5 1.5625 3.83333 0.5 -0.235294 0.441177  255 0 0 255
25.5 1.25 3.66667 0.5 -0.235294 0.441177  255 0 0 255
25.5 0.9375 3.5 0.5 -0.235294 0.441177  255 0 0 255
25.5 0.625 3.33333 0.571429 -0.201681 0.378151  255 0 0 255
25.5 0.3125 3.16667 0.5 -0.235294 0.441177  255 0 0 255
25.5 0.3125 -3.16667 0.5 -0.235294 -0.441177  255 0 0 255
25.5 0.625 -3.33333 0.5 -0.235294 -0.441177  255 0 0 255
25.5 0.9375 -3.5 0.428571 -0.268907 -0.504202  255 0 0 255
25.5 1.25 -3.66667 0.5 -0.235294 -0.441177  255 0 0 255
25.5 1.5625 -3.83333 0.5 -0.235294 -0.441177  255 0 0 255
25.5 1.875 -4 0.5 -0.235294 -0.441177  255 0 0 255
25.5 2.1875 -4.16667 0.5 -0.235294 -0.441177  255 0 0 255
25.5 2.5 -4.33333 0.571429 -0.201681 -0.378151  255 0 0 255
25.5 2.8125 -4.5 0.5 -0.235294 -0.441177  255 0 0 255
25.5 3.125 -4.66667 0.571429 -0.201681 -0.378151  255 0 0 255
25.5 3.4375 -4.83333 0.5 -0.235294 -0.441177  255 0 0 255
25.5 3.75 -4.66667 0.6 0.4 0  255 0 0 255
25.5 3.75 -4.33333 0.571429 0.428571 0  255 0 0 255
25.5 3.75 -4 0.428571 0.571429 0  255 0 0 255
25.5 3.75 -3.66667 0.5 0.5 0  255 0 0 255
25.5 3.75 -3.33333 0.6 0.4 0  255 0 0 255
25.5 4.0625 -3 0.5 0 -0.5  255 0 0 255
25.5 4.375 -3 0.5 0 -0.5  255 0 0 255
25.5 4.6875 -3 0.5 0 -0.5  255 0 0 255
25.5 5 2.625 0.428571 0.571429 0  255 0 0 255
25.5 5 2.25 0.4 0.6 0  255 0 0 255
25.5 5 1.875 0.571429 0.428571 0  255 0 0 255
25.5 5 1.5 0.5 0.5 0  255 0 0 255
25.5 5 1.125 0.571429 0.428571 0  255 0 0 255
25.5 5 0.75 0.5 0.5 0  255 0 0 255
25.5 5 0.375 0.5 0.5 0  255 0 0 255
25.5 5 -0 0.5 0.5 0  255 0 0 255
25.5 5 -0.375 0.5 0.5 0  255 0 0 255
25.5 5 -0.75 0.571429 0.428571 0  255 0 0 255
25.5 5 -1.125 0.428571 0.571429 0  255 0 0 255
25.5 5 -1.5 0.5 0.5 0  255 0 0 255
25.5 5 -1.875 0.5 0.5 0  255 0 0 255
25.5 5 -2.25 0.5 0.5 0  255 0 0 255
25.5 5 -2.625 0.5 0.5 0  255 0 0 255
18.875 5 2.06625 -0.0765244 0.571429 -0.421684  255 0 0 255
19.2379 5 1.96609 -0.175688 0.5 -0.468118  255 0 0 255
19.5771 5 1.80274 -0.293085 0.428571 -0.490542  255 0 0 255
19.8817 5 1.58145 -0.281974 0.571429 -0.322745  255 0 0 255
20.1418 5 1.30933 -0.390916 0.5 -0.311745  255 0 0 255
20.3493 5 0.995124 -0.440298 0.5 -0.236934  255 0 0 255
20.4972 5 0.648936 -0.475529 0.5 -0.154509  255 0 0 255
20.581 5 0.28189 -0.495475 0.5 -0.0671165  255 0 0 255
20.5979 5 -0.094216 -0.42814 0.571429 0.0192279  255 0 0 255
20.5473 5 -0.467294 -0.584957 0.4 0.133513  255 0 0 255
20.431 5 -0.825353 -0.394083 0.571429 0.168439  255 0 0 255
20.2526 5 -1.15688 -0.417286 0.5 0.275449  255 0 0 255
20.0179 5 -1.45123 -0.361398 0.5 0.345531  255 0 0 255
19.7343 5 -1.69894 -0.251908 0.571429 0.346722  255 0 0 255
19.4112 5 -1.89204 -0.216942 0.5 0.450485  255 0 0 255
19.0587 5 -2.02432 -0.114016 0.571429 0.413127  255 0 0 255
18.6882 5 -2.09155 -0.0448195 0.5 0.497987  255 0 0 255
18.3118 5 -2.09155 0.0537834 0.4 0.597584  255 0 0 255
17.9413 5 -2.02432 0.114016 0.571429 0.413127  255 0 0 255
17.5888 5 -1.89204 0.18595 0.571429 0.38613  255 0 0 255
17.2657 5 -1.69894 0.251908 0.571429 0.346722  255 0 0 255
16.9821 5 -1.45123 0.361398 0.5 0.345531  255 0 0 255
16.7474 5 -1.15688 0.417286 0.5 0.275449  255 0 0 255
16.569 5 -0.825353 0.459764 0.5 0.196513  255 0 0 255
16.4527 5 -0.467294 0.487464 0.5 0.111261  255 0 0 255
16.4021 5 -0.094216 0.42814 0.571429 0.0192279  255 0 0 255
16.419 5 0.28189 0.424693 0.571429 -0.0575284  255 0 0 255
16.5028 5 0.648936 0.475529 0.5 -0.154509  255 0 0 255
16.6507 5 0.995124 0.440298 0.5 -0.236934  255 0 0 255
16.8582 5 1.30933 0.390916 0.5 -0.311745  255 0 0 255
17.1183 5 1.58145 0.375965 0.428571 -0.430326  255 0 0 255
17.4229 5 1.80274 0.219814 0.571429 -0.367907  255 0 0 255
17.7621 5 1.96609 0.175688 0.5 -0.468118  255 0 0 255
18.125 5 2.06625 0.0892785 0.5 -0.491965  255 0 0 255
25.1277 5 -3 0 0.5 -0.5  255 0 0 255
24.7553 5 -3 0 0.5 -0.5  255 0 0 255
24.383 5 -3 0 0.5 -0.5  255 0 0 255
24.0106 5 -3 0 0.5 -0.5  255 0 0 255
23.6383 5 -3 0 0.5 -0.5  255 0 0 255
23.266 5 -3 0 0.571429 -0.428571  255 0 0 255
22.8936 5 -3 0 0.5 -0.5  255 0 0 255
22.5213 5 -3 0 0.5 -0.5  255 0 0 255
22.1489 5 -3 0 0.5 -0.5  255 0 0 255
21.7766 5 -3 0 0.571429 -0.428571  255 0 0 255
21.4043 5 -3 0 0.5 -0.5  255 0 0 255
21.0319 5 -3 0 0.5 -0.5  255 0 0 255
20.6596 5 -3 0 0.5 -0.5  255 0 0 255
20.2872 5 -3 0 0.5 -0.5  255 0 0 255
19.9149 5 -3 0 0.5 -0.5  255 0 0 255
19.5426 5 -3 0 0.5 -0.5  255 0 0 255
19.1702 5 -3 0 0.571429 -0.428571  255 0 0 255
18.7979 5 -3 0 0.4 -0.6  255 0 0 255
18.4255 5 -3 0 0.571429 -0.428571  255 0 0 255
18.0532 5 -3 0 0.571429 -0.428571  255 0 0 255
17.6809 5 -3 0 0.5 -0.5  255 0 0 255
17.3085 5 -3 0 0.5 -0.5  255 0 0 255
16.9362 5 -3 0 0.5 -0.5  255 0 0 255
16.5638 5 -3 0 0.571429 -0.428571  255 0 0 255
16.1915 5 -3 0 0.5 -0.5  255 0 0 255
15.8191 5 -3 0 0.5 -0.5  255 0 0 255
15.4468 5 -3 0 0.5 -0.5  255 0 0 255
15.0745 5 -3 0 0.5 -0.5  255 0 0 255
14.7021 5 -3 0 0.5 -0.5  255 0 0 255
14.3298 5 -3 0 0.5 -0.5  255 0 0 255
13.9574 5 -3 0 0.5 -0.5  255 0 0 255
13.5851 5 -3 0 0.571429 -0.428571  255 0 0 255
13.2128 5 -3 0 0.5 -0.5  255 0 0 255
12.8404 5 -3 0 0.5 -0.5  255 0 0 255
12.4681 5 -3 0 0.571429 -0.428571  255 0 0 255
12.0957 5 -3 0 0.5 -0.5  255 0 0 255
11.7234 5 -3 0 0.5 -0.5  255 0 0 255
11.3511 5 -3 0 0.5 -0.5  255 0 0 255
10.9787 5 -3 0 0.5 -0.5  255 0 0 255
10.6064 5 -3 0 0.5 -0.5  255 0 0 255
10.234 5 -3 0 0.5 -0.5  255 0 0 255
9.8617 5 -3 0 0.571429 -0.428571  255 0 0 255
9.48936 5 -3 0 0.5 -0.5  255 0 0 255
9.11702 5 -3 0 0.428571 -0.571429  255 0 0 255
8.74468 5 -3 0 0.5 -0.5  255 0 0 255
8.37234 5 -3 0 0.5 -0.5  255 0 0 255
8 5 2.625 0 1 0  255 255 255 255
8 5 2.25 0 1 0  255 255 255 255
8 5 1.875 0 1 0  255 255 255 255
8 5 1.5 0 1 0  255 255 255 255
8 5 1.125 0 1 0  255 255 255 255
8 5 0.75 0 1 0  255 255 255 255
8 5 0.375 0 1 0  255 255 255 255
8 5 -0 0 1 0  255 255 255 255
8 5 -0.375 0 1 0  255 255 255 255
8 5 -0.75 0 1 0  255 255 255 255
8 5 -1.125 0 1 0  255 255 255 255
8 5 -1.5 0 1 0  255 255 255 255
8 5 -1.875 0 1 0  255 255 255 255
8 5 -2.25 0 1 0  255 255 255 255
8 5 -2.625 0 1 0  255 255 255 255
25.1277 5 3 0 0.571429 0.428571  255 0 0 255
24.7553 5 3 0 0.5 0.5  255 0 0 255
24.383 5 3 0 0.5 0.5  255 0 0 255
24.0106 5 3 0 0.5 0.5  255 0 0 255
23.6383 5 3 0 0.5 0.5  255 0 0 255
23.266 5 3 0 0.571429 0.428571  255 0 0 255
22.8936 5 3 0 0.5 0.5  255 0 0 255
22.5213 5 3 0 0.571429 0.428571  255 0 0 255
22.1489 5 3 0 0.571429 0.428571  255 0 0 255
21.7766 5 3 0 0.5 0.5  255 0 0 255
21.4043 5 3 0 0.5 0.5  255 0 0 255
21.0319 5 3 0 0.5 0.5  255 0 0 255
20.6596 5 3 0 0.571429 0.428571  255 0 0 255
20.2872 5 3 0 0.571429 0.428571  255 0 0 255
19.9149 5 3 0 0.5 0.5  255 0 0 255
19.5426 5 3 0 0.5 0.5  255 0 0 255
19.1702 5 3 0 0.5 0.5  255 0 0 255
18.7979 5 3 0 0.571429 0.428571  255 0 0 255
18.4255 5 3 0 0.5 0.5  255 0 0 255
18.0532 5 3 0 0.5 0.5  255 0 0 255
17.6809 5 3 0 0.5 0.5  255 0 0 255
17.3085 5 3 0 0.5 0.5  255 0 0 255
16.9362 5 3 0 0.5 0.5  255 0 0 255
16.5638 5 3 0 0.571429 0.428571  255 0 0 255
16.1915 5 3 0 0.5 0.5  255 0 0 255
15.8191 5 3 0 0.5 0.5  255 0 0 255
15.4468 5 3 0 0.5 0.5  255 0 0 255
15.0745 5 3 0 0.5 0.5  255 0 0 255
14.7021 5 3 0 0.571429 0.428571  255 0 0 255
14.3298 5 3 0 0.5 0.5  255 0 0 255
13.9574 5 3 0 0.5 0.5  255 0 0 255
13.5851 5 3 0 0.5 0.5  255 0 0 255
13.2128 5 3 0 0.5 0.5  255 0 0 255
12.8404 5 3 0 0.5 0.5  255 0 0 255
12.4681 5 3 0 0.571429 0.428571  255 0 0 255
12.0957 5 3 0 0.5 0.5  255 0 0 255
11.7234 5 3 0 0.5 0.5  255 0 0 255
11.3511 5 3 0 0.5 0.5  255 0 0 255
10.9787 5 3 0 0.5 0.5  255 0 0 255
10.6064 5 3 0 0.5 0.5  255 0 0 255
10.234 5 3 0 0.5 0.5  255 0 0 255
9.8617 5 3 0 0.5 0.5  255 0 0 255
9.48936 5 3 0 0.5 0.5  255 0 0 255
9.11702 5 3 0 0.5 0.5  255 0 0 255
8.74468 5 3 0 0.5 0.5  255 0 0 255
8.37234 5 3 0 0.5 0.5  255 0 0 255
7.63839 5.02187 3 0.0482148 0.397084 0.6  255 0 0 255
7.28205 5.08717 3 0.119658 0.485471 0.5  255 0 0 255
6.93618 5.19495 3 0.202631 0.534295 0.428571  255 0 0 255
6.60583 5.34363 3 0.265556 0.505975 0.428571  255 0 0 255
6.29581 5.53105 3 0.284032 0.411492 0.5  255 0 0 255
6.01063 5.75447 3 0.378927 0.427721 0.428571  255 0 0 255
5.75447 6.01063 3 0.467819 0.414452 0.375  255 0 0 255
5.53105 6.29581 3 0.352707 0.243456 0.571429  255 0 0 255
5.34363 6.60583 3 0.442728 0.232362 0.5  255 0 0 255
5.19495 6.93618 3 0.467508 0.177302 0.5  255 0 0 255
5.08717 7.28205 3 0.485471 0.119658 0.5  255 0 0 255
5.02187 7.63839 3 0.425447 0.0516587 0.571429  255 0 0 255
5 8 2.625 1 0 0  255 255 255 255
5 8 2.25 1 0 0  255 255 255 255
5 8 1.875 1 0 0  255 255 255 255
5 8 1.5 1 0 0  255 255 255 255
5 8 1.125 1 0 0  255 255 255 255
5 8 0.75 1 0 0  255 255 255 255
5 8 0.375 1 0 0  255 255 255 255
5 8 -0 1 0 0  255 255 255 255
5 8 -0.375 1 0 0  255 255 255 255
5 8 -0.75 1 0 0  255 255 255 255
5 8 -1.125 1 0 0  255 255 255 255
5 8 -1.5 1 0 0  255 255 255 255
5 8 -1.875 1 0 0  255 255 255 255
5 8 -2.25 1 0 0  255 255 255 255
5 8 -2.625 1 0 0  255 255 255 255
7.63839 5.02187 -3 0.0482148 0.397084 -0.6  255 0 0 255
7.28205 5.08717 -3 0.119658 0.485471 -0.5  255 0 0 255
6.93618 5.19495 -3 0.202631 0.534295 -0.428571  255 0 0 255
6.60583 5.34363 -3 0.265556 0.505975 -0.428571  255 0 0 255
6.29581 5.53105 -3 0.284032 0.411492 -0.5  255 0 0 255
6.01063 5.75447 -3 0.378927 0.427721 -0.428571  255 0 0 255
5.75447 6.01063 -3 0.467819 0.414452 -0.375  255 0 0 255
5.53105 6.29581 -3 0.352707 0.243456 -0.571429  255 0 0 255
5.34363 6.60583 -3 0.505975 0.265556 -0.428571  255 0 0 255
5.19495 6.93618 -3 0.467508 0.177302 -0.5  255 0 0 255
5.08717 7.28205 -3 0.485471 0.119658 -0.5  255 0 0 255
5.02187 7.63839 -3 0.425447 0.0516587 -0.571429  255 0 0 255
5 20.575 -2.06625 0.625 -0.0669589 0.368974  255 0 0 255
5 20.9379 -1.96609 0.5 -0.175688 0.468118  255 0 0 255
5 21.2771 -1.80274 0.428571 -0.293085 0.490542  255 0 0 255
5 21.5817 -1.58145 0.571429 -0.281974 0.322745  255 0 0 255
5 21.8418 -1.30933 0.5 -0.390916 0.311745  255 0 0 255
5 22.0493 -0.995124 0.5 -0.440298 0.236934  255 0 0 255
5 22.1972 -0.648936 0.5 -0.475529 0.154509  255 0 0 255
5 22.281 -0.28189 0.571429 -0.424693 0.0575284  255 0 0 255
5 22.2979 0.094216 0.5 -0.499496 -0.0224325  255 0 0 255
5 22.2473 0.467294 0.5 -0.487464 -0.111261  255 0 0 255
5 22.131 0.825353 0.5 -0.459764 -0.196513  255 0 0 255
5 21.9526 1.15688 0.5 -0.417286 -0.275449  255 0 0 255
5 21.7179 1.45123 0.5 -0.361398 -0.345531  255 0 0 255
5 21.4343 1.69894 0.571429 -0.251908 -0.346722  255 0 0 255
5 21.1112 1.89204 0.5 -0.216942 -0.450485  255 0 0 255
5 20.7587 2.02432 0.5 -0.133018 -0.481981  255 0 0 255
5 20.3882 2.09155 0.571429 -0.0384167 -0.426846  255 0 0 255
5 20.0118 2.09155 0.571429 0.0384167 -0.426846  255 0 0 255
5 19.6413 2.02432 0.5 0.133018 -0.481981  255 0 0 255
5 19.2888 1.89204 0.571429 0.18595 -0.38613  255 0 0 255
5 18.9657 1.69894 0.5 0.293893 -0.404508  255 0 0 255
5 18.6821 1.45123 0.5 0.361398 -0.345531  255 0 0 255
5 18.4474 1.15688 0.5 0.417286 -0.275449  255 0 0 255
5 18.269 0.825353 0.5 0.459764 -0.196513  255 0 0 255
5 18.1527 0.467294 0.5 0.487464 -0.111261  255 0 0 255
5 18.1021 0.094216 0.5 0.499496 -0.0224325  255 0 0 255
5 18.119 -0.28189 0.5 0.495475 0.0671165  255 0 0 255
5 18.2028 -0.648936 0.571429 0.407596 0.132436  255 0 0 255
5 18.3507 -0.995124 0.5 0.440298 0.236934  255 0 0 255
5 18.5582 -1.30933 0.5 0.390916 0.311745  255 0 0 255
5 18.8183 -1.58145 0.5 0.32897 0.376536  255 0 0 255
5 19.1229 -1.80274 0.5 0.256449 0.429224  255 0 0 255
5 19.4621 -1.96609 0.5 0.175688 0.468118  255 0 0 255
5 19.825 -2.06625 0.555556 0.0793587 0.437302  255 0 0 255
5 8.375 -3 0.571429 0 -0.428571  255 0 0 255
5 8.75 -3 0.5 0 -0.5  255 0 0 255
5 9.125 -3 0.5 0 -0.5  255 0 0 255
5 9.5 -3 0.428571 0 -0.571429  255 0 0 255
5 9.875 -3 0.5 0 -0.5  255 0 0 255
5 10.25 -3 0.5 0 -0.5  255 0 0 255
5 10.625 -3 0.5 0 -0.5  255 0 0 255
5 11 -3 0.5 0 -0.5  255 0 0 255
5 11.375 -3 0.571429 0 -0.428571  255 0 0 255
5 11.75 -3 0.428571 0 -0.571429  255 0 0 255
5 12.125 -3 0.6 0 -0.4  255 0 0 255
5 12.5 -3 0.428571 0 -0.571429  255 0 0 255
5 12.875 -3 0.5 0 -0.5  255 0 0 255
5 13.25 -3 0.5 0 -0.5  255 0 0 255
5 13.625 -3 0.5 0 -0.5  255 0 0 255
5 14 -3 0.5 0 -0.5  255 0 0 255
5 14.375 -3 0.428571 0 -0.571429  255 0 0 255
5 14.75 -3 0.571429 0 -0.428571  255 0 0 255
5 15.125 -3 0.571429 0 -0.428571  255 0 0 255
5 15.5 -3 0.5 0 -0.5  255 0 0 255
5 15.875 -3 0.5 0 -0.5  255 0 0 255
5 16.25 -3 0.428571 0 -0.571429  255 0 0 255
5 16.625 -3 0.571429 0 -0.428571  255 0 0 255
5 17 -3 0.4 0 -0.6  255 0 0 255
5 17.375 -3 0.571429 0 -0.428571  255 0 0 255
5 17.75 -3 0.5 0 -0.5  255 0 0 255
5 18.125 -3 0.5 0 -0.5  255 0 0 255
5 18.5 -3 0.5 0 -0.5  255 0 0 255
5 18.875 -3 0.5 0 -0.5  255 0 0 255
5 19.25 -3 0.5 0 -0.5  255 0 0 255
5 19.625 -3 0.5 0 -0.5  255 0 0 255
5 20 -3 0.571429 0 -0.428571  255 0 0 255
5 20.375 -3 0.571429 0 -0.428571  255 0 0 255
5 20.75 -3 0.5 0 -0.5  255 0 0 255
5 21.125 -3 0.5 0 -0.5  255 0 0 255
5 21.5 -3 0.5 0 -0.5  255 0 0 255
5 21.875 -3 0.5 0 -0.5  255 0 0 255
5 22.25 -3 0.5 0 -0.5  255 0 0 255
5 22.625 -3 0.428571 0 -0.571429  255 0 0 255
5 23 -3 0.5 0 -0.5  255 0 0 255
5 23.375 -3 0.5 0 -0.5  255 0 0 255
5 23.75 -3 0.5 0 -0.5  255 0 0 255
5 24.125 -3 0.5 0 -0.5  255 0 0 255
5 24.5 -3 0.5 0 -0.5  255 0 0 255
5 24.875 -3 0.571429 0 -0.428571  255 0 0 255
5 25.25 -3 0.4 0 -0.6  255 0 0 255
5 25.625 -3 0.5 0 -0.5  255 0 0 255
5 8.375 3 0.571429 0 0.428571  255 0 0 255
5 8.75 3 0.5 0 0.5  255 0 0 255
5 9.125 3 0.5 0 0.5  255 0 0 255
5 9.5 3 0.428571 0 0.571429  255 0 0 255
5 9.875 3 0.5 0 0.5  255 0 0 255
5 10.25 3 0.5 0 0.5  255 0 0 255
5 10.625 3 0.5 0 0.5  255 0 0 255
5 11 3 0.5 0 0.5  255 0 0 255
5 11.375 3 0.571429 0 0.428571  255 0 0 255
5 11.75 3 0.428571 0 0.571429  255 0 0 255
5 12.125 3 0.6 0 0.4  255 0 0 255
5 12.5 3 0.428571 0 0.571429  255 0 0 255
5 12.875 3 0.5 0 0.5  255 0 0 255
5 13.25 3 0.5 0 0.5  255 0 0 255
5 13.625 3 0.5 0 0.5  255 0 0 255
5 14 3 0.5 0 0.5  255 0 0 255
5 14.375 3 0.5 0 0.5  255 0 0 255
5 14.75 3 0.5 0 0.5  255 0 0 255
5 15.125 3 0.571429 0 0.428571  255 0 0 255
5 15.5 3 0.428571 0 0.571429  255 0 0 255
5 15.875 3 0.5 0 0.5  255 0 0 255
5 16.25 3 0.5 0 0.5  255 0 0 255
5 16.625 3 0.571429 0 0.428571  255 0 0 255
5 17 3 0.4 0 0.6  255 0 0 255
5 17.375 3 0.5 0 0.5  255 0 0 255
5 17.75 3 0.5 0 0.5  255 0 0 255
5 18.125 3 0.5 0 0.5  255 0 0 255
5 18.5 3 0.5 0 0.5  255 0 0 255
5 18.875 3 0.5 0 0.5  255 0 0 255
5 19.25 3 0.5 0 0.5  255 0 0 255
5 19.625 3 0.571429 0 0.428571  255 0 0 255
5 20 3 0.5 0 0.5  255 0 0 255
5 20.375 3 0.5 0 0.5  255 0 0 255
5 20.75 3 0.5 0 0.5  255 0 0 255
5 21.125 3 0.5 0 0.5  255 0 0 255
5 21.5 3 0.571429 0 0.428571  255 0 0 255
5 21.875 3 0.5 0 0.5  255 0 0 255
5 22.25 3 0.5 0 0.5  255 0 0 255
5 22.625 3 0.428571 0 0.571429  255 0 0 255
5 23 3 0.5 0 0.5  255 0 0 255
5 23.375 3 0.5 0 0.5  255 0 0 255
5 23.75 3 0.5 0 0.5  255 0 0 255
5 24.125 3 0.5 0 0.5  255 0 0 255
5 24.5 3 0.5 0 0.5  255 0 0 255
5 24.875 3 0.571429 0 0.428571  255 0 0 255
5 25.25 3 0.4 0 0.6  255 0 0 255
5 25.625 3 0.5 0 0.5  255 0 0 255
1.825 9.5 3 0 -0.5 0.5  255 255 255 255
2.15 9.5 3 0 -0.5 0.5  255 0 0 255
2.475 9.5 3 0 -0.5 0.5  255 255 255 255
1.5 9.875 3 -0.5 0 0.5  255 255 255 255
1.5 10.25 3 -0.5 0 0.5  255 0 0 255
1.5 10.625 3 -0.428571 0 0.571429  255 0 0 255
1.5 11 3 -0.6 0 0.4  255 0 0 255
1.5 11.375 3 -0.5 0 0.5  255 0 0 255
1.5 11.75 3 -0.428571 0 0.571429  255 0 0 255
1.5 12.125 3 -0.6 0 0.4  255 0 0 255
1.5 12.5 3 -0.428571 0 0.571429  255 0 0 255
1.5 12.875 3 -0.428571 0 0.571429  255 0 0 255
1.5 13.25 3 -0.6 0 0.4  255 0 0 255
1.5 13.625 3 -0.428571 0 0.571429  255 0 0 255
1.5 14 3 -0.428571 0 0.571429  255 0 0 255
1.5 14.375 3 -0.666667 0 0.333333  255 0 0 255
1.5 14.75 3 -0.428571 0 0.571429  255 0 0 255
1.5 15.125 3 -0.428571 0 0.571429  255 0 0 255
1.5 15.5 3 -0.6 0 0.4  255 0 0 255
1.5 15.875 3 -0.428571 0 0.571429  255 0 0 255
1.5 16.25 3 -0.5 0 0.5  255 0 0 255
1.5 16.625 3 -0.6 0 0.4  255 0 0 255
1.5 17 3 -0.428571 0 0.571429  255 0 0 255
1.5 17.375 3 -0.428571 0 0.571429  255 0 0 255
1.5 17.75 3 -0.6 0 0.4  255 0 0 255
1.5 18.125 3 -0.5 0 0.5  255 0 0 255
1.5 18.5 3 -0.428571 0 0.571429  255 0 0 255
1.5 18.875 3 -0.6 0 0.4  255 0 0 255
1.5 19.25 3 -0.428571 0 0.571429  255 0 0 255
1.5 19.625 3 -0.428571 0 0.571429  255 0 0 255
1.5 20 3 -0.666667 0 0.333333  255 0 0 255
1.5 20.375 3 -0.428571 0 0.571429  255 0 0 255
1.5 20.75 3 -0.428571 0 0.571429  255 0 0 255
1.5 21.125 3 -0.6 0 0.4  255 0 0 255
1.5 21.5 3 -0.428571 0 0.571429  255 0 0 255
1.5 21.875 3 -0.5 0 0.5  255 0 0 255
1.5 22.25 3 -0.6 0 0.4  255 0 0 255
1.5 22.625 3 -0.428571 0 0.571429  255 0 0 255
1.5 23 3 -0.428571 0 0.571429  255 0 0 255
1.5 23.375 3 -0.5 0 0.5  255 0 0 255
1.5 23.75 3 -0.5 0 0.5  255 0 0 255
1.5 24.125 3 -0.5 0 0.5  255 0 0 255
1.5 24.5 3 -0.5 0 0.5  255 0 0 255
1.5 24.875 3 -0.428571 0 0.571429  255 0 0 255
1.5 25.25 3 -0.5 0 0.5  255 255 255 255
1.5 25.625 3 -0.571429 0 0.428571  255 255 255 255
1.5 3.375 3 -0.5 0 0.5  255 255 255 255
1.5 3 3 -0.428571 0 0.571429  255 0 0 255
1.5 2.625 3 -0.5 0 0.5  255 0 0 255
1.5 2.25 3 -0.428571 0 0.571429  255 0 0 255
1.5 1.875 3 -0.5 0 0.5  255 0 0 255
1.5 1.5 3 -0.571429 0 0.428571  255 0 0 255
1.5 1.125 3 -0.428571 0 0.571429  255 255 255 255
1.5 0.75 3 -0.571429 0 0.428571  255 255 255 255
1.5 0.375 3 -0.5 0 0.5  255 255 255 255
1.875 3.75 3 0 0.5 0.5  255 255 255 255
2.25 3.75 3 0 0.5 0.5  255 0 0 255
2.625 3.75 3 0 0.5 0.5  255 0 0 255
3 3.75 3 0 0.5 0.5  255 0 0 255
3.375 3.75 3 0 0.5 0.5  255 0 0 255
3.75 3.75 3 0 0.428571 0.571429  255 0 0 255
4.125 3.75 3 0 0.5 0.5  255 0 0 255
4.5 3.75 3 0 0.5 0.5  255 0 0 255
4.875 3.75 3 0 0.5 0.5  255 0 0 255
5.25 3.75 3 0 0.5 0.5  255 0 0 255
5.625 3.75 3 0 0.5 0.5  255 0 0 255
6 3.75 3 0 0.5 0.5  255 0 0 255
6.375 3.75 3 0 0.5 0.5  255 0 0 255
6.75 3.75 3 0 0.5 0.5  255 0 0 255
7.125 3.75 3 0 0.5 0.5  255 0 0 255
7.5 3.75 3 0 0.5 0.5  255 0 0 255
7.875 3.75 3 0 0.5 0.5  255 0 0 255
8.25 3.75 3 0 0.5 0.5  255 0 0 255
8.625 3.75 3 0 0.5 0.5  255 0 0 255
9 3.75 3 0 0.5 0.5  255 0 0 255
9.375 3.75 3 0 0.5 0.5  255 0 0 255
9.75 3.75 3 0 0.5 0.5  255 0 0 255
10.125 3.75 3 0 0.5 0.5  255 0 0 255
10.5 3.75 3 0 0.5 0.5  255 0 0 255
10.875 3.75 3 0 0.5 0.5  255 0 0 255
11.25 3.75 3 0 0.571429 0.428571  255 0 0 255
11.625 3.75 3 0 0.5 0.5  255 0 0 255
12 3.75 3 0 0.5 0.5  255 0 0 255
12.375 3.75 3 0 0.5 0.5  255 0 0 255
12.75 3.75 3 0 0.5 0.5  255 0 0 255
13.125 3.75 3 0 0.571429 0.428571  255 0 0 255
13.5 3.75 3 0 0.5 0.5  255 0 0 255
13.875 3.75 3 0 0.571429 0.428571  255 0 0 255
14.25 3.75 3 0 0.5 0.5  255 0 0 255
14.625 3.75 3 0 0.5 0.5  255 0 0 255
15 3.75 3 0 0.5 0.5  255 0 0 255
15.375 3.75 3 0 0.5 0.5  255 0 0 255
15.75 3.75 3 0 0.5 0.5  255 0 0 255
16.125 3.75 3 0 0.5 0.5  255 0 0 255
16.5 3.75 3 0 0.5 0.5  255 0 0 255
16.875 3.75 3 0 0.5 0.5  255 0 0 255
17.25 3.75 3 0 0.5 0.5  255 0 0 255
17.625 3.75 3 0 0.5 0.5  255 0 0 255
18 3.75 3 0 0.5 0.5  255 0 0 255
18.375 3.75 3 0 0.5 0.5  255 0 0 255
18.75 3.75 3 0 0.571429 0.428571  255 0 0 255
19.125 3.75 3 0 0.5 0.5  255 0 0 255
19.5 3.75 3 0 0.5 0.5  255 0 0 255
19.875 3.75 3 0 0.5 0.5  255 0 0 255
20.25 3.75 3 0 0.5 0.5  255 0 0 255
20.625 3.75 3 0 0.5 0.5  255 0 0 255
21 3.75 3 0 0.5 0.5  255 0 0 255
21.375 3.75 3 0 0.5 0.5  255 0 0 255
21.75 3.75 3 0 0.5 0.5  255 0 0 255
22.125 3.75 3 0 0.5 0.5  255 0 0 255
22.5 3.75 3 0 0.571429 0.428571  255 0 0 255
22.875 3.75 3 0 0.5 0.5  255 0 0 255
23.25 3.75 3 0 0.5 0.5  255 0 0 255
23.625 3.75 3 0 0.5 0.5  255 0 0 255
24 3.75 3 0 0.5 0.5  255 0 0 255
24.375 3.75 3 0 0.571429 0.428571  255 0 0 255
24.75 3.75 3 0 0.5 0.5  255 255 255 255
25.125 3.75 3 0 0.428571 0.571429  255 255 255 255
2.8 25.625 3 0.5 0 0.5  255 255 255 255
2.8 25.25 3 0.5 0 0.5  255 0 0 255
2.8 24.875 3 0.5 0 0.5  255 0 0 255
2.8 24.5 3 0.5 0 0.5  255 0 0 255
2.8 24.125 3 0.5 0 0.5  255 0 0 255
2.8 23.75 3 0.571429 0 0.428571  255 0 0 255
2.8 23.375 3 0.5 0 0.5  255 0 0 255
2.8 23 3 0.5 0 0.5  255 0 0 255
2.8 22.625 3 0.428571 0 0.571429  255 0 0 255
2.8 22.25 3 0.5 0 0.5  255 0 0 255
2.8 21.875 3 0.571429 0 0.428571  255 0 0 255
2.8 21.5 3 0.5 0 0.5  255 0 0 255
2.8 21.125 3 0.5 0 0.5  255 0 0 255
2.8 20.75 3 0.5 0 0.5  255 0 0 255
2.8 20.375 3 0.5 0 0.5  255 0 0 255
2.8 20 3 0.5 0 0.5  255 0 0 255
2.8 19.625 3 0.5 0 0.5  255 0 0 255
2.8 19.25 3 0.5 0 0.5  255 0 0 255
2.8 18.875 3 0.5 0 0.5  255 0 0 255
2.8 18.5 3 0.5 0 0.5  255 0 0 255
2.8 18.125 3 0.5 0 0.5  255 0 0 255
2.8 17.75 3 0.571429 0 0.428571  255 0 0 255
2.8 17.375 3 0.428571 0 0.571429  255 0 0 255
2.8 17 3 0.5 0 0.5  255 0 0 255
2.8 16.625 3 0.5 0 0.5  255 0 0 255
2.8 16.25 3 0.5 0 0.5  255 0 0 255
2.8 15.875 3 0.5 0 0.5  255 0 0 255
2.8 15.5 3 0.428571 0 0.571429  255 0 0 255
2.8 15.125 3 0.5 0 0.5  255 0 0 255
2.8 14.75 3 0.5 0 0.5  255 0 0 255
2.8 14.375 3 0.571429 0 0.428571  255 0 0 255
2.8 14 3 0.5 0 0.5  255 0 0 255
2.8 13.625 3 0.5 0 0.5  255 0 0 255
2.8 13.25 3 0.5 0 0.5  255 0 0 255
2.8 12.875 3 0.5 0 0.5  255 0 0 255
2.8 12.5 3 0.428571 0 0.571429  255 0 0 255
2.8 12.125 3 0.5 0 0.5  255 0 0 255
2.8 11.75 3 0.5 0 0.5  255 0 0 255
2.8 11.375 3 0.5 0 0.5  255 0 0 255
2.8 11 3 0.5 0 0.5  255 0 0 255
2.8 10.625 3 0.5 0 0.5  255 0 0 255
2.8 10.25 3 0.5 0 0.5  255 0 0 255
2.8 9.875 3 0.5 0 0.5  255 255 255 255
1.5 9.875 -3 -0.571429 0 -0.428571  255 255 255 255
1.5 10.25 -3 -0.5 0 -0.5  255 0 0 255
1.5 10.625 -3 -0.428571 0 -0.571429  255 0 0 255
1.5 11 -3 -0.6 0 -0.4  255 0 0 255
1.5 11.375 -3 -0.428571 0 -0.571429  255 0 0 255
1.5 11.75 -3 -0.5 0 -0.5  255 0 0 255
1.5 12.125 -3 -0.6 0 -0.4  255 0 0 255
1.5 12.5 -3 -0.428571 0 -0.571429  255 0 0 255
1.5 12.875 -3 -0.428571 0 -0.571429  255 0 0 255
1.5 13.25 -3 -0.6 0 -0.4  255 0 0 255
1.5 13.625 -3 -0.428571 0 -0.571429  255 0 0 255
1.5 14 -3 -0.428571 0 -0.571429  255 0 0 255
1.5 14.375 -3 -0.6 0 -0.4  255 0 0 255
1.5 14.75 -3 -0.428571 0 -0.571429  255 0 0 255
1.5 15.125 -3 -0.428571 0 -0.571429  255 0 0 255
1.5 15.5 -3 -0.6 0 -0.4  255 0 0 255
1.5 15.875 -3 -0.428571 0 -0.571429  255 0 0 255
1.5 16.25 -3 -0.428571 0 -0.571429  255 0 0 255
1.5 16.625 -3 -0.666667 0 -0.333333  255 0 0 255
1.5 17 -3 -0.428571 0 -0.571429  255 0 0 255
1.5 17.375 -3 -0.428571 0 -0.571429  255 0 0 255
1.5 17.75 -3 -0.6 0 -0.4  255 0 0 255
1.5 18.125 -3 -0.428571 0 -0.571429  255 0 0 255
1.5 18.5 -3 -0.428571 0 -0.571429  255 0 0 255
1.5 18.875 -3 -0.6 0 -0.4  255 0 0 255
1.5 19.25 -3 -0.428571 0 -0.571429  255 0 0 255
1.5 19.625 -3 -0.428571 0 -0.571429  255 0 0 255
1.5 20 -3 -0.6 0 -0.4  255 0 0 255
1.5 20.375 -3 -0.428571 0 -0.571429  255 0 0 255
1.5 20.75 -3 -0.5 0 -0.5  255 0 0 255
1.5 21.125 -3 -0.6 0 -0.4  255 0 0 255
1.5 21.5 -3 -0.428571 0 -0.571429  255 0 0 255
1.5 21.875 -3 -0.428571 0 -0.571429  255 0 0 255
1.5 22.25 -3 -0.6 0 -0.4  255 0 0 255
1.5 22.625 -3 -0.428571 0 -0.571429  255 0 0 255
1.5 23 -3 -0.428571 0 -0.571429  255 0 0 255
1.5 23.375 -3 -0.5 0 -0.5  255 0 0 255
1.5 23.75 -3 -0.5 0 -0.5  255 0 0 255
1.5 24.125 -3 -0.4 0 -0.6  255 0 0 255
1.5 24.5 -3 -0.571429 0 -0.428571  255 0 0 255
1.5 24.875 -3 -0.428571 0 -0.571429  255 0 0 255
1.5 25.25 -3 -0.5 0 -0.5  255 255 255 255
1.5 25.625 -3 -0.5 0 -0.5  255 255 255 255
1.825 9.5 -3 0 -0.5 -0.5  255 255 255 255
2.15 9.5 -3 0 -0.5 -0.5  255 0 0 255
2.475 9.5 -3 0 -0.5 -0.5  255 255 255 255
2.8 25.625 -3 0.428571 0 -0.571429  255 255 255 255
2.8 25.25 -3 0.5 0 -0.5  255 0 0 255
2.8 24.875 -3 0.5 0 -0.5  255 0 0 255
2.8 24.5 -3 0.571429 0 -0.428571  255 0 0 255
2.8 24.125 -3 0.5 0 -0.5  255 0 0 255
2.8 23.75 -3 0.571429 0 -0.428571  255 0 0 255
2.8 23.375 -3 0.5 0 -0.5  255 0 0 255
2.8 23 -3 0.5 0 -0.5  255 0 0 255
2.8 22.625 -3 0.428571 0 -0.571429  255 0 0 255
2.8 22.25 -3 0.5 0 -0.5  255 0 0 255
2.8 21.875 -3 0.571429 0 -0.428571  255 0 0 255
2.8 21.5 -3 0.5 0 -0.5  255 0 0 255
2.8 21.125 -3 0.5 0 -0.5  255 0 0 255
2.8 20.75 -3 0.5 0 -0.5  255 0 0 255
2.8 20.375 -3 0.5 0 -0.5  255 0 0 255
2.8 20 -3 0.571429 0 -0.428571  255 0 0 255
2.8 19.625 -3 0.5 0 -0.5  255 0 0 255
2.8 19.25 -3 0.5 0 -0.5  255 0 0 255
2.8 18.875 -3 0.5 0 -0.5  255 0 0 255
2.8 18.5 -3 0.5 0 -0.5  255 0 0 255
2.8 18.125 -3 0.571429 0 -0.428571  255 0 0 255
2.8 17.75 -3 0.5 0 -0.5  255 0 0 255
2.8 17.375 -3 0.5 0 -0.5  255 0 0 255
2.8 17 -3 0.5 0 -0.5  255 0 0 255
2.8 16.625 -3 0.5 0 -0.5  255 0 0 255
2.8 16.25 -3 0.5 0 -0.5  255 0 0 255
2.8 15.875 -3 0.5 0 -0.5  255 0 0 255
2.8 15.5 -3 0.5 0 -0.5  255 0 0 255
2.8 15.125 -3 0.5 0 -0.5  255 0 0 255
2.8 14.75 -3 0.5 0 -0.5  255 0 0 255
2.8 14.375 -3 0.5 0 -0.5  255 0 0 255
2.8 14 -3 0.5 0 -0.5  255 0 0 255
2.8 13.625 -3 0.5 0 -0.5  255 0 0 255
2.8 13.25 -3 0.5 0 -0.5  255 0 0 255
2.8 12.875 -3 0.5 0 -0.5  255 0 0 255
2.8 12.5 -3 0.428571 0 -0.571429  255 0 0 255
2.8 12.125 -3 0.5 0 -0.5  255 0 0 255
2.8 11.75 -3 0.5 0 -0.5  255 0 0 255
2.8 11.375 -3 0.5 0 -0.5  255 0 0 255
2.8 11 -3 0.5 0 -0.5  255 0 0 255
2.8 10.625 -3 0.5 0 -0.5  255 0 0 255
2.8 10.25 -3 0.5 0 -0.5  255 0 0 255
2.8 9.875 -3 0.5 0 -0.5  255 255 255 255
1.875 3.75 -3 0 0.5 -0.5  255 255 255 255
2.25 3.75 -3 0 0.5 -0.5  255 0 0 255
2.625 3.75 -3 0 0.5 -0.5  255 0 0 255
3 3.75 -3 0 0.5 -0.5  255 0 0 255
3.375 3.75 -3 0 0.5 -0.5  255 0 0 255
3.75 3.75 -3 0 0.428571 -0.571429  255 0 0 255
4.125 3.75 -3 0 0.571429 -0.428571  255 0 0 255
4.5 3.75 -3 0 0.5 -0.5  255 0 0 255
4.875 3.75 -3 0 0.571429 -0.428571  255 0 0 255
5.25 3.75 -3 0 0.5 -0.5  255 0 0 255
5.625 3.75 -3 0 0.428571 -0.571429  255 0 0 255
6 3.75 -3 0 0.5 -0.5  255 0 0 255
6.375 3.75 -3 0 0.5 -0.5  255 0 0 255
6.75 3.75 -3 0 0.5 -0.5  255 0 0 255
7.125 3.75 -3 0 0.5 -0.5  255 0 0 255
7.5 3.75 -3 0 0.571429 -0.428571  255 0 0 255
7.875 3.75 -3 0 0.5 -0.5  255 0 0 255
8.25 3.75 -3 0 0.5 -0.5  255 0 0 255
8.625 3.75 -3 0 0.5 -0.5  255 0 0 255
9 3.75 -3 0 0.571429 -0.428571  255 0 0 255
9.375 3.75 -3 0 0.5 -0.5  255 0 0 255
9.75 3.75 -3 0 0.5 -0.5  255 0 0 255
10.125 3.75 -3 0 0.5 -0.5  255 0 0 255
10.5 3.75 -3 0 0.5 -0.5  255 0 0 255
10.875 3.75 -3 0 0.5 -0.5  255 0 0 255
11.25 3.75 -3 0 0.571429 -0.428571  255 0 0 255
11.625 3.75 -3 0 0.5 -0.5  255 0 0 255
12 3.75 -3 0 0.5 -0.5  255 0 0 255
12.375 3.75 -3 0 0.5 -0.5  255 0 0 255
12.75 3.75 -3 0 0.5 -0.5  255 0 0 255
13.125 3.75 -3 0 0.5 -0.5  255 0 0 255
13.5 3.75 -3 0 0.5 -0.5  255 0 0 255
13.875 3.75 -3 0 0.5 -0.5  255 0 0 255
14.25 3.75 -3 0 0.5 -0.5  255 0 0 255
14.625 3.75 -3 0 0.571429 -0.428571  255 0 0 255
15 3.75 -3 0 0.5 -0.5  255 0 0 255
15.375 3.75 -3 0 0.5 -0.5  255 0 0 255
15.75 3.75 -3 0 0.5 -0.5  255 0 0 255
16.125 3.75 -3 0 0.5 -0.5  255 0 0 255
16.5 3.75 -3 0 0.5 -0.5  255 0 0 255
16.875 3.75 -3 0 0.5 -0.5  255 0 0 255
17.25 3.75 -3 0 0.5 -0.5  255 0 0 255
17.625 3.75 -3 0 0.5 -0.5  255 0 0 255
18 3.75 -3 0 0.5 -0.5  255 0 0 255
18.375 3.75 -3 0 0.5 -0.5  255 0 0 255
18.75 3.75 -3 0 0.5 -0.5  255 0 0 255
19.125 3.75 -3 0 0.5 -0.5  255 0 0 255
19.5 3.75 -3 0 0.571429 -0.428571  255 0 0 255
19.875 3.75 -3 0 0.5 -0.5  255 0 0 255
20.25 3.75 -3 0 0.5 -0.5  255 0 0 255
20.625 3.75 -3 0 0.5 -0.5  255 0 0 255
21 3.75 -3 0 0.5 -0.5  255 0 0 255
21.375 3.75 -3 0 0.5 -0.5  255 0 0 255
21.75 3.75 -3 0 0.5 -0.5  255 0 0 255
22.125 3.75 -3 0 0.5 -0.5  255 0 0 255
22.5 3.75 -3 0 0.571429 -0.428571  255 0 0 255
22.875 3.75 -3 0 0.5 -0.5  255 0 0 255
23.25 3.75 -3 0 0.5 -0.5  255 0 0 255
23.625 3.75 -3 0 0.5 -0.5  255 0 0 255
24 3.75 -3 0 0.5 -0.5  255 0 0 255
24.375 3.75 -3 0 0.571429 -0.428571  255 0 0 255
24.75 3.75 -3 0 0.5 -0.5  255 255 255 255
25.125 3.75 -3 0 0.428571 -0.571429  255 255 255 255
1.5 3.375 -3 -0.5 0 -0.5  255 255 255 255
1.5 3 -3 -0.428571 0 -0.571429  255 0 0 255
1.5 2.625 -3 -0.5 0 -0.5  255 0 0 255
1.5 2.25 -3 -0.428571 0 -0.571429  255 0 0 255
1.5 1.875 -3 -0.5 0 -0.5  255 0 0 255
1.5 1.5 -3 -0.571429 0 -0.428571  255 0 0 255
1.5 1.125 -3 -0.428571 0 -0.571429  255 255 255 255
1.5 0.75 -3 -0.571429 0 -0.428571  255 255 255 255
1.5 0.375 -3 -0.5 0 -0.5  255 255 255 255
1.5 3.75 -4.66667 -0.6 0.4 0  255 0 0 255
1.5 3.75 -4.33333 -0.5 0.5 0  255 0 0 255
1.5 3.75 -4 -0.428571 0.571429 0  255 0 0 255
1.5 3.75 -3.66667 -0.5 0.5 0  255 0 0 255
1.5 3.75 -3.33333 -0.6 0.4 0  255 255 255 255
1.5 0.3125 -3.16667 -0.5 -0.235294 -0.441177  255 0 0 255
1.5 0.625 -3.33333 -0.571429 -0.201681 -0.378151  255 0 0 255
1.5 0.9375 -3.5 -0.428571 -0.268907 -0.504202  255 0 0 255
1.5 1.25 -3.66667 -0.5 -0.235294 -0.441177  255 0 0 255
1.5 1.5625 -3.83333 -0.5 -0.235294 -0.441177  255 0 0 255
1.5 1.875 -4 -0.5 -0.235294 -0.441177  255 0 0 255
1.5 2.1875 -4.16667 -0.5 -0.235294 -0.441177  255 0 0 255
1.5 2.5 -4.33333 -0.571429 -0.201681 -0.378151  255 0 0 255
1.5 2.8125 -4.5 -0.5 -0.235294 -0.441177  255 0 0 255
1.5 3.125 -4.66667 -0.5 -0.235294 -0.441177  255 0 0 255
1.5 3.4375 -4.83333 -0.5 -0.235294 -0.441177  255 0 0 255
1.875 3.75 -5 0 0.264706 -0.441177  255 0 0 255
2.25 3.75 -5 0 0.264706 -0.441177  255 0 0 255
2.625 3.75 -5 0 0.369748 -0.378151  255 0 0 255
3 3.75 -5 0 0.159664 -0.504202  255 0 0 255
3.375 3.75 -5 0 0.264706 -0.441177  255 0 0 255
3.75 3.75 -5 0 0.264706 -0.441177  255 0 0 255
4.125 3.75 -5 0 0.369748 -0.378151  255 0 0 255
4.5 3.75 -5 0 0.264706 -0.441177  255 0 0 255
4.875 3.75 -5 0 0.264706 -0.441177  255 0 0 255
5.25 3.75 -5 0 0.264706 -0.441177  255 0 0 255
5.625 3.75 -5 0 0.264706 -0.441177  255 0 0 255
6 3.75 -5 0 0.264706 -0.441177  255 0 0 255
6.375 3.75 -5 0 0.264706 -0.441177  255 0 0 255
6.75 3.75 -5 0 0.264706 -0.441177  255 0 0 255
7.125 3.75 -5 0 0.264706 -0.441177  255 0 0 255
7.5 3.75 -5 0 0.264706 -0.441177  255 0 0 255
7.875 3.75 -5 0 0.264706 -0.441177  255 0 0 255
8.25 3.75 -5 0 0.264706 -0.441177  255 0 0 255
8.625 3.75 -5 0 0.264706 -0.441177  255 0 0 255
9 3.75 -5 0 0.369748 -0.378151  255 0 0 255
9.375 3.75 -5 0 0.264706 -0.441177  255 0 0 255
9.75 3.75 -5 0 0.264706 -0.441177  255 0 0 255
10.125 3.75 -5 0 0.264706 -0.441177  255 0 0 255
10.5 3.75 -5 0 0.264706 -0.441177  255 0 0 255
10.875 3.75 -5 0 0.264706 -0.441177  255 0 0 255
11.25 3.75 -5 0 0.264706 -0.441177  255 0 0 255
11.625 3.75 -5 0 0.369748 -0.378151  255 0 0 255
12 3.75 -5 0 0.159664 -0.504202  255 0 0 255
12.375 3.75 -5 0 0.264706 -0.441177  255 0 0 255
12.75 3.75 -5 0 0.264706 -0.441177  255 0 0 255
13.125 3.75 -5 0 0.159664 -0.504202  255 0 0 255
13.5 3.75 -5 0 0.264706 -0.441177  255 0 0 255
13.875 3.75 -5 0 0.264706 -0.441177  255 0 0 255
14.25 3.75 -5 0 0.264706 -0.441177  255 0 0 255
14.625 3.75 -5 0 0.264706 -0.441177  255 0 0 255
15 3.75 -5 0 0.264706 -0.441177  255 0 0 255
15.375 3.75 -5 0 0.369748 -0.378151  255 0 0 255
15.75 3.75 -5 0 0.159664 -0.504202  255 0 0 255
16.125 3.75 -5 0 0.264706 -0.441177  255 0 0 255
16.5 3.75 -5 0 0.264706 -0.441177  255 0 0 255
16.875 3.75 -5 0 0.264706 -0.441177  255 0 0 255
17.25 3.75 -5 0 0.264706 -0.441177  255 0 0 255
17.625 3.75 -5 0 0.159664 -0.504202  255 0 0 255
18 3.75 -5 0 0.264706 -0.441177  255 0 0 255
18.375 3.75 -5 0 0.264706 -0.441177  255 0 0 255
18.75 3.75 -5 0 0.264706 -0.441177  255 0 0 255
19.125 3.75 -5 0 0.264706 -0.441177  255 0 0 255
19.5 3.75 -5 0 0.369748 -0.378151  255 0 0 255
19.875 3.75 -5 0 0.264706 -0.441177  255 0 0 255
20.25 3.75 -5 0 0.264706 -0.441177  255 0 0 255
20.625 3.75 -5 0 0.264706 -0.441177  255 0 0 255
21 3.75 -5 0 0.264706 -0.441177  255 0 0 255
21.375 3.75 -5 0 0.264706 -0.441177  255 0 0 255
21.75 3.75 -5 0 0.264706 -0.441177  255 0 0 255
22.125 3.75 -5 0 0.159664 -0.504202  255 0 0 255
22.5 3.75 -5 0 0.369748 -0.378151  255 0 0 255
22.875 3.75 -5 0 0.264706 -0.441177  255 0 0 255
23.25 3.75 -5 0 0.264706 -0.441177  255 0 0 255
23.625 3.75 -5 0 0.159664 -0.504202  255 0 0 255
24 3.75 -5 0 0.264706 -0.441177  255 0 0 255
24.375 3.75 -5 0 0.369748 -0.378151  255 0 0 255
24.75 3.75 -5 0 0.264706 -0.441177  255 0 0 255
25.125 3.75 -5 0 0.159664 -0.504202  255 0 0 255
1.5 3.75 3.33333 -0.6 0.4 0  255 255 255 255
1.5 3.75 3.66667 -0.5 0.5 0  255 0 0 255
1.5 3.75 4 -0.428571 0.571429 0  255 0 0 255
1.5 3.75 4.33333 -0.5 0.5 0  255 0 0 255
1.5 3.75 4.66667 -0.6 0.4 0  255 0 0 255
1.875 3.75 5 0 0.264706 0.441177  255 0 0 255
2.25 3.75 5 0 0.264706 0.441177  255 0 0 255
2.625 3.75 5 0 0.369748 0.378151  255 0 0 255
3 3.75 5 0 0.159664 0.504202  255 0 0 255
3.375 3.75 5 0 0.264706 0.441177  255 0 0 255
3.75 3.75 5 0 0.264706 0.441177  255 0 0 255
4.125 3.75 5 0 0.264706 0.441177  255 0 0 255
4.5 3.75 5 0 0.264706 0.441177  255 0 0 255
4.875 3.75 5 0 0.159664 0.504202  255 0 0 255
5.25 3.75 5 0 0.264706 0.441177  255 0 0 255
5.625 3.75 5 0 0.264706 0.441177  255 0 0 255
6 3.75 5 0 0.264706 0.441177  255 0 0 255
6.375 3.75 5 0 0.264706 0.441177  255 0 0 255
6.75 3.75 5 0 0.264706 0.441177  255 0 0 255
7.125 3.75 5 0 0.264706 0.441177  255 0 0 255
7.5 3.75 5 0 0.264706 0.441177  255 0 0 255
7.875 3.75 5 0 0.264706 0.441177  255 0 0 255
8.25 3.75 5 0 0.264706 0.441177  255 0 0 255
8.625 3.75 5 0 0.264706 0.441177  255 0 0 255
9 3.75 5 0 0.264706 0.441177  255 0 0 255
9.375 3.75 5 0 0.264706 0.441177  255 0 0 255
9.75 3.75 5 0 0.369748 0.378151  255 0 0 255
10.125 3.75 5 0 0.264706 0.441177  255 0 0 255
10.5 3.75 5 0 0.264706 0.441177  255 0 0 255
10.875 3.75 5 0 0.264706 0.441177  255 0 0 255
11.25 3.75 5 0 0.264706 0.441177  255 0 0 255
11.625 3.75 5 0 0.264706 0.441177  255 0 0 255
12 3.75 5 0 0.159664 0.504202  255 0 0 255
12.375 3.75 5 0 0.264706 0.441177  255 0 0 255
12.75 3.75 5 0 0.264706 0.441177  255 0 0 255
13.125 3.75 5 0 0.264706 0.441177  255 0 0 255
13.5 3.75 5 0 0.159664 0.504202  255 0 0 255
13.875 3.75 5 0 0.369748 0.378151  255 0 0 255
14.25 3.75 5 0 0.264706 0.441177  255 0 0 255
14.625 3.75 5 0 0.264706 0.441177  255 0 0 255
15 3.75 5 0 0.159664 0.504202  255 0 0 255
15.375 3.75 5 0 0.264706 0.441177  255 0 0 255
15.75 3.75 5 0 0.369748 0.378151  255 0 0 255
16.125 3.75 5 0 0.264706 0.441177  255 0 0 255
16.5 3.75 5 0 0.264706 0.441177  255 0 0 255
16.875 3.75 5 0 0.264706 0.441177  255 0 0 255
17.25 3.75 5 0 0.264706 0.441177  255 0 0 255
