ply
format ascii 1.0
comment VCGLIB generated
element vertex 699
property float x
property float y
property float z
property float nx
property float ny
property float nz
property uchar red
property uchar green
property uchar blue
property uchar alpha
element face 0
property list uchar int vertex_indices
end_header
-26.079 -1.35828 92.5 0 0 1  255 255 255 255
5.58502 17.9897 92.5 0 0 1  255 255 255 255
-11.6233 12.4029 92.5 0 0 1  255 255 255 255
-23.9267 3.76545 92.5 0 0 1  255 255 255 255
17.6894 18.0896 92.5 0 0 1  255 255 255 255
-20.4625 21.9037 42.605 -0.481549 0.854314 0.195594  255 255 255 255
-13.3895 26.9502 34.1145 -0.327896 0.92376 0.197868  255 255 255 255
-10.4372 27.8298 34.5093 -0.280549 0.939748 0.195363  255 255 255 255
-10.5838 29.0476 28.5776 -0.273095 0.940007 0.204468  255 255 255 255
-5.8573 26.932 45.2983 -0.228138 0.957036 0.178982  255 255 255 255
-3.59507 26.5379 50.2186 -0.201691 0.964102 0.172706  255 255 255 255
-1.91242 28.2755 42.3576 -0.162491 0.970563 0.177774  255 255 255 255
0.765721 27.2103 50.6836 -0.133469 0.976845 0.167212  255 255 255 255
-0.773041 28.2808 43.3244 -0.146242 0.973563 0.175468  255 255 255 255
3.7252 29.0947 41.5765 -0.072301 0.982378 0.172354  255 255 255 255
5.95616 27.6877 50.7151 -0.048421 0.985776 0.160939  255 255 255 255
4.69968 28.9636 42.7011 -0.058116 0.983745 0.169907  255 255 255 255
9.12685 29.2387 41.6434 0.016343 0.985989 0.166011  255 255 255 255
10.0509 29.0262 42.7829 0.030699 0.986053 0.163574  255 255 255 255
12.2655 27.6914 50.4633 0.060947 0.986293 0.153335  255 255 255 255
15.3476 27.3855 50.6495 0.11624 0.981936 0.149299  255 255 255 255
14.5638 28.7677 42.4067 0.109236 0.981226 0.158943  255 255 255 255
17.4141 27.0899 50.7225 0.153487 0.977209 0.146642  255 255 255 255
16.783 28.519 42.1388 0.1482 0.976429 0.15692  255 255 255 255
35.5646 20.825 51.0114 0.479997 0.868442 0.124143  255 255 255 255
20.6343 27.8725 41.6658 0.215716 0.96429 0.15366  255 255 255 255
22.4112 26.0898 50.5538 0.243791 0.959577 0.140633  255 255 255 255
21.4947 27.5707 42.3106 0.230567 0.961122 0.151935  255 255 255 255
28.3693 22.6417 62.0143 0.345878 0.930285 0.12222  255 255 255 255
24.1195 27.0643 41.1088 0.276574 0.949038 0.151109  255 255 255 255
26.6939 24.9954 49.3145 0.320982 0.937112 0.137083  255 255 255 255
47.0837 14.4123 35.9816 0.733932 0.66561 0.135306  255 255 255 255
42.7036 21.3683 20.723 0.600803 0.785224 0.149863  255 255 255 255
49.1434 13.7452 27.6899 0.777579 0.614043 0.135358  255 255 255 255
-31.633 16.2523 31.7184 -0.696201 0.68544 0.213249  255 255 255 255
-28.7434 22.4414 19.5195 -0.583892 0.777652 0.233085  255 255 255 255
49.5165 13.5056 26.6051 0.787014 0.602145 0.134279  255 255 255 255
-34.2163 15.0541 26.8405 -0.736943 0.638906 0.220715  255 255 255 255
45.3022 19.7412 18.0384 0.65796 0.739396 0.142769  255 255 255 255
-27.1152 13.0677 57.0431 -0.700486 0.680493 0.215053  255 255 255 255
-31.5005 20.0639 19.9353 -0.644795 0.72801 0.232899  255 255 255 255
-35.0821 14.2157 26.2971 -0.755997 0.615783 0.22199  255 255 255 255
-24.9001 12.4904 66.0464 -0.687386 0.694151 0.213672  255 255 255 255
-24.6284 12.0321 68.4118 -0.69227 0.689552 0.212792  255 255 255 255
-24.0248 12.1477 69.9922 -0.683832 0.698405 0.211199  255 255 255 255
45.4201 11.9371 60.3994 0.74165 0.663569 0.098144  255 255 255 255
-23.1785 12.5457 71.3759 -0.667867 0.714291 0.209146  255 255 255 255
48.242 17.1523 16.4681 0.731944 0.668376 0.132409  255 255 255 255
44.8053 11.7781 66.3266 0.732294 0.6749 0.090867  255 255 255 255
-35.0239 17.6194 17.0177 -0.710996 0.660849 0.240339  255 255 255 255
51.1684 12.2207 22.0084 0.831245 0.541265 0.12674  255 255 255 255
-37.9161 11.4318 23.4991 -0.816058 0.53134 0.227436  255 255 255 255
44.9442 11.4078 67.953 0.740364 0.66632 0.088767  255 255 255 255
49.7518 15.19 17.4177 0.776661 0.616786 0.127955  255 255 255 255
44.4794 11.6833 69.7148 0.72648 0.681584 0.087576  255 255 255 255
-38.2462 11.4358 22.3084 -0.818181 0.527276 0.229259  255 255 255 255
44.1617 11.8151 71.3097 0.71743 0.691227 0.086603  255 255 255 255
44.0155 11.7975 72.6661 0.714018 0.694859 0.085727  255 255 255 255
40.514 14.3114 77.5269 0.602386 0.793029 0.09075  255 255 255 255
45.955 9.65358 72.0249 0.787804 0.610345 0.082732  255 255 255 255
-20.3314 13.1887 78.0631 -0.624669 0.755087 0.199078  255 255 255 255
-26.3254 8.62556 72.9536 -0.769715 0.601972 0.21253  255 255 255 255
-39.7942 9.6504 20.568 -0.85157 0.469896 0.232436  255 255 255 255
-26.9007 7.62906 73.5858 -0.793803 0.56977 0.212697  255 255 255 255
53.2112 9.66406 17.7559 0.892287 0.437031 0.113263  255 255 255 255
-22.0305 11.0303 80.4425 -0.680087 0.706352 0.196337  255 255 255 255
-26.1344 7.62744 76.4673 -0.786473 0.581516 0.208084  255 255 255 255
-39.9621 14.085 10.6454 -0.79585 0.548187 0.257126  255 255 255 255
51.3312 14.4087 10.7923 0.816969 0.565821 0.111398  255 255 255 255
46.9264 7.90375 74.8055 0.835333 0.544235 0.07764  255 255 255 255
53.1233 10.9257 13.3184 0.879782 0.463116 0.107269  255 255 255 255
46.7746 7.93636 76.2171 0.831655 0.550021 0.076334  255 255 255 255
52.8818 12.0708 10.131 0.866264 0.488975 0.102422  255 255 255 255
-21.2398 11.1513 82.7519 -0.668639 0.718699 0.190774  255 255 255 255
43.3722 11.3859 81.5639 0.69942 0.71001 0.081836  255 255 255 255
54.7575 6.6375 15.3346 0.939237 0.327822 0.101815  255 255 255 255
-27.2996 5.71051 76.9664 -0.834502 0.50993 0.208752  255 255 255 255
-42.0862 10.9917 9.97282 -0.846544 0.466485 0.256429  255 255 255 255
54.9668 6.31647 14.4008 0.943977 0.314673 0.099438  255 255 255 255
-27.745 4.81832 77.2652 -0.855772 0.473326 0.208849  255 255 255 255
47.6751 6.18762 77.9828 0.875261 0.478379 0.071222  255 255 255 255
53.4889 11.0605 9.58092 0.885287 0.454546 0.098259  255 255 255 255
-42.616 10.4626 9.16102 -0.855576 0.448908 0.257821  255 255 255 255
55.2532 5.72925 13.4518 0.951193 0.293085 0.096609  255 255 255 255
44.7964 9.70634 82.9139 0.756329 0.649695 0.076577  255 255 255 255
-43.0141 6.00546 14.8325 -0.909267 0.338139 0.242685  255 255 255 255
-22.848 9.19382 84.0123 -0.721583 0.66596 0.189251  255 255 255 255
54.0861 9.96372 8.99927 0.90371 0.417673 0.094119  255 255 255 255
48.2165 5.08431 78.2873 0.899615 0.431248 0.068688  255 255 255 255
-43.1914 9.95343 8.11354 -0.864364 0.430855 0.259304  255 255 255 255
-27.3379 4.54039 79.597 -0.858542 0.470858 0.202974  255 255 255 255
-43.5711 5.61894 13.2738 -0.914633 0.321065 0.24569  255 255 255 255
45.6152 8.63715 83.4216 0.791741 0.606456 0.0732  255 255 255 255
54.7867 8.22991 9.38688 0.927031 0.363587 0.09175  255 255 255 255
-43.7452 8.64832 8.33062 -0.881391 0.395654 0.258085  255 255 255 255
-23.6872 8.06693 84.6111 -0.75215 0.631441 0.188554  255 255 255 255
48.3902 4.5587 79.2414 0.909107 0.411254 0.066286  255 255 255 255
-44.0946 4.82077 12.3159 -0.923588 0.292347 0.248031  255 255 255 255
45.8853 8.13067 84.63 0.804986 0.589033 0.070982  255 255 255 255
-27.5034 3.86265 80.4206 -0.873589 0.443108 0.201241  255 255 255 255
48.606 3.90062 80.2404 0.920446 0.385696 0.063385  255 255 255 255
-24.2133 7.22928 85.2295 -0.774272 0.604408 0.187601  255 255 255 255
-44.5566 4.10641 11.3982 -0.930761 0.266327 0.250507  255 255 255 255
55.0388 8.10072 7.27342 0.931098 0.354499 0.08594  255 255 255 255
46.5234 7.15022 85.1223 0.834406 0.546994 0.067561  255 255 255 255
-27.3257 3.73822 81.4731 -0.874953 0.441588 0.198638  255 255 255 255
-44.2911 8.18429 7.15727 -0.888677 0.378149 0.259337  255 255 255 255
55.8525 4.44921 10.9982 0.964866 0.246832 0.090046  255 255 255 255
48.8017 3.26355 81.1543 0.930674 0.360812 0.060505  255 255 255 255
-25.0772 6.05827 85.2247 -0.807099 0.559573 0.188332  255 255 255 255
48.9528 2.73477 81.8993 0.938595 0.340104 0.058038  255 255 255 255
-27.6812 1.26351 84.7221 -0.926254 0.324499 0.191713  255 255 255 255
-46.0928 1.61196 7.87361 -0.950498 0.17483 0.25688  255 255 255 255
49.2467 1.36138 84.7447 0.956027 0.289011 0.04984  255 255 255 255
-46.5205 3.29274 5.00138 -0.939512 0.224729 0.258483  255 255 255 255
48.3173 3.50635 87.4521 0.917672 0.393745 0.053313  255 255 255 255
-46.4392 1.28054 6.80982 -0.952544 0.161852 0.257804  255 255 255 255
-27.7086 0.541127 85.745 -0.939417 0.285636 0.189491  255 255 255 255
56.6745 3.14539 4.86194 0.977057 0.199217 0.075319  255 255 255 255
-46.9486 2.46518 4.1138 -0.94591 0.196495 0.258154  255 255 255 255
-26.9093 1.38374 88.3061 -0.9206 0.34456 0.183776  255 255 255 255
56.9968 0.681513 5.948 0.989081 0.125257 0.077651  255 255 255 255
-47.1244 -0.414088 5.13677 -0.96057 0.102763 0.258349  255 255 255 255
49.4337 0.147758 87.9097 0.968501 0.245529 0.041496  255 255 255 255
57.1021 1.32933 3.38544 0.986951 0.144269 0.071512  255 255 255 255
-47.3842 1.59723 3.12201 -0.951802 0.16675 0.257425  255 255 255 255
-27.0436 0.338766 89.4267 -0.940926 0.285741 0.181686  255 255 255 255
49.1688 0.920125 89.1107 0.957668 0.284716 0.042535  255 255 255 255
57.251 -0.391887 4.16731 0.992927 0.092937 0.073879  255 255 255 255
-47.3982 -0.078612 3.97873 -0.959562 0.112616 0.257988  255 255 255 255
-27.504 -1.02753 88.8292 -0.963505 0.195605 0.182747  255 255 255 255
49.5527 -0.494426 88.7525 0.974917 0.219247 0.038306  255 255 255 255
57.3197 0.01038 2.66733 0.991984 0.105161 0.070058  255 255 255 255
-47.7152 0.312497 2.61853 -0.958471 0.123891 0.256875  255 255 255 255
-27.1659 -0.586267 90.1019 -0.956664 0.22864 0.180327  255 255 255 255
49.3782 0.003636 90.1532 0.968271 0.246966 0.038197  255 255 255 255
57.3793 -1.38409 3.48556 0.995326 0.063568 0.072706  255 255 255 255
-47.6411 -1.10305 3.45377 -0.962993 0.079184 0.257632  255 255 255 255
-27.3708 -1.51827 90.0278 -0.969592 0.165613 0.180176  255 255 255 255
49.6631 -1.19548 89.7278 0.981113 0.190282 0.034786  255 255 255 255
57.4562 -1.17844 2.2171 0.995112 0.070169 0.069485  255 255 255 255
-47.9378 -0.805146 2.24591 -0.962581 0.087757 0.256391  255 255 255 255
49.7265 -1.69507 90.5515 0.984969 0.169714 0.032155  255 255 255 255
57.5288 -2.05273 1.89736 0.996607 0.044549 0.069206  255 255 255 255
-48.1137 -1.86116 1.87703 -0.965181 0.054476 0.255848  255 255 255 255
-48.3722 -1.51774 0.818557 -0.965027 0.064536 0.254084  255 255 255 255
-27.3533 -2.49925 90.8563 -0.978671 0.102564 0.178  255 255 255 255
49.8471 -2.58667 91.014 0.991227 0.128979 0.028865  255 255 255 255
57.6023 -2.53616 1.09173 0.997246 0.030845 0.06744  255 255 255 255
-48.3359 -2.64872 1.16637 -0.966561 0.030081 0.254667  255 255 255 255
-8.39904 24.3998 55.1881 -0.286983 0.941492 0.176732  255 255 255 255
-10.7345 24.5928 50.255 -0.314826 0.931647 0.181433  255 255 255 255
30.4679 24.7 41.7396 0.386664 0.91086 0.144308  255 255 255 255
-13.5624 22.3704 56.0426 -0.382099 0.905296 0.185579  255 255 255 255
37.3315 23.2639 29.8629 0.50011 0.852232 0.153596  255 255 255 255
-6.75699 25.0511 54.2289 -0.258444 0.950104 0.174667  255 255 255 255
-2.27408 26.1495 53.9191 -0.187415 0.967622 0.169064  255 255 255 255
2.80569 26.8213 54.4784 -0.106251 0.98096 0.162566  255 255 255 255
8.57277 27.1854 54.3245 -0.008694 0.987796 0.155513  255 255 255 255
13.1739 27.0678 54.1225 0.073222 0.986022 0.149663  255 255 255 255
-17.0192 18.9506 64.0202 -0.484278 0.852753 0.19567  255 255 255 255
19.5637 26.2523 53.829 0.190004 0.971569 0.141254  255 255 255 255
27.2782 27.3175 33.4 0.330339 0.930277 0.159565  255 255 255 255
-1.33735 25.1547 60.7173 -0.184522 0.968728 0.165888  255 255 255 255
3.95432 25.8066 61.4091 -0.097756 0.98241 0.159108  255 255 255 255
8.89096 26.0576 61.5839 -0.012913 0.988168 0.152831  255 255 255 255
13.5195 25.9473 61.4296 0.070625 0.986692 0.146462  255 255 255 255
19.6875 25.1616 61.2997 0.185192 0.973114 0.136943  255 255 255 255
-4.05008 31.694 23.3061 -0.165784 0.96395 0.208125  255 255 255 255
0.209692 32.6489 21.5667 -0.099 0.973299 0.207093  255 255 255 255
0.982246 32.23 23.9191 -0.090571 0.975161 0.202133  255 255 255 255
4.28514 31.8787 26.777 -0.043675 0.980086 0.19371  255 255 255 255
5.83729 33.0332 21.2761 -0.012967 0.979361 0.201701  255 255 255 255
6.50467 32.4998 23.935 -0.005775 0.980543 0.196219  255 255 255 255
10.1112 30.9704 31.5825 0.043271 0.982828 0.179379  255 255 255 255
11.5415 32.8845 21.109 0.076032 0.977732 0.195601  255 255 255 255
12.0614 32.4048 23.3224 0.082323 0.97811 0.191112  255 255 255 255
15.477 30.4963 31.5533 0.132043 0.975899 0.173738  255 255 255 255
17.1958 32.1323 21.3582 0.166181 0.967898 0.188567  255 255 255 255
18.479 31.9369 21.157 0.187003 0.964327 0.187358  255 255 255 255
22.933 29.9571 26.171 0.257864 0.950297 0.174473  255 255 255 255
23.8663 30.5733 21.4792 0.274425 0.944581 0.180161  255 255 255 255
22.3565 29.1537 31.5037 0.24732 0.954427 0.167042  255 255 255 255
25.8046 30.1888 20.3563 0.306444 0.934888 0.179097  255 255 255 255
24.8441 29.8848 23.5744 0.289902 0.94073 0.176021  255 255 255 255
26.4733 28.8472 26.3371 0.31646 0.933189 0.170324  255 255 255 255
-3.76751 22.8531 70.8278 -0.245003 0.95457 0.169617  255 255 255 255
-4.96979 23.1709 67.2742 -0.257666 0.950991 0.170952  255 255 255 255
-0.043812 23.6006 71.2837 -0.182024 0.969404 0.164694  255 255 255 255
1.24108 23.7458 71.7667 -0.160746 0.97341 0.163198  255 255 255 255
6.1073 24.2724 72.162 -0.076924 0.984539 0.157371  255 255 255 255
9.88993 24.6668 70.6877 -0.007968 0.988344 0.152028  255 255 255 255
10.7439 24.4651 72.0096 0.005442 0.988485 0.151219  255 255 255 255
17.086 24.0769 71.8728 0.122396 0.982436 0.140852  255 255 255 255
22.3607 23.2254 71.2764 0.223083 0.966031 0.130453  255 255 255 255
23.7353 22.8165 71.8167 0.248546 0.960173 0.127643  255 255 255 255
-1.77903 32.2849 22.174 -0.129869 0.969474 0.207976  255 255 255 255
4.0167 32.7773 22.2688 -0.042095 0.978506 0.201877  255 255 255 255
9.69945 32.76 22.306 0.045869 0.979618 0.195563  255 255 255 255
38.6656 24.3244 19.7971 0.520757 0.838859 0.158517  255 255 255 255
15.204 32.2312 22.43 0.133411 0.972855 0.18909  255 255 255 255
21.9703 30.8973 22.4934 0.243105 0.952953 0.181054  255 255 255 255
26.3478 22.8878 65.4963 0.305421 0.944138 0.123777  255 255 255 255
-16.8396 28.4656 21.7622 -0.362306 0.905524 0.22082  255 255 255 255
-23.7144 23.9141 26.4075 -0.502535 0.837186 0.21582  255 255 255 255
-17.6062 17.0122 70.7706 -0.526795 0.826546 0.198264  255 255 255 255
30.3385 20.663 71.5327 0.374914 0.920041 0.11386  255 255 255 255
36.3736 18.3672 66.2243 0.4973 0.861192 0.105072  255 255 255 255
-25.367 25.3673 17.347 -0.50729 0.828587 0.236856  255 255 255 255
-2.79149 33.0717 17.9468 -0.138741 0.966312 0.216777  255 255 255 255
-15.2728 30.8149 14.6985 -0.320228 0.917809 0.234692  255 255 255 255
-12.8938 29.3478 24.0604 -0.301606 0.929153 0.213794  255 255 255 255
-34.725 12.608 31.9871 -0.776229 0.592161 0.216364  255 255 255 255
-12.5589 31.8547 14.0479 -0.276773 0.93211 0.233595  255 255 255 255
49.4434 12.2377 32.6503 0.800372 0.584503 0.133273  255 255 255 255
-11.2675 32.6969 12.1553 -0.253775 0.937772 0.237025  255 255 255 255
25.9928 21.3224 78.4163 0.282446 0.951313 0.123398  255 255 255 255
27.2011 21.2554 76.0038 0.309446 0.943267 0.120375  255 255 255 255
38.1038 16.552 72.6433 0.536564 0.838193 0.097627  255 255 255 255
42.3937 23.0855 12.9112 0.593255 0.791132 0.148854  255 255 255 255
39.1364 25.9923 9.46585 0.532864 0.831326 0.157964  255 255 255 255
-37.7609 4.43187 38.1034 -0.913722 0.340465 0.221803  255 255 255 255
-31.43 12.4353 44.3086 -0.751894 0.624341 0.211785  255 255 255 255
-30.9244 8.31203 57.1455 -0.815309 0.534393 0.222927  255 255 255 255
52.6662 4.67086 38.3015 0.933838 0.337762 0.117744  255 255 255 255
-28.3633 24.3357 14.2234 -0.556054 0.793405 0.247612  255 255 255 255
34.3898 28.6956 9.62173 0.451848 0.875353 0.172021  255 255 255 255
51.7151 8.45617 33.076 0.882172 0.453805 0.125832  255 255 255 255
-31.6168 6.33485 58.9976 -0.854058 0.468723 0.225573  255 255 255 255
-31.962 6.39169 57.5722 -0.855314 0.466409 0.225613  255 255 255 255
-31.2772 5.90858 61.1634 -0.8592 0.459203 0.225627  255 255 255 255
52.0366 8.28385 31.4224 0.888532 0.441438 0.125071  255 255 255 255
46.9239 11.9813 49.4481 0.764876 0.633822 0.115039  255 255 255 255
37.7234 26.5215 11.274 0.506396 0.846822 0.162649  255 255 255 255
-37.7036 8.98452 29.8165 -0.849544 0.478727 0.221576  255 255 255 255
-14.3924 17.0293 79.1017 -0.485396 0.853896 0.187757  255 255 255 255
-31.3106 6.32979 60.1668 -0.852153 0.472281 0.225359  255 255 255 255
-31.0931 5.59818 62.4927 -0.86343 0.451254 0.225518  255 255 255 255
-38.6345 4.10144 34.9893 -0.920615 0.320695 0.222762  255 255 255 255
-13.7818 17.0739 80.4719 -0.476267 0.859643 0.184889  255 255 255 255
48.9298 7.36303 58.506 0.868402 0.485745 0.099651  255 255 255 255
-31.8922 22.0737 12.8341 -0.624144 0.739042 0.253498  255 255 255 255
-40.0327 8.69022 21.5786 -0.865549 0.444267 0.231195  255 255 255 255
-29.2575 7.13362 66.0693 -0.823134 0.522826 0.221593  255 255 255 255
43.6915 22.9829 8.02625 0.622592 0.769887 0.140191  255 255 255 255
49.5816 5.67439 60.4472 0.900849 0.423088 0.097303  255 255 255 255
53.005 7.06608 28.4263 0.914041 0.38729 0.120561  255 255 255 255
42.4979 24.0522 7.29204 0.598719 0.787931 0.14388  255 255 255 255
-9.68148 17.9459 86.3036 -0.401256 0.900226 0.169077  255 255 255 255
-38.7553 7.48031 28.8019 -0.876142 0.427032 0.223649  255 255 255 255
47.5671 18.748 11.9048 0.711184 0.69093 0.129745  255 255 255 255
-22.6577 29.2805 9.04775 -0.427804 0.866374 0.257643  255 255 255 255
37.3788 16.5094 76.9269 0.517548 0.850043 0.097831  255 255 255 255
49.5608 5.44723 61.6295 0.904433 0.415761 0.095623  255 255 255 255
43.4392 23.4891 6.34768 0.618772 0.773248 0.138596  255 255 255 255
36.4246 16.7817 79.4521 0.49339 0.864125 0.099266  255 255 255 255
-41.1673 6.64192 20.8976 -0.8966 0.376701 0.23282  255 255 255 255
-39.2888 6.86531 27.8442 -0.886831 0.403652 0.224935  255 255 255 255
35.8073 16.9953 80.5989 0.478293 0.872468 0.100175  255 255 255 255
49.5406 5.13378 63.1847 0.909382 0.405358 0.093323  255 255 255 255
53.181 7.03684 27.1774 0.916571 0.381603 0.119488  255 255 255 255
-39.7602 6.30667 26.954 -0.896034 0.382091 0.226119  255 255 255 255
36.2033 16.6411 81.7768 0.486935 0.86784 0.098732  255 255 255 255
47.9493 7.44012 67.1815 0.858591 0.505269 0.08675  255 255 255 255
-40.3213 1.99216 30.5461 -0.947043 0.228094 0.226013  255 255 255 255
50.6947 15.4973 9.7374 0.796582 0.59399 0.112396  255 255 255 255
-35.9751 6.00559 42.6945 -0.884537 0.41115 0.220339  255 255 255 255
-29.6834 5.67378 67.7386 -0.852971 0.472408 0.221973  255 255 255 255
-41.5017 6.71046 19.5049 -0.896849 0.374895 0.234766  255 255 255 255
-35.9927 8.31079 37.9219 -0.850017 0.479651 0.217729  255 255 255 255
47.4208 7.30318 73.5235 0.854052 0.514267 0.078252  255 255 255 255
45.6377 21.7125 5.80378 0.666636 0.734312 0.127995  255 255 255 255
-17.8007 14.1908 81.9038 -0.577808 0.793997 0.188962  255 255 255 255
34.3935 17.1129 86.0625 0.442585 0.89116 0.099764  255 255 255 255
-40.6094 4.41959 26.4475 -0.921887 0.313487 0.227706  255 255 255 255
-37.6004 17.135 10.7609 -0.740246 0.620297 0.259361  255 255 255 255
51.3992 6.06339 43.7963 0.906766 0.40487 0.117711  255 255 255 255
-34.3054 5.66936 49.9593 -0.880787 0.416979 0.224373  255 255 255 255
50.6093 5.70174 51.3741 0.905541 0.409903 0.10943  255 255 255 255
-27.496 5.89037 75.7479 -0.83258 0.51221 0.210835  255 255 255 255
-18.9653 13.2922 81.9771 -0.606663 0.771862 0.190232  255 255 255 255
35.5128 16.5816 85.6601 0.468454 0.878071 0.097683  255 255 255 255
47.465 6.91507 75.6003 0.860934 0.503115 0.075284  255 255 255 255
54.7812 2.19761 26.498 0.971514 0.211498 0.106904  255 255 255 255
41.3672 18.5973 41.2813 0.59391 0.793158 0.134798  255 255 255 255
-24.3451 17.367 50.6935 -0.599817 0.773517 0.204671  255 255 255 255
52.3004 13.3104 8.85744 0.845487 0.524049 0.102587  255 255 255 255
-16.1623 14.7213 84.5763 -0.548142 0.816437 0.181578  255 255 255 255
39.2964 14.6089 82.7104 0.567214 0.818495 0.091294  255 255 255 255
51.3233 7.53956 39.1572 0.887951 0.443218 0.122885  255 255 255 255
-42.2892 5.62787 18.1149 -0.911872 0.335054 0.237127  255 255 255 255
-32.9551 6.60648 53.353 -0.858054 0.461794 0.2247  255 255 255 255
-31.2094 2.15668 67.9283 -0.921702 0.315659 0.225442  255 255 255 255
49.8243 6.55992 54.5005 0.887893 0.447819 0.105378  255 255 255 255
-38.8943 16.0573 9.52878 -0.76409 0.589539 0.261935  255 255 255 255
40.4009 13.7934 82.8637 0.599868 0.795175 0.088632  255 255 255 255
-41.3882 12.8788 8.6598 -0.82018 0.509182 0.260842  255 255 255 255
54.7026 6.12359 17.4403 0.942686 0.316896 0.104496  255 255 255 255
-14.5876 15.2251 86.9546 -0.518498 0.837101 0.17442  255 255 255 255
-27.9901 4.87364 76.1413 -0.856464 0.471132 0.210961  255 255 255 255
47.9431 5.93965 76.3309 0.883462 0.4628 0.072879  255 255 255 255
49.6785 17.437 6.1573 0.766314 0.633074 0.109451  255 255 255 255
52.7214 12.8335 7.72715 0.85774 0.504691 0.097822  255 255 255 255
-19.5327 12.4293 83.6139 -0.627206 0.75597 0.187411  255 255 255 255
-42.7195 4.94766 17.3799 -0.920331 0.310074 0.238421  255 255 255 255
54.7954 3.74559 23.0073 0.961354 0.253644 0.107067  255 255 255 255
-16.5104 14.2266 85.7331 -0.560813 0.808233 0.17958  255 255 255 255
-42.0201 11.7094 8.87078 -0.837778 0.480467 0.259382  255 255 255 255
-22.2515 10.1201 82.9358 -0.698193 0.689909 0.191184  255 255 255 255
-20.3632 11.6958 83.7081 -0.649102 0.737116 0.187952  255 255 255 255
53.4457 11.4794 7.98707 0.881474 0.462612 0.094838  255 255 255 255
-43.1129 4.78474 16.0743 -0.92273 0.301143 0.240588  255 255 255 255
55.2755 5.14529 14.9438 0.95563 0.277678 0.098313  255 255 255 255
48.4004 4.90268 77.0118 0.904866 0.41986 0.070256  255 255 255 255
-42.6077 11.232 7.83446 -0.846812 0.463583 0.26077  255 255 255 255
-27.9436 3.84886 78.5589 -0.876653 0.434732 0.206124  255 255 255 255
-43.5743 4.34957 14.8337 -0.927816 0.283202 0.242804  255 255 255 255
44.7163 9.65158 84.1754 0.75424 0.652203 0.075846  255 255 255 255
42.7796 11.7943 82.955 0.678735 0.729725 0.082585  255 255 255 255
-43.19 10.733 6.80556 -0.855835 0.446195 0.261643  255 255 255 255
48.7758 3.91026 77.7878 0.922859 0.379204 0.067346  255 255 255 255
55.7025 4.49168 12.4641 0.963537 0.250924 0.092921  255 255 255 255
-43.9497 4.25825 13.5103 -0.929105 0.276795 0.245253  255 255 255 255
-28.0669 3.18547 79.3877 -0.890657 0.406191 0.204301  255 255 255 255
45.0923 9.10278 85.0564 0.770904 0.632666 0.073762  255 255 255 255
49.5605 17.8057 4.8255 0.763248 0.637243 0.106644  255 255 255 255
55.5841 4.41156 13.8895 0.963206 0.251302 0.0953  255 255 255 255
-43.7362 9.49017 7.04625 -0.872246 0.414007 0.260356  255 255 255 255
-23.3403 8.05813 86.034 -0.748358 0.63694 0.185114  255 255 255 255
48.9328 3.31582 78.898 0.932054 0.356559 0.064355  255 255 255 255
-29.3042 2.41532 75.4621 -0.910888 0.352767 0.214101  255 255 255 255
54.5215 9.49623 6.72971 0.913849 0.396671 0.086783  255 255 255 255
-44.3442 3.51891 12.8058 -0.936301 0.250001 0.246655  255 255 255 255
45.5988 8.34926 86.0204 0.793762 0.604083 0.070891  255 255 255 255
-27.9009 2.94527 80.5954 -0.894556 0.399078 0.201263  255 255 255 255
-44.1897 9.15391 6.04936 -0.878136 0.40097 0.260961  255 255 255 255
49.1014 2.67725 79.8812 0.941393 0.331688 0.061341  255 255 255 255
-24.0175 7.08368 86.5173 -0.775013 0.604377 0.184615  255 255 255 255
56.0236 3.30123 12.0788 0.973014 0.212142 0.090775  255 255 255 255
-27.5892 18.7155 35.9114 -0.618132 0.758566 0.206131  255 255 255 255
55.503 1.04712 21.7335 0.982232 0.158952 0.099772  255 255 255 255
54.8649 8.83378 6.0234 0.923489 0.374414 0.083555  255 255 255 255
-44.7474 2.77027 11.9909 -0.942614 0.222423 0.249013  255 255 255 255
-42.7733 1.57547 20.7945 -0.95234 0.194906 0.234651  255 255 255 255
46.2266 7.38934 86.7979 0.822616 0.564602 0.067287  255 255 255 255
-44.6049 8.31707 5.89177 -0.88873 0.377267 0.260441  255 255 255 255
55.6872 0.943832 20.064 0.983606 0.151474 0.097853  255 255 255 255
39.6012 13.8533 87.6608 0.57605 0.812756 0.08714  255 255 255 255
-27.7509 2.78912 81.5772 -0.896868 0.395089 0.198829  255 255 255 255
41.3386 16.2654 56.5635 0.612549 0.782982 0.108273  255 255 255 255
45.2179 18.0258 27.2018 0.665512 0.732387 0.143884  255 255 255 255
51.469 15.4577 3.93894 0.816565 0.569513 0.094217  255 255 255 255
56.1454 3.23588 10.9098 0.974052 0.208254 0.088612  255 255 255 255
49.2138 2.15874 80.8937 0.948263 0.312071 0.058395  255 255 255 255
40.5149 13.1176 88.26 0.604223 0.792318 0.084534  255 255 255 255
-43.1422 0.935255 19.7924 -0.956999 0.16864 0.236038  255 255 255 255
55.2966 7.73565 5.91312 0.936754 0.34034 0.081609  255 255 255 255
-45.0426 7.56382 5.44807 -0.89815 0.354478 0.260136  255 255 255 255
46.9499 6.29477 86.5449 0.855367 0.514088 0.063732  255 255 255 255
52.0965 14.6072 3.44887 0.834904 0.543074 0.089478  255 255 255 255
-43.5291 0.974195 18.2031 -0.956617 0.167836 0.238149  255 255 255 255
-27.8878 2.0793 82.3073 -0.911555 0.360756 0.197287  255 255 255 255
56.3656 2.16127 10.7993 0.980806 0.17425 0.087505  255 255 255 255
49.2701 1.79052 81.929 0.952612 0.299049 0.055679  255 255 255 255
-45.3393 2.05117 10.3591 -0.947769 0.194282 0.25296  255 255 255 255
-24.7904 5.91192 86.9065 -0.807214 0.560691 0.184476  255 255 255 255
55.6691 6.77638 5.42776 0.947421 0.310061 0.079094  255 255 255 255
-30.7398 19.1781 24.9385 -0.647672 0.728852 0.222027  255 255 255 255
-19.8719 11.2328 87.3054 -0.650703 0.737852 0.179332  255 255 255 255
-45.4726 6.78168 4.98525 -0.907345 0.330523 0.259769  255 255 255 255
47.1808 5.80462 87.3198 0.866546 0.495296 0.061478  255 255 255 255
56.5115 1.89465 9.66442 0.98265 0.16468 0.08532  255 255 255 255
-28.031 1.18774 83.1706 -0.9289 0.314566 0.195431  255 255 255 255
-44.3239 0.549167 15.3149 -0.958801 0.147728 0.242647  255 255 255 255
-45.7034 1.87505 9.1324 -0.948831 0.18599 0.2552  255 255 255 255
49.2898 1.50876 83.1127 0.955474 0.290294 0.052908  255 255 255 255
56.0301 5.65755 5.21984 0.958128 0.275651 0.077503  255 255 255 255
-25.459 4.72252 87.3855 -0.839016 0.512003 0.184135  255 255 255 255
-25.6666 12.689 62.9381 -0.692053 0.689166 0.214739  255 255 255 255
49.7728 1.04034 77.3224 0.964679 0.25549 0.064181  255 255 255 255
-45.8805 5.85743 4.67912 -0.917184 0.302554 0.259297  255 255 255 255
-16.017 24.9317 38.7674 -0.383492 0.90292 0.194088  255 255 255 255
47.7047 4.81969 87.425 0.890195 0.45188 0.057939  255 255 255 255
53.9043 11.2706 4.49554 0.891448 0.445353 0.083552  255 255 255 255
56.6708 1.52551 8.49797 0.984853 0.152249 0.08297  255 255 255 255
30.7262 22.4031 56.7075 0.391454 0.911924 0.123122  255 255 255 255
44.0809 9.91576 88.109 0.73149 0.677736 0.074805  255 255 255 255
-43.8139 11.6243 3.25679 -0.850984 0.45421 0.263668  255 255 255 255
56.3729 4.43535 5.00913 0.968195 0.238321 0.076168  255 255 255 255
-29.1945 0.793742 78.3588 -0.938391 0.275781 0.208249  255 255 255 255
-25.864 3.82581 87.9145 -0.86202 0.472493 0.183498  255 255 255 255
-22.1293 8.5999 89.0041 -0.724092 0.666505 0.177376  255 255 255 255
56.2881 0.756437 14.0754 0.986801 0.134031 0.09088  255 255 255 255
-46.2542 4.66082 4.6627 -0.928423 0.266546 0.258813  255 255 255 255
-44.6939 0.636627 13.8079 -0.957947 0.149021 0.245215  255 255 255 255
-25.7819 3.56649 88.9692 -0.867025 0.464087 0.181359  255 255 255 255
48.449 3.02247 88.7093 0.924756 0.377209 0.050385  255 255 255 255
56.86 0.867653 7.35498 0.988051 0.13139 0.080575  255 255 255 255
-46.7627 0.025539 6.29252 -0.958819 0.118433 0.258145  255 255 255 255
-27.9853 -0.600803 85.8705 -0.958115 0.21499 0.189196  255 255 255 255
44.0168 12.7584 65.1223 0.702935 0.705098 0.093378  255 255 255 255
56.8146 2.93996 3.54704 0.978697 0.192328 0.071851  255 255 255 255
-47.1627 3.05103 2.86462 -0.942611 0.212647 0.257423  255 255 255 255
48.6745 2.30541 89.7552 0.935809 0.349388 0.046797  255 255 255 255
57.1639 -0.80303 5.78042 0.993741 0.080442 0.077506  255 255 255 255
49.47 0.202646 86.764 0.968778 0.244114 0.043322  255 255 255 255
56.9289 2.8592 2.16748 0.97954 0.189402 0.068026  255 255 255 255
-47.451 2.7734 2.02996 -0.945144 0.202338 0.256441  255 255 255 255
56.2744 5.51571 2.56255 0.960789 0.268356 0.069777  255 255 255 255
-25.096 4.37809 90.0378 -0.843239 0.507039 0.178492  255 255 255 255
-46.6632 5.61614 2.17219 -0.9222 0.288341 0.257695  255 255 255 255
-26.387 1.79811 90.1145 -0.90941 0.374962 0.179933  255 255 255 255
47.5851 4.6907 90.342 0.887216 0.458035 0.055246  255 255 255 255
56.9559 -0.606405 8.16424 0.992865 0.086632 0.081934  255 255 255 255
-28.3912 -1.42759 84.6272 -0.968615 0.157972 0.19191  255 255 255 255
-46.4992 -1.08713 7.70922 -0.962802 0.082704 0.257239  255 255 255 255
-47.2031 4.25675 1.63787 -0.934517 0.246873 0.256382  255 255 255 255
-25.6823 2.85135 91.2538 -0.882053 0.436612 0.177065  255 255 255 255
48.359 2.92268 91.1747 0.922622 0.382718 0.047906  255 255 255 255
48.1205 3.61734 90.0405 0.911066 0.40904 0.051424  255 255 255 255
-46.7772 -1.36068 6.75266 -0.963383 0.073072 0.257979  255 255 255 255
46.0316 17.8361 24.3357 0.682254 0.71707 0.142618  255 255 255 255
-38.3189 13.8966 16.2997 -0.78619 0.569059 0.240993  255 255 255 255
-39.1484 12.7572 16.1793 -0.806805 0.539467 0.240918  255 255 255 255
52.1151 12.4279 14.5327 0.847875 0.517765 0.11414  255 255 255 255
-46.9978 -1.15531 5.86901 -0.962811 0.079172 0.258317  255 255 255 255
49.9723 -2.19694 85.7817 0.990438 0.132449 0.03859  255 255 255 255
-27.0852 -1.1255 91.1731 -0.964348 0.195679 0.178164  255 255 255 255
49.5364 -0.79475 90.9752 0.976404 0.21317 0.03456  255 255 255 255
57.4625 -2.39102 3.01863 0.996815 0.033917 0.072174  255 255 255 255
-47.8001 -2.15035 3.1128 -0.965228 0.046053 0.25732  255 255 255 255
48.9473 1.36809 90.9431 0.94915 0.311977 0.042249  255 255 255 255
57.31 -2.03111 4.87947 0.99614 0.043782 0.07608  255 255 255 255
-47.3173 -1.76747 4.84096 -0.964262 0.058882 0.258323  255 255 255 255
49.8222 -1.83295 88.4031 0.987062 0.156514 0.034818  255 255 255 255
57.4118 0.106676 1.17303 0.991917 0.108383 0.065989  255 255 255 255
-48.0238 0.512658 1.36488 -0.958251 0.129013 0.25517  255 255 255 255
-27.6478 -2.37326 89.1795 -0.977537 0.107334 0.181384  255 255 255 255
-27.9144 -2.22829 87.6686 -0.976223 0.113565 0.184641  255 255 255 255
49.8649 -2.3814 89.5346 0.990445 0.134258 0.031531  255 255 255 255
57.5477 -1.36471 1.0629 0.995648 0.065252 0.066537  255 255 255 255
49.7276 -1.04132 87.2148 0.981148 0.189287 0.038971  255 255 255 255
-48.2301 -0.541208 1.05067 -0.962364 0.09513 0.254568  255 255 255 255
57.1926 1.56981 1.57885 0.986244 0.151304 0.06656  255 255 255 255
-47.7818 1.74812 1.54825 -0.951874 0.169166 0.255575  255 255 255 255
25.2626 24.9846 52.6317 0.294277 0.946164 0.134811  255 255 255 255
-26.7207 0.37523 91.0537 -0.939142 0.293496 0.178527  255 255 255 255
49.2813 0.184747 91.4138 0.964891 0.25996 0.0375  255 255 255 255
-11.4775 26.7066 38.3828 -0.303766 0.933382 0.191112  255 255 255 255
57.3907 -2.32636 3.96601 0.99661 0.035351 0.074285  255 255 255 255
-47.5816 -2.12998 3.92772 -0.965014 0.047022 0.257948  255 255 255 255
49.6658 -1.5277 91.5078 0.983016 0.180788 0.031537  255 255 255 255
57.5398 -2.79558 2.0977 0.997277 0.022524 0.070221  255 255 255 255
49.1696 1.13088 87.7103 0.956263 0.289036 0.044938  255 255 255 255
31.2665 26.876 26.9528 0.395992 0.903486 0.164024  255 255 255 255
-9.625 22.3835 63.6775 -0.330679 0.926659 0.178761  255 255 255 255
-11.2018 20.5321 69.9578 -0.381603 0.906 0.18315  255 255 255 255
-6.76646 22.1843 69.8029 -0.295319 0.939374 0.174253  255 255 255 255
-2.27062 23.4518 69.4736 -0.216705 0.961794 0.167307  255 255 255 255
27.7616 29.4606 20.6157 0.338394 0.924395 0.176021  255 255 255 255
33.9722 27.2165 18.3394 0.440404 0.881896 0.168239  255 255 255 255
-0.998448 22.9765 73.8187 -0.203117 0.964893 0.166509  255 255 255 255
-12.3621 18.9638 75.0407 -0.424241 0.886261 0.185905  255 255 255 255
-4.16885 21.9404 75.3341 -0.261722 0.949865 0.171051  255 255 255 255
-6.52309 32.4064 18.028 -0.194409 0.95592 0.22005  255 255 255 255
5.09136 33.2196 20.3105 -0.02324 0.978636 0.204281  255 255 255 255
10.8191 33.1235 20.1813 0.065527 0.977988 0.198106  255 255 255 255
6.2097 33.3545 19.7421 -0.00545 0.978931 0.204118  255 255 255 255
11.9539 33.1527 19.6089 0.083921 0.976638 0.197825  255 255 255 255
-8.90915 32.3065 16.2003 -0.226711 0.947428 0.225793  255 255 255 255
24.8819 30.7123 19.1683 0.291797 0.939011 0.18197  255 255 255 255
-6.63799 32.7693 16.3636 -0.193344 0.955347 0.223449  255 255 255 255
22.619 22.6891 74.808 0.222809 0.966097 0.130434  255 255 255 255
0.989442 23.2525 74.4436 -0.169625 0.971724 0.164258  255 255 255 255
1.53705 30.0362 35.3301 -0.09809 0.978177 0.183162  255 255 255 255
6.73923 30.3504 35.2653 -0.015458 0.984009 0.177447  255 255 255 255
16.1451 23.804 74.5005 0.100712 0.984521 0.14344  255 255 255 255
21.5243 22.9731 74.4866 0.202359 0.970278 0.132709  255 255 255 255
12.3162 30.1445 35.4661 0.076214 0.982325 0.170967  255 255 255 255
-20.8371 28.0851 16.3996 -0.418936 0.876873 0.235767  255 255 255 255
-1.22199 33.6987 16.0668 -0.112608 0.969212 0.218968  255 255 255 255
-5.79976 29.6416 31.4699 -0.204984 0.958893 0.196227  255 255 255 255
4.77826 34.1536 15.8994 -0.022622 0.976764 0.213119  255 255 255 255
33.9168 28.6349 11.1571 0.442841 0.879785 0.172831  255 255 255 255
10.6081 34.0681 15.6909 0.066675 0.976106 0.206813  255 255 255 255
15.5532 33.4381 16.1498 0.143743 0.96927 0.199633  255 255 255 255
22.3703 32.0293 16.157 0.252601 0.948746 0.189928  255 255 255 255
24.868 21.7352 77.7115 0.261651 0.956893 0.126073  255 255 255 255
-11.8266 18.2782 79.5651 -0.428344 0.884998 0.182484  255 255 255 255
-0.364065 26.0853 56.2794 -0.160889 0.972957 0.16574  255 255 255 255
5.01021 26.6738 56.6091 -0.072732 0.984598 0.158985  255 255 255 255
10.1237 26.7319 57.2068 0.014709 0.988225 0.1523  255 255 255 255
16.3847 26.3135 56.9711 0.12878 0.981197 0.143762  255 255 255 255
14.2442 26.5172 57.1983 0.089208 0.98515 0.146701  255 255 255 255
20.528 25.6528 56.6307 0.205323 0.96892 0.137971  255 255 255 255
0.907893 26.1816 56.8757 -0.141197 0.976311 0.163954  255 255 255 255
6.07505 26.57 57.6903 -0.056249 0.985948 0.157298  255 255 255 255
-3.82259 25.4255 56.1947 -0.216174 0.96141 0.170174  255 255 255 255
33.2262 18.9213 75.3968 0.4269 0.897943 0.107028  255 255 255 255
4.78679 23.3734 76.9538 -0.107141 0.981145 0.160859  255 255 255 255
-2.56351 21.9844 77.4417 -0.237434 0.956511 0.169445  255 255 255 255
19.6301 22.8611 77.8361 0.160779 0.97731 0.137895  255 255 255 255
18.4817 33.2984 14.3612 0.191622 0.961157 0.198642  255 255 255 255
-7.8894 33.4638 12.3705 -0.204834 0.950599 0.233249  255 255 255 255
1.62245 35.734 8.40798 -0.059848 0.970796 0.23232  255 255 255 255
-13.4674 31.9644 12.5281 -0.287208 0.927812 0.238068  255 255 255 255
-4.39119 34.5386 10.6384 -0.150883 0.960389 0.234282  255 255 255 255
20.1578 34.1933 8.41251 0.223744 0.952785 0.205278  255 255 255 255
24.8304 27.9569 34.3926 0.288933 0.94382 0.160378  255 255 255 255
-1.50261 21.4675 81.8574 -0.226391 0.95981 0.165868  255 255 255 255
-8.83072 27.1947 39.9306 -0.264468 0.946048 0.187215  255 255 255 255
36.3001 27.8764 8.53545 0.484444 0.858854 0.166385  255 255 255 255
-1.04388 29.3768 37.1572 -0.140954 0.972887 0.183364  255 255 255 255
4.02483 29.9237 37.0398 -0.061244 0.982131 0.177957  255 255 255 255
9.55546 30.0237 37.0037 0.028593 0.984726 0.171747  255 255 255 255
15.2041 29.5676 37.1112 0.124011 0.97838 0.165511  255 255 255 255
21.5931 28.3311 37.4625 0.233376 0.959334 0.158787  255 255 255 255
-21.9218 29.3709 9.95572 -0.417898 0.872061 0.254698  255 255 255 255
-16.5662 31.5904 10.0177 -0.328841 0.911241 0.248  255 255 255 255
-18.0546 30.4662 12.0773 -0.358587 0.900961 0.244304  255 255 255 255
-4.72982 24.5976 59.6473 -0.237457 0.956295 0.170627  255 255 255 255
-37.2484 5.3293 38.7494 -0.899805 0.376244 0.220887  255 255 255 255
33.8875 18.099 79.651 0.436726 0.893468 0.10481  255 255 255 255
2.47099 28.9781 41.6407 -0.092466 0.980445 0.173716  255 255 255 255
7.97468 29.2311 41.7341 -0.003031 0.985913 0.167233  255 255 255 255
13.2206 29.0108 41.7357 0.08637 0.983126 0.161256  255 255 255 255
19.6882 28.0547 41.797 0.199144 0.967728 0.154415  255 255 255 255
9.11049 30.8672 32.3421 0.026226 0.98345 0.179272  255 255 255 255
14.3284 30.4906 32.3939 0.11234 0.978391 0.173582  255 255 255 255
21.3585 29.1646 32.8725 0.230266 0.95888 0.16591  255 255 255 255
45.7199 19.1024 19.3862 0.669016 0.729513 0.142223  255 255 255 255
-14.1729 28.7774 24.6604 -0.323478 0.921824 0.213546  255 255 255 255
52.2389 5.49277 39.191 0.921316 0.370104 0.119163  255 255 255 255
28.9472 23.5968 53.3237 0.3604 0.923799 0.129259  255 255 255 255
33.5359 20.4696 61.5439 0.441144 0.890153 0.114102  255 255 255 255
-20.113 24.5359 32.0085 -0.445868 0.871352 0.204809  255 255 255 255
0.666135 26.9455 52.153 -0.137424 0.976436 0.166396  255 255 255 255
7.72761 26.161 60.7489 -0.032113 0.987476 0.154466  255 255 255 255
5.92014 27.4356 52.253 -0.051168 0.985796 0.159961  255 255 255 255
12.5784 26.069 61.0112 0.053899 0.987532 0.147903  255 255 255 255
10.9805 27.5588 51.7234 0.036692 0.987387 0.154017  255 255 255 255
18.6655 25.5104 60.1419 0.167468 0.976031 0.138991  255 255 255 255
27.6536 20.3929 81.6256 0.310266 0.943244 0.118433  255 255 255 255
17.3136 26.8646 52.3359 0.150304 0.97789 0.145397  255 255 255 255
46.4083 18.6192 18.5547 0.68547 0.714538 0.13988  255 255 255 255
29.956 19.7827 79.9109 0.358095 0.926742 0.113651  255 255 255 255
-24.5122 28.5079 8.43293 -0.459081 0.849133 0.261187  255 255 255 255
24.2416 28.9927 29.456 0.279143 0.945394 0.168255  255 255 255 255
-11.9779 29.8406 23.1726 -0.285509 0.933999 0.214778  255 255 255 255
25.7754 27.4648 35.5412 0.305054 0.939169 0.15781  255 255 255 255
17.906 30.366 30.1473 0.173238 0.969473 0.173521  255 255 255 255
1.51909 31.0075 30.2423 -0.091148 0.977356 0.190963  255 255 255 255
6.74753 31.1869 30.7186 -0.009886 0.982785 0.184488  255 255 255 255
12.4563 30.9857 30.6735 0.082554 0.980506 0.178304  255 255 255 255
49.898 13.2492 25.4879 0.796804 0.589435 0.132927  255 255 255 255
-7.83835 30.6533 24.5377 -0.224825 0.951664 0.209261  255 255 255 255
19.1228 30.0218 30.7862 0.193281 0.966073 0.171304  255 255 255 255
-18.743 20.5173 52.9291 -0.47868 0.856057 0.195018  255 255 255 255
-0.408916 21.7845 81.443 -0.205981 0.964523 0.16513  255 255 255 255
3.9021 22.5522 81.2945 -0.129016 0.978493 0.160953  255 255 255 255
8.48435 22.9474 81.4071 -0.048205 0.986605 0.155842  255 255 255 255
18.6855 22.4125 82.0131 0.135772 0.980938 0.139018  255 255 255 255
1.12913 30.6216 32.0334 -0.099718 0.976987 0.188552  255 255 255 255
6.28896 30.8679 32.3922 -0.019187 0.98305 0.182331  255 255 255 255
12.05 30.7057 32.4043 0.074376 0.981583 0.175965  255 255 255 255
19.0857 29.7078 32.6144 0.192015 0.966821 0.168487  255 255 255 255
0.86867 25.221 62.581 -0.151385 0.974969 0.162846  255 255 255 255
6.14638 25.7222 63.0528 -0.06279 0.985727 0.156207  255 255 255 255
11.2854 25.8355 62.9187 0.027928 0.988375 0.149451  255 255 255 255
17.4612 25.2723 63.1465 0.141554 0.979976 0.140035  255 255 255 255
50.293 12.9706 24.3185 0.807099 0.575642 0.131252  255 255 255 255
22.3165 24.4714 62.1779 0.233259 0.963374 0.132289  255 255 255 255
-24.0661 11.7229 71.2569 -0.691474 0.691023 0.210596  255 255 255 255
35.8913 22.2315 40.6407 0.480791 0.865431 0.14096  255 255 255 255
0.497316 25.4276 60.9978 -0.154852 0.974316 0.16349  255 255 255 255
5.88273 25.9416 61.563 -0.065147 0.985498 0.15668  255 255 255 255
11.004 26.05 61.5524 0.024694 0.988377 0.150007  255 255 255 255
15.4224 25.792 61.3266 0.105936 0.983945 0.143634  255 255 255 255
-36.4499 13.1711 24.3935 -0.781455 0.581832 0.225389  255 255 255 255
-26.0105 27.6707 8.41595 -0.486927 0.832896 0.263033  255 255 255 255
1.93366 25.4061 62.401 -0.133308 0.977825 0.161518  255 255 255 255
6.9727 25.929 62.0345 -0.047037 0.986755 0.155247  255 255 255 255
50.72 12.6363 23.1106 0.818571 0.559697 0.129156  255 255 255 255
11.9883 25.9492 62.0003 0.041866 0.988015 0.148572  255 255 255 255
-24.5 10.9882 72.1944 -0.70873 0.673311 0.210604  255 255 255 255
34.0137 17.7095 82.4651 0.43705 0.893498 0.103196  255 255 255 255
-37.1282 12.5019 23.7196 -0.795777 0.561558 0.226698  255 255 255 255
9.28505 30.2872 35.5461 0.025679 0.98438 0.174173  255 255 255 255
14.8554 29.8662 35.6135 0.11905 0.978557 0.168084  255 255 255 255
21.2737 28.6533 35.9909 0.228197 0.960165 0.161274  255 255 255 255
-40.8011 3.18766 27.2421 -0.935866 0.268915 0.227684  255 255 255 255
-13.4113 24.4993 45.8775 -0.351729 0.917347 0.186445  255 255 255 255
-28.9828 26.4209 6.53365 -0.537064 0.799399 0.269301  255 255 255 255
25.2847 24.1875 58.2952 0.291542 0.947715 0.12977  255 255 255 255
-22.6414 22.3259 35.3866 -0.506438 0.838196 0.202356  255 255 255 255
-19.9318 13.7498 77.1615 -0.610844 0.766109 0.199868  255 255 255 255
-25.6057 9.76102 72.2037 -0.741901 0.636052 0.212182  255 255 255 255
37.1068 18.9487 58.2052 0.513186 0.850933 0.112039  255 255 255 255
42.7241 19.8468 28.634 0.607995 0.780143 0.147373  255 255 255 255
-41.131 3.0395 26.0599 -0.937893 0.260831 0.228742  255 255 255 255
-5.70341 28.6198 36.6685 -0.211706 0.958957 0.188631  255 255 255 255
-18.8842 15.1742 74.7115 -0.574663 0.793601 0.1999  255 255 255 255
-10.6301 30.9481 20.0822 -0.259294 0.940518 0.219529  255 255 255 255
-10.0126 26.3865 42.2712 -0.286984 0.939756 0.185738  255 255 255 255
-35.5399 5.0655 46.1332 -0.896115 0.383923 0.222669  255 255 255 255
-30.2492 25.4149 6.8953 -0.564008 0.780391 0.269973  255 255 255 255
44.9856 10.828 72.0296 0.74922 0.656915 0.084457  255 255 255 255
26.4123 24.1135 56.2045 0.313441 0.940696 0.129794  255 255 255 255
-8.75973 34.2815 8.35963 -0.210032 0.947082 0.242739  255 255 255 255
36.5637 28.01 7.06759 0.490442 0.855767 0.164707  255 255 255 255
-5.15877 29.2904 33.8731 -0.199002 0.960995 0.192059  255 255 255 255
-3.14815 31.4901 24.9611 -0.154706 0.966583 0.20441  255 255 255 255
3.4095 32.2168 24.8658 -0.054733 0.978685 0.197937  255 255 255 255
8.50033 32.4047 24.3157 0.024965 0.980812 0.193349  255 255 255 255
14.2515 31.8935 24.8178 0.11635 0.975617 0.1861  255 255 255 255
44.6192 22.5228 6.29614 0.643764 0.753491 0.133489  255 255 255 255
20.8464 30.7631 24.663 0.223929 0.958014 0.179064  255 255 255 255
-39.1575 10.6675 20.7545 -0.834338 0.50009 0.231926  255 255 255 255
-16.4135 26.2775 31.8725 -0.376208 0.904051 0.202878  255 255 255 255
46.0577 17.4924 25.9359 0.685215 0.714264 0.142504  255 255 255 255
-11.9614 25.7675 42.2093 -0.318821 0.92908 0.187518  255 255 255 255
-32.0921 19.1405 21.1381 -0.662658 0.712668 0.230194  255 255 255 255
26.5775 20.7387 81.5855 0.289061 0.949626 0.121056  255 255 255 255
51.3529 4.91691 48.0377 0.920515 0.374028 0.112941  255 255 255 255
-6.89228 29.2382 32.2465 -0.222799 0.954963 0.195976  255 255 255 255
-1.8902 27.6585 45.7816 -0.167621 0.970329 0.174255  255 255 255 255
49.6022 3.5875 69.1496 0.933019 0.350048 0.083318  255 255 255 255
-2.5956 30.3135 31.1122 -0.155633 0.968616 0.193807  255 255 255 255
-29.9337 5.87569 66.35 -0.850982 0.475531 0.222936  255 255 255 255
-31.7936 18.0007 25.6046 -0.674105 0.704705 0.2213  255 255 255 255
8.63525 36.0285 7.3793 0.045881 0.973225 0.225227  255 255 255 255
14.2854 35.5719 7.10119 0.133074 0.96707 0.21695  255 255 255 255
21.3106 34.0784 7.63118 0.242921 0.948441 0.203588  255 255 255 255
-27.9867 21.2625 25.5384 -0.589366 0.777432 0.219651  255 255 255 255
-16.572 23.405 44.7664 -0.408251 0.892771 0.190503  255 255 255 255
38.702 26.8228 6.53895 0.528069 0.834557 0.157029  255 255 255 255
-11.1255 29.1278 27.483 -0.279695 0.937587 0.206641  255 255 255 255
31.6397 22.991 49.6123 0.408456 0.90333 0.130991  255 255 255 255
-10.7833 25.7362 44.3353 -0.303269 0.934841 0.184661  255 255 255 255
-9.73829 29.0611 29.6272 -0.261794 0.943706 0.202196  255 255 255 255
26.7615 22.1336 70.2696 0.308225 0.943523 0.121496  255 255 255 255
-13.0246 33.4519 7.36937 -0.269071 0.930547 0.248359  255 255 255 255
-32.7608 23.6691 6.34004 -0.613859 0.740959 0.272316  255 255 255 255
-14.8431 32.9921 7.02182 -0.294862 0.922047 0.250771  255 255 255 255
-15.7609 32.4491 7.90442 -0.310837 0.916778 0.250796  255 255 255 255
47.9074 17.2542 17.7782 0.724099 0.67641 0.134724  255 255 255 255
39.7176 15.1533 75.3031 0.57908 0.80993 0.093166  255 255 255 255
-5.77326 25.4943 53.2163 -0.241167 0.954799 0.173774  255 255 255 255
-7.40344 24.7197 55.0487 -0.270434 0.946641 0.175315  255 255 255 255
-34.8268 17.3366 18.389 -0.712637 0.660357 0.236805  255 255 255 255
-21.6941 15.8639 64.0047 -0.595111 0.776541 0.206946  255 255 255 255
-22.962 10.846 77.8785 -0.693994 0.690944 0.202408  255 255 255 255
50.1828 3.1337 64.6882 0.94046 0.327321 0.091631  255 255 255 255
-33.8908 22.7846 6.11908 -0.637109 0.720844 0.272902  255 255 255 255
-41.4164 3.37435 24.5068 -0.934883 0.270334 0.230031  255 255 255 255
30.3767 21.6017 63.9349 0.3817 0.916792 0.117462  255 255 255 255
-40.5321 11.4535 14.2924 -0.832362 0.497239 0.244799  255 255 255 255
47.7016 19.8452 5.01366 0.71562 0.688714 0.11645  255 255 255 255
-1.353 26.6812 51.8417 -0.169196 0.970982 0.169018  255 255 255 255
54.3536 2.7607 29.1398 0.964617 0.239444 0.110366  255 255 255 255
3.78075 27.3095 52.1082 -0.086595 0.982875 0.162657  255 255 255 255
-41.8375 1.58202 24.6202 -0.951962 0.201464 0.230611  255 255 255 255
-6.70899 26.6773 45.5397 -0.241578 0.953606 0.179651  255 255 255 255
52.068 10.3829 23.4326 0.866501 0.483557 0.123887  255 255 255 255
9.4109 32.458 23.8927 0.039729 0.980378 0.19308  255 255 255 255
15.1504 31.9307 24.0255 0.131444 0.973632 0.186447  255 255 255 255
-35.3543 21.5926 5.71072 -0.667031 0.693094 0.273294  255 255 255 255
46.8445 20.6461 5.3891 0.694764 0.708905 0.12148  255 255 255 255
21.8648 30.6302 24.0507 0.240843 0.953944 0.178842  255 255 255 255
52.9586 4.20962 37.2535 0.940921 0.317827 0.116848  255 255 255 255
40.2315 14.6573 76.3602 0.593857 0.799327 0.091704  255 255 255 255
54.9782 3.82234 21.1661 0.962361 0.250668 0.105009  255 255 255 255
-15.0162 27.7059 27.995 -0.344046 0.915577 0.208211  255 255 255 255
25.9328 20.5634 84.46 0.271827 0.954746 0.120705  255 255 255 255
-17.4178 22.0478 49.196 -0.4378 0.878457 0.191427  255 255 255 255
54.5542 2.51099 27.9021 0.967854 0.226749 0.108826  255 255 255 255
25.8144 25.9121 45.1476 0.305936 0.941134 0.143773  255 255 255 255
-34.1498 10.7004 39.2114 -0.801052 0.558875 0.214415  255 255 255 255
-14.1184 15.7136 85.9775 -0.503809 0.845719 0.175883  255 255 255 255
50.1211 2.92292 66.0855 0.9432 0.320028 0.089195  255 255 255 255
54.1341 3.03437 30.4344 0.960896 0.253295 0.111897  255 255 255 255
-36.0294 16.7738 16.2898 -0.730813 0.638236 0.242008  255 255 255 255
49.6954 2.81383 71.2658 0.94384 0.320772 0.07919  255 255 255 255
53.2072 3.92795 35.992 0.945696 0.303595 0.116141  255 255 255 255
-34.4577 3.47314 53.0168 -0.913805 0.335871 0.228364  255 255 255 255
8.95682 27.6024 51.6934 0.001362 0.987665 0.156574  255 255 255 255
13.4147 27.433 51.604 0.080384 0.985261 0.150997  255 255 255 255
20.257 26.4379 51.594 0.204265 0.968524 0.142254  255 255 255 255
-30.3349 2.03989 71.7038 -0.920898 0.321257 0.220771  255 255 255 255
-29.5931 12.2676 51.22 -0.737754 0.639847 0.215208  255 255 255 255
30.7682 31.2206 5.6373 0.397383 0.899627 0.180993  255 255 255 255
27.4565 25.9146 41.5169 0.334549 0.930777 0.147416  255 255 255 255
-9.59151 18.2433 84.9397 -0.395335 0.902398 0.17143  255 255 255 255
-26.1449 17.8333 43.5649 -0.613896 0.762878 0.202852  255 255 255 255
51.2636 3.26601 54.0596 0.940473 0.322813 0.106316  255 255 255 255
47.3791 12.697 42.8206 0.761091 0.636229 0.126311  255 255 255 255
50.1198 15.0149 15.9901 0.785864 0.605659 0.124876  255 255 255 255
32.4827 30.7213 4.17175 0.427197 0.887116 0.174722  255 255 255 255
-34.4385 2.01401 55.0438 -0.933087 0.276216 0.230333  255 255 255 255
