ply
format ascii 1.0
comment VCGLIB generated
element vertex 1169
property float x
property float y
property float z
property float nx
property float ny
property float nz
property uchar red
property uchar green
property uchar blue
property uchar alpha
element face 0
property list uchar int vertex_indices
end_header
16.6136 0 91.0577 0 1 0  255 255 255 255
70.9867 0 83.6574 0 1 0  255 255 255 255
34.548 0 85.6569 0 1 0  255 255 255 255
40.8492 0 53.7491 0 1 0  255 255 255 255
53.5381 0 77.8026 0 1 0  255 255 255 255
82.1442 0 73.6461 0 1 0  255 255 255 255
71.8803 0 18.1079 0 1 0  255 255 255 255
80.0581 0 48.0585 0 1 0  255 255 255 255
38.1375 0 92.4679 0 1 0  255 255 255 255
42.042 0 72.3833 0 1 0  255 255 255 255
45.6922 0 75.0695 0 1 0  255 255 255 255
64.1787 0 53.5976 0 1 0  255 255 255 255
63.6599 0 55.4986 0 1 0  255 255 255 255
25.2755 0 76.4423 0 1 0  255 255 255 255
36.1241 0 74.4509 0 1 0  255 255 255 255
45.9181 0 63.2587 0 1 0  255 255 255 255
35.1707 0 68.1676 0 1 0  255 255 255 255
50.2439 0 62.8983 0 1 0  255 255 255 255
35.6332 0 90.7314 0 1 0  255 255 255 255
39.5789 0 68.7916 0 1 0  255 255 255 255
81.2091 0 24.5292 0 1 0  255 255 255 255
34.4565 0 67.1632 0 1 0  255 255 255 255
82.4886 0 20.9662 0 1 0  255 255 255 255
11.0583 0 86.007 0 1 0  255 255 255 255
51.1725 0 72.8622 0 1 0  255 255 255 255
67.8688 0 28.171 0 1 0  255 255 255 255
61.4427 0 85.2593 0 1 0  255 255 255 255
63.0075 0 80.7069 0 1 0  255 255 255 255
27.1123 0 83.0315 0 1 0  255 255 255 255
59.3867 0 76.9361 0 1 0  255 255 255 255
74.7413 0 24.5558 0 1 0  255 255 255 255
69.0826 0 26.5435 0 1 0  255 255 255 255
55.5229 0 31.6793 0 1 0  255 255 255 255
59.0898 0 62.0868 0 1 0  255 255 255 255
32.4403 0 78.2516 0 1 0  255 255 255 255
60.8276 0 44.5223 0 1 0  255 255 255 255
26.9462 0 67.3101 0 1 0  255 255 255 255
51.0279 0 54.8779 0 1 0  255 255 255 255
49.083 0 42.2741 0 1 0  255 255 255 255
53.8393 0 45.2072 0 1 0  255 255 255 255
38.3151 0 88.6662 0 1 0  255 255 255 255
68.7443 0 89.0439 0 1 0  255 255 255 255
16.2059 0 89.1076 0 1 0  255 255 255 255
83.9143 0 71.6823 0 1 0  255 255 255 255
43.2483 0 86.9313 0 1 0  255 255 255 255
59.5043 0 81.7725 0 1 0  255 255 255 255
80.1964 0 50.2073 0 1 0  255 255 255 255
71.5702 0 46.5009 0 1 0  255 255 255 255
72.4793 0 39.9392 0 1 0  255 255 255 255
59.6837 0 92.3796 0 1 0  255 255 255 255
65.5631 0 25.5485 0 1 0  255 255 255 255
83.8984 0 19.5714 0 1 0  255 255 255 255
65.0682 0 92.3894 0 1 0  255 255 255 255
80.2832 0 33.0978 0 1 0  255 255 255 255
75.4231 0 26.6591 0 1 0  255 255 255 255
79.6577 0 65.5502 0 1 0  255 255 255 255
69.7061 0 47.1575 0 1 0  255 255 255 255
52.2882 0 43.9321 0 1 0  255 255 255 255
52.6028 0 36.7756 0 1 0  255 255 255 255
66.388 0 78.4766 0 1 0  255 255 255 255
35.8225 0 82.527 0 1 0  255 255 255 255
39.791 0 88.8332 0 1 0  255 255 255 255
73.9934 0 67.706 0 1 0  255 255 255 255
46.6003 0 54.4506 0 1 0  255 255 255 255
64.1685 0 45.3639 0 1 0  255 255 255 255
51.3433 0 50.9555 0 1 0  255 255 255 255
44.2928 0 48.0286 0 1 0  255 255 255 255
45.7333 0 78.2815 0 1 0  255 255 255 255
52.1808 0 69.4886 0 1 0  255 255 255 255
51.2606 0 67.771 0 1 0  255 255 255 255
79.1465 0 49.9195 0 1 0  255 255 255 255
62.6231 0 82.6229 0 1 0  255 255 255 255
63.332 0 17.9795 0 1 0  255 255 255 255
32.7127 0 88.8032 0 1 0  255 255 255 255
73.7253 0 91.0418 0 1 0  255 255 255 255
25.8317 0 89.0295 0 1 0  255 255 255 255
22.705 0 63.9823 0 1 0  255 255 255 255
66.5353 0 46.5161 0 1 0  255 255 255 255
47.173 0 89.0951 0 1 0  255 255 255 255
77.0821 0 71.1271 0 1 0  255 255 255 255
72.1606 0 87.5589 0 1 0  255 255 255 255
56.4187 0 29.3915 0 1 0  255 255 255 255
59.0692 0 90.836 0 1 0  255 255 255 255
51.2508 0 92.2942 0 1 0  255 255 255 255
51.5349 0 74.6769 0 1 0  255 255 255 255
61.5384 0 42.6859 0 1 0  255 255 255 255
68.3698 0 43.1512 0 1 0  255 255 255 255
66.2947 0 30.9564 0 1 0  255 255 255 255
77.3319 0 81.9334 0 1 0  255 255 255 255
27.559 0 65.647 0 1 0  255 255 255 255
59.5401 0 52.9086 0 1 0  255 255 255 255
62.1102 0 49.6257 0 1 0  255 255 255 255
23.0423 0 90.9897 0 1 0  255 255 255 255
11.3924 0 71.844 0 1 0  255 255 255 255
81.3874 0 90.4656 0 1 0  255 255 255 255
48.6693 0 48.7981 0 1 0  255 255 255 255
40.0761 0 61.5676 0 1 0  255 255 255 255
73.7585 0 75.649 0 1 0  255 255 255 255
75.2142 0 19.6622 0 1 0  255 255 255 255
16.1031 0 82.868 0 1 0  255 255 255 255
72.2122 0 38.3998 0 1 0  255 255 255 255
16.1408 0 78.5608 0 1 0  255 255 255 255
61.1201 0 25.9216 0 1 0  255 255 255 255
78.3097 0 24.0168 0 1 0  255 255 255 255
25.3079 0 86.2603 0 1 0  255 255 255 255
39.1034 0 66.3444 0 1 0  255 255 255 255
65.1279 0 46.8059 0 1 0  255 255 255 255
53.6489 0 65.1893 0 1 0  255 255 255 255
82.4169 0 45.4787 0 1 0  255 255 255 255
11.4216 0 89.0634 0 1 0  255 255 255 255
66.7307 0 70.6411 0 1 0  255 255 255 255
84.0107 0 44.8328 0 1 0  255 255 255 255
45.9303 0 67.0341 0 1 0  255 255 255 255
44.8385 0 76.5518 0 1 0  255 255 255 255
51.4958 0 38.6204 0 1 0  255 255 255 255
65.6461 0 36.7701 0 1 0  255 255 255 255
25.984 0 70.2245 0 1 0  255 255 255 255
75.6326 0 54.1865 0 1 0  255 255 255 255
40.5268 0 67.4074 0 1 0  255 255 255 255
76.0453 0 30.2821 0 1 0  255 255 255 255
62.8475 0 54.1573 0 1 0  255 255 255 255
52.6343 0 67.9896 0 1 0  255 255 255 255
29.8789 0 63.4076 0 1 0  255 255 255 255
58.2128 0 29.602 0 1 0  255 255 255 255
47.6958 0 51.4959 0 1 0  255 255 255 255
67.2158 0 88.238 0 1 0  255 255 255 255
70.8585 0 57.6656 0 1 0  255 255 255 255
58.4427 0 24.084 0 1 0  255 255 255 255
72.4005 0 61.825 0 1 0  255 255 255 255
76.8227 0 19.7882 0 1 0  255 255 255 255
54.1375 0 88.0776 0 1 0  255 255 255 255
68.1019 0 81.2437 0 1 0  255 255 255 255
29.5743 0 76.6598 0 1 0  255 255 255 255
57.9003 0 82.5319 0 1 0  255 255 255 255
28.6768 0 65.2365 0 1 0  255 255 255 255
20.9758 0 87.9615 0 1 0  255 255 255 255
73.9853 0 35.2902 0 1 0  255 255 255 255
63.366 0 32.1175 0 1 0  255 255 255 255
60.6836 0 66.7145 0 1 0  255 255 255 255
29.8103 0 66.3221 0 1 0  255 255 255 255
46.7623 0 49.7135 0 1 0  255 255 255 255
35.4361 0 62.5113 0 1 0  255 255 255 255
60.1538 0 71.9214 0 1 0  255 255 255 255
17.2696 0 68.8418 0 1 0  255 255 255 255
37.5965 0 90.8172 0 1 0  255 255 255 255
54.7926 0 54.843 0 1 0  255 255 255 255
52.6651 0 53.9653 0 1 0  255 255 255 255
72.3451 0 68.6381 0 1 0  255 255 255 255
76.2214 0 65.6445 0 1 0  255 255 255 255
72.4309 0 65.0729 0 1 0  255 255 255 255
70.2503 0 90.8496 0 1 0  255 255 255 255
52.144 0 87.147 0 1 0  255 255 255 255
37.891 0 85.5452 0 1 0  255 255 255 255
76.2196 0 18.1482 0 1 0  255 255 255 255
84.0899 0 87.4303 0 1 0  255 255 255 255
76.3428 0 48.3849 0 1 0  255 255 255 255
70.812 0 80.5037 0 1 0  255 255 255 255
51.6202 0 78.2161 0 1 0  255 255 255 255
76.2762 0 88.6538 0 1 0  255 255 255 255
72.8375 0 92.5052 0 1 0  255 255 255 255
76.9943 0 26.4648 0 1 0  255 255 255 255
23.7531 0 89.3877 0 1 0  255 255 255 255
79.1888 0 18.0017 0 1 0  255 255 255 255
54.6572 0 81.0771 0 1 0  255 255 255 255
75.8199 0 51.1983 0 1 0  255 255 255 255
57.6609 0 67.0269 0 1 0  255 255 255 255
50.7504 0 71.07 0 1 0  255 255 255 255
61.6235 0 43.8477 0 1 0  255 255 255 255
61.2943 0 20.2595 0 1 0  255 255 255 255
41.8263 0 88.0623 0 1 0  255 255 255 255
69.3217 0 39.9667 0 1 0  255 255 255 255
84.0329 0 35.2005 0 1 0  255 255 255 255
27.3982 0 81.2368 0 1 0  255 255 255 255
59.8488 0 80.0267 0 1 0  255 255 255 255
73.5268 0 30.0374 0 1 0  255 255 255 255
13.6117 0 84.9724 0 1 0  255 255 255 255
82.5537 0 75.2972 0 1 0  255 255 255 255
84.11 0 38.0107 0 1 0  255 255 255 255
30.5561 0 83.8785 0 1 0  255 255 255 255
39.5294 0 57.2429 0 1 0  255 255 255 255
43.9026 0 89.8241 0 1 0  255 255 255 255
16.925 0 81.1463 0 1 0  255 255 255 255
57.8587 0 79.7205 0 1 0  255 255 255 255
52.6315 0 81.4087 0 1 0  255 255 255 255
23.6918 0 87.3171 0 1 0  255 255 255 255
80.1572 0 76.394 0 1 0  255 255 255 255
77.1157 0 50.2553 0 1 0  255 255 255 255
84.0219 0 29.2644 0 1 0  255 255 255 255
40.1406 0 64.6543 0 1 0  255 255 255 255
64.7658 0 87.2225 0 1 0  255 255 255 255
35.0542 0 84.2244 0 1 0  255 255 255 255
51.0702 0 69.3958 0 1 0  255 255 255 255
63.985 0 36.7375 0 1 0  255 255 255 255
51.5361 0 53.7619 0 1 0  255 255 255 255
79.3895 0 24.2426 0 1 0  255 255 255 255
53.2795 0 38.3486 0 1 0  255 255 255 255
9.78235 0 76.1046 0 1 0  255 255 255 255
57.9739 0 45.2366 0 1 0  255 255 255 255
68.5429 0 56.579 0 1 0  255 255 255 255
74.4655 0 77.4939 0 1 0  255 255 255 255
16.6884 0 73.8885 0 1 0  255 255 255 255
29.1136 0 68.3172 0 1 0  255 255 255 255
32.4652 0 90.5896 0 1 0  255 255 255 255
62.5312 0 27.1483 0 1 0  255 255 255 255
70.8873 0 55.8369 0 1 0  255 255 255 255
20.4424 0 73.6405 0 1 0  255 255 255 255
16.8682 0 84.7066 0 1 0  255 255 255 255
45.8476 0 79.2092 0 1 0  255 255 255 255
70.9032 0 41.3329 0 1 0  255 255 255 255
47.7275 0 58.6231 0 1 0  255 255 255 255
41.2865 0 63.0564 0 1 0  255 255 255 255
11.0921 0 82.5639 0 1 0  255 255 255 255
22.96 0 71.5498 0 1 0  255 255 255 255
82.4575 0 25.9015 0 1 0  255 255 255 255
81.1899 0 92.4253 0 1 0  255 255 255 255
44.996 0 87.8707 0 1 0  255 255 255 255
79.4711 0 67.6954 0 1 0  255 255 255 255
78.9026 0 27.1416 0 1 0  255 255 255 255
12.4179 0 90.5854 0 1 0  255 255 255 255
38.0666 0 71.3361 0 1 0  255 255 255 255
30.1149 0 59.8562 0 1 0  255 255 255 255
73.8669 0 62.9707 0 1 0  255 255 255 255
64.1705 0 58.4041 0 1 0  255 255 255 255
84.0857 0 79.8832 0 1 0  255 255 255 255
55.7241 0 51.477 0 1 0  255 255 255 255
43.4379 0 88.8216 0 1 0  255 255 255 255
28.7838 0 86.5194 0 1 0  255 255 255 255
63.9303 0 59.4336 0 1 0  255 255 255 255
12.6723 0 79.5258 0 1 0  255 255 255 255
76.9423 0 61.5715 0 1 0  255 255 255 255
34.5432 0 69.1216 0 1 0  255 255 255 255
11.4801 0 81.0965 0 1 0  255 255 255 255
49.456 0 53.6806 0 1 0  255 255 255 255
54.6456 0 58.6006 0 1 0  255 255 255 255
50.0088 0 80.2196 0 1 0  255 255 255 255
71.5927 0 76.8321 0 1 0  255 255 255 255
36.2605 0 92.407 0 1 0  255 255 255 255
22.2697 0 68.0082 0 1 0  255 255 255 255
67.5325 0 23.0397 0 1 0  255 255 255 255
76.3379 0 81.4168 0 1 0  255 255 255 255
43.7512 0 77.8888 0 1 0  255 255 255 255
60.6663 0 81.8466 0 1 0  255 255 255 255
54.7155 0 74.1565 0 1 0  255 255 255 255
57.7354 0 78.0068 0 1 0  255 255 255 255
36.3868 0 55.559 0 1 0  255 255 255 255
61.7264 0 59.4691 0 1 0  255 255 255 255
45.2974 0 53.2958 0 1 0  255 255 255 255
48.3744 0 80.4585 0 1 0  255 255 255 255
44.9442 0 71.9314 0 1 0  255 255 255 255
49.9566 0 56.6078 0 1 0  255 255 255 255
18.9493 0 86.5233 0 1 0  255 255 255 255
60.1116 0 70.2629 0 1 0  255 255 255 255
41.548 0 68.8382 0 1 0  255 255 255 255
53.5634 0 56.1316 0 1 0  255 255 255 255
65.511 0 55.3991 0 1 0  255 255 255 255
75.9816 0 75.8115 0 1 0  255 255 255 255
45.6146 0 59.0032 0 1 0  255 255 255 255
56.5486 0 92.5043 0 1 0  255 255 255 255
72.4498 0 88.7024 0 1 0  255 255 255 255
28.4486 0 90.9023 0 1 0  255 255 255 255
52.5195 0 40.0103 0 1 0  255 255 255 255
39.1209 0 58.36 0 1 0  255 255 255 255
24.7057 0 87.8655 0 1 0  255 255 255 255
67.4054 0 20.1498 0 1 0  255 255 255 255
69.7698 0 82.2105 0 1 0  255 255 255 255
53.0191 0 66.9852 0 1 0  255 255 255 255
82.7785 0 78.4264 0 1 0  255 255 255 255
71.9185 0 42.7739 0 1 0  255 255 255 255
26.9768 0 92.3248 0 1 0  255 255 255 255
55.6469 0 60.0868 0 1 0  255 255 255 255
45.4458 0 89.0576 0 1 0  255 255 255 255
51.961 0 58.9316 0 1 0  255 255 255 255
76.6872 0 32.7855 0 1 0  255 255 255 255
26.6253 0 69.1309 0 1 0  255 255 255 255
9.59441 0 87.3098 0 1 0  255 255 255 255
23.4125 0 92.4815 0 1 0  255 255 255 255
18.9703 0 84.7518 0 1 0  255 255 255 255
49.1219 0 47.9689 0 1 0  255 255 255 255
48.2501 0 53.5615 0 1 0  255 255 255 255
34.4586 0 75.1816 0 1 0  255 255 255 255
41.0836 0 60.1819 0 1 0  255 255 255 255
78.5592 0 41.2441 0 1 0  255 255 255 255
77.1658 0 27.4478 0 1 0  255 255 255 255
53.5719 0 44.0131 0 1 0  255 255 255 255
43.1361 0 59.7335 0 1 0  255 255 255 255
56.0628 0 76.8826 0 1 0  255 255 255 255
83.9885 0 18.1035 0 1 0  255 255 255 255
28.3228 0 77.8552 0 1 0  255 255 255 255
73.1463 0 25.5907 0 1 0  255 255 255 255
40.5051 0 57.3558 0 1 0  255 255 255 255
60.8342 0 83.2587 0 1 0  255 255 255 255
10.9336 0 76.6041 0 1 0  255 255 255 255
52.8627 0 52.3016 0 1 0  255 255 255 255
36.616 0 77.7436 0 1 0  255 255 255 255
82.6722 0 64.6455 0 1 0  255 255 255 255
64.6559 0 54.9844 0 1 0  255 255 255 255
41.4467 0 77.7002 0 1 0  255 255 255 255
76.9341 0 55.5108 0 1 0  255 255 255 255
31.2137 0 85.4218 0 1 0  255 255 255 255
65.2639 0 29.5705 0 1 0  255 255 255 255
18.3577 0 79.872 0 1 0  255 255 255 255
74.6984 0 28.5225 0 1 0  255 255 255 255
30.2313 0 77.4674 0 1 0  255 255 255 255
40.4264 0 70.4786 0 1 0  255 255 255 255
82.5422 0 70.2683 0 1 0  255 255 255 255
71.3129 0 61.96 0 1 0  255 255 255 255
14.186 0 86.8585 0 1 0  255 255 255 255
30.7126 0 69.6322 0 1 0  255 255 255 255
9.81293 0 79.5118 0 1 0  255 255 255 255
25.9394 0 66.9099 0 1 0  255 255 255 255
42.1513 0 56.7034 0 1 0  255 255 255 255
11.6052 0 75.2165 0 1 0  255 255 255 255
44.1852 0 67.133 0 1 0  255 255 255 255
48.5409 0 75.8156 0 1 0  255 255 255 255
49.0916 0 55.3815 0 1 0  255 255 255 255
49.2127 0 83.7114 0 1 0  255 255 255 255
57.7269 0 43.511 0 1 0  255 255 255 255
20.2812 0 65.1684 0 1 0  255 255 255 255
64.1024 0 82.5695 0 1 0  255 255 255 255
66.4679 0 54.312 0 1 0  255 255 255 255
72.8695 0 48.0323 0 1 0  255 255 255 255
43.216 0 62.877 0 1 0  255 255 255 255
66.3001 0 44.9406 0 1 0  255 255 255 255
50.3942 0 83.9294 0 1 0  255 255 255 255
57.4398 0 91.1199 0 1 0  255 255 255 255
84.2376 0 32.6106 0 1 0  255 255 255 255
32.8226 0 85.6976 0 1 0  255 255 255 255
50.7269 0 41.3418 0 1 0  255 255 255 255
84.0209 0 65.3694 0 1 0  255 255 255 255
75.6098 0 49.5217 0 1 0  255 255 255 255
79.45 0 28.9868 0 1 0  255 255 255 255
35.326 0 59.628 0 1 0  255 255 255 255
29.6749 0 69.9073 0 1 0  255 255 255 255
38.0484 0 58.5015 0 1 0  255 255 255 255
77.0517 0 57.4218 0 1 0  255 255 255 255
27.8217 0 70.5969 0 1 0  255 255 255 255
72.0521 0 19.2797 0 1 0  255 255 255 255
77.5206 0 22.0554 0 1 0  255 255 255 255
45.8066 0 92.4754 0 1 0  255 255 255 255
9.60814 0 71.6639 0 1 0  255 255 255 255
33.1574 0 70.3571 0 1 0  255 255 255 255
40.5841 0 90.5335 0 1 0  255 255 255 255
49.8883 0 54.6182 0 1 0  255 255 255 255
73.3882 0 43.832 0 1 0  255 255 255 255
35.7378 0 86.9544 0 1 0  255 255 255 255
17.7943 0 92.5241 0 1 0  255 255 255 255
53.4157 0 79.8426 0 1 0  255 255 255 255
80.0908 0 23.0632 0 1 0  255 255 255 255
74.7907 0 89.7836 0 1 0  255 255 255 255
84.0484 0 36.8877 0 1 0  255 255 255 255
53.5297 0 80.775 0 1 0  255 255 255 255
58.9317 0 41.528 0 1 0  255 255 255 255
65.3803 0 17.9839 0 1 0  255 255 255 255
80.6594 0 67.5 0 1 0  255 255 255 255
12.6721 0 92.4213 0 1 0  255 255 255 255
15.0951 0 78.3178 0 1 0  255 255 255 255
65.6788 0 59.5545 0 1 0  255 255 255 255
55.0888 0 45.2019 0 1 0  255 255 255 255
63.7603 0 49.7952 0 1 0  255 255 255 255
39.0305 0 84.3717 0 1 0  255 255 255 255
53.4061 0 85.8282 0 1 0  255 255 255 255
80.43 0 21.1455 0 1 0  255 255 255 255
74.2138 0 58.4834 0 1 0  255 255 255 255
61.3582 0 69.2622 0 1 0  255 255 255 255
63.869 0 88.7586 0 1 0  255 255 255 255
56.9129 0 64.3595 0 1 0  255 255 255 255
45.0401 0 66.6019 0 1 0  255 255 255 255
72.711 0 62.9452 0 1 0  255 255 255 255
71.5884 0 71.094 0 1 0  255 255 255 255
57.1937 0 65.4658 0 1 0  255 255 255 255
65.429 0 75.3226 0 1 0  255 255 255 255
73.204 0 40.6037 0 1 0  255 255 255 255
84.1072 0 46.6158 0 1 0  255 255 255 255
64.889 0 32.7574 0 1 0  255 255 255 255
70.1234 0 68.8412 0 1 0  255 255 255 255
79.9937 0 69.1125 0 1 0  255 255 255 255
84.1907 0 57.3948 0 1 0  255 255 255 255
28.3821 0 62.6234 0 1 0  255 255 255 255
77.6141 0 33.743 0 1 0  255 255 255 255
10.9214 0 68.4527 0 1 0  255 255 255 255
67.4259 0 24.6375 0 1 0  255 255 255 255
79.4505 0 78.9252 0 1 0  255 255 255 255
84.11 0 49.8273 0 1 0  255 255 255 255
47.1096 0 60.1166 0 1 0  255 255 255 255
55.9846 0 43.7978 0 1 0  255 255 255 255
47.4339 0 75.6427 0 1 0  255 255 255 255
40.6175 0 55.612 0 1 0  255 255 255 255
73.969 0 86.8345 0 1 0  255 255 255 255
26.5678 0 85.4991 0 1 0  255 255 255 255
61.1456 0 91.0407 0 1 0  255 255 255 255
78.7358 0 42.9699 0 1 0  255 255 255 255
82.3736 0 57.8783 0 1 0  255 255 255 255
66.4635 0 38.628 0 1 0  255 255 255 255
68.8043 0 85.584 0 1 0  255 255 255 255
42.2995 0 61.449 0 1 0  255 255 255 255
9.74484 0 85.7363 0 1 0  255 255 255 255
55.7965 0 87.0483 0 1 0  255 255 255 255
67.2386 0 92.4732 0 1 0  255 255 255 255
74.9208 0 29.7942 0 1 0  255 255 255 255
46.6077 0 85.7366 0 1 0  255 255 255 255
32.8349 0 92.5275 0 1 0  255 255 255 255
34.3273 0 89.923 0 1 0  255 255 255 255
82.9652 0 85.7854 0 1 0  255 255 255 255
39.6783 0 85.6937 0 1 0  255 255 255 255
82.3071 0 19.0998 0 1 0  255 255 255 255
60.7201 0 28.9887 0 1 0  255 255 255 255
62.026 0 46.8656 0 1 0  255 255 255 255
57.4369 0 33.8929 0 1 0  255 255 255 255
63.938 0 90.7094 0 1 0  255 255 255 255
80.3751 0 47.1542 0 1 0  255 255 255 255
60.2643 0 56.5 0 1 0  255 255 255 255
77.5718 0 38.7637 0 1 0  255 255 255 255
42.3127 0 70.5874 0 1 0  255 255 255 255
21.8336 0 89.3699 0 1 0  255 255 255 255
39.3638 0 74.5636 0 1 0  255 255 255 255
69.4503 0 62.0286 0 1 0  255 255 255 255
78.2259 0 80.288 0 1 0  255 255 255 255
80.1323 0 59.2022 0 1 0  255 255 255 255
77.6274 0 21.1559 0 1 0  255 255 255 255
74.6075 0 74.2355 0 1 0  255 255 255 255
50.0791 0 67.9445 0 1 0  255 255 255 255
54.5263 0 92.492 0 1 0  255 255 255 255
72.989 0 73.7319 0 1 0  255 255 255 255
36.1375 0 66.6571 0 1 0  255 255 255 255
43.3559 0 65.5788 0 1 0  255 255 255 255
61.4659 0 51.2507 0 1 0  255 255 255 255
68.185 0 26.0816 0 1 0  255 255 255 255
17.2662 0 71.7032 0 1 0  255 255 255 255
71.027 0 60.3048 0 1 0  255 255 255 255
61.5327 0 79.8671 0 1 0  255 255 255 255
78.3257 0 45.6196 0 1 0  255 255 255 255
35.2517 0 63.6145 0 1 0  255 255 255 255
50.7761 0 42.9759 0 1 0  255 255 255 255
81.3094 0 46.8545 0 1 0  255 255 255 255
48.5608 0 51.9113 0 1 0  255 255 255 255
77.5816 0 73.2686 0 1 0  255 255 255 255
76.6675 0 41.6005 0 1 0  255 255 255 255
40.205 0 66.5586 0 1 0  255 255 255 255
71.4156 0 85.6636 0 1 0  255 255 255 255
44.7018 0 83.0585 0 1 0  255 255 255 255
45.0662 0 47.1574 0 1 0  255 255 255 255
54.1853 0 62.6146 0 1 0  255 255 255 255
27.2985 0 61.6046 0 1 0  255 255 255 255
84.106 0 74.5173 0 1 0  255 255 255 255
64.3085 0 43.2399 0 1 0  255 255 255 255
48.353 0 88.0925 0 1 0  255 255 255 255
59.2065 0 35.0394 0 1 0  255 255 255 255
56.4228 0 70.5199 0 1 0  255 255 255 255
70.3228 0 84.2572 0 1 0  255 255 255 255
54.1739 0 67.1368 0 1 0  255 255 255 255
83.9289 0 84.4571 0 1 0  255 255 255 255
44.8153 0 57.9689 0 1 0  255 255 255 255
72.0897 0 56.4469 0 1 0  255 255 255 255
60.3432 0 84.9423 0 1 0  255 255 255 255
22.8266 0 75.2226 0 1 0  255 255 255 255
80.8724 0 40.6467 0 1 0  255 255 255 255
25.5643 0 87.1636 0 1 0  255 255 255 255
26.9864 0 73.3101 0 1 0  255 255 255 255
82.5484 0 56.915 0 1 0  255 255 255 255
77.8836 0 78.7767 0 1 0  255 255 255 255
62.7178 0 31.2565 0 1 0  255 255 255 255
10.8273 0 77.8988 0 1 0  255 255 255 255
63.1861 0 30.2687 0 1 0  255 255 255 255
55.1076 0 79.7493 0 1 0  255 255 255 255
76.1759 0 84.2762 0 1 0  255 255 255 255
63.2789 0 39.9628 0 1 0  255 255 255 255
84.1017 0 60.631 0 1 0  255 255 255 255
62.5734 0 28.678 0 1 0  255 255 255 255
25.1193 0 83.2275 0 1 0  255 255 255 255
36.3048 0 76.1005 0 1 0  255 255 255 255
45.0991 0 48.9572 0 1 0  255 255 255 255
47.0152 0 46.5316 0 1 0  255 255 255 255
68.3053 0 84.6166 0 1 0  255 255 255 255
67.8308 0 61.831 0 1 0  255 255 255 255
56.491 0 79.0541 0 1 0  255 255 255 255
73.5555 0 53.3281 0 1 0  255 255 255 255
62.21 0 38.4957 0 1 0  255 255 255 255
58.6215 0 64.0133 0 1 0  255 255 255 255
28.6415 0 75.154 0 1 0  255 255 255 255
38.547 0 90.3805 0 1 0  255 255 255 255
82.5751 0 83.1142 0 1 0  255 255 255 255
78.222 0 71.3656 0 1 0  255 255 255 255
57.9555 0 62.1807 0 1 0  255 255 255 255
70.1143 0 43.009 0 1 0  255 255 255 255
67.1908 0 86.015 0 1 0  255 255 255 255
72.5116 0 32.3671 0 1 0  255 255 255 255
60.2917 0 77.3665 0 1 0  255 255 255 255
61.0415 0 70.1058 0 1 0  255 255 255 255
19.1409 0 75.2651 0 1 0  255 255 255 255
12.7396 0 86.55 0 1 0  255 255 255 255
77.348 0 87.41 0 1 0  255 255 255 255
72.9407 0 66.043 0 1 0  255 255 255 255
74.5885 0 41.6343 0 1 0  255 255 255 255
58.9764 0 60.6991 0 1 0  255 255 255 255
48.1234 0 43.6427 0 1 0  255 255 255 255
59.7272 0 29.0634 0 1 0  255 255 255 255
54.5723 0 46.7554 0 1 0  255 255 255 255
24.1588 0 67.5267 0 1 0  255 255 255 255
75.2304 0 68.339 0 1 0  255 255 255 255
51.2987 0 64.0003 0 1 0  255 255 255 255
65.2606 0 73.4765 0 1 0  255 255 255 255
41.6781 0 65.9017 0 1 0  255 255 255 255
63.0102 0 25.522 0 1 0  255 255 255 255
12.3358 0 77.1492 0 1 0  255 255 255 255
40.4318 0 92.5249 0 1 0  255 255 255 255
35.4833 0 60.6691 0 1 0  255 255 255 255
48.4312 0 63.6198 0 1 0  255 255 255 255
22.0091 0 65.8467 0 1 0  255 255 255 255
62.9069 0 22.3399 0 1 0  255 255 255 255
74.1355 0 37.8276 0 1 0  255 255 255 255
34.0969 0 79.0567 0 1 0  255 255 255 255
77.1978 0 46.2138 0 1 0  255 255 255 255
53.0781 0 75.4186 0 1 0  255 255 255 255
73.5916 0 49.6632 0 1 0  255 255 255 255
76.4831 0 24.7056 0 1 0  255 255 255 255
69.0525 0 67.1087 0 1 0  255 255 255 255
13.6489 0 70.7216 0 1 0  255 255 255 255
29.6502 0 86.0092 0 1 0  255 255 255 255
79.8931 0 63.6112 0 1 0  255 255 255 255
77.9689 0 47.5017 0 1 0  255 255 255 255
62.0362 0 84.1766 0 1 0  255 255 255 255
74.3899 0 50.4523 0 1 0  255 255 255 255
59.5598 0 71.158 0 1 0  255 255 255 255
71.5852 0 89.3915 0 1 0  255 255 255 255
41.8377 0 58.5414 0 1 0  255 255 255 255
36.23 0 85.3588 0 1 0  255 255 255 255
79.1203 0 22.3704 0 1 0  255 255 255 255
69.9759 0 54.4978 0 1 0  255 255 255 255
54.5224 0 33.0324 0 1 0  255 255 255 255
84.0819 0 81.8609 0 1 0  255 255 255 255
64.4353 0 75.0141 0 1 0  255 255 255 255
26.8381 0 83.9457 0 1 0  255 255 255 255
80.8338 0 37.3075 0 1 0  255 255 255 255
81.5411 0 31.1927 0 1 0  255 255 255 255
72.5871 0 50.9239 0 1 0  255 255 255 255
84.0575 0 86.0806 0 1 0  255 255 255 255
63.2385 0 41.936 0 1 0  255 255 255 255
78.5256 0 82.0396 0 1 0  255 255 255 255
61.2871 0 39.7383 0 1 0  255 255 255 255
73.7475 0 46.6202 0 1 0  255 255 255 255
76.3346 0 83.3368 0 1 0  255 255 255 255
9.5487 0 89.6155 0 1 0  255 255 255 255
27.3043 0 78.2589 0 1 0  255 255 255 255
23.7948 0 65.1682 0 1 0  255 255 255 255
36.4455 0 88.5122 0 1 0  255 255 255 255
50.7171 0 76.2213 0 1 0  255 255 255 255
81.228 0 29.4653 0 1 0  255 255 255 255
59.4557 0 20.8591 0 1 0  255 255 255 255
49.6831 0 85.3971 0 1 0  255 255 255 255
66.7393 0 76.4242 0 1 0  255 255 255 255
57.084 0 27.8358 0 1 0  255 255 255 255
60.6202 0 24.51 0 1 0  255 255 255 255
57.3974 0 58.1577 0 1 0  255 255 255 255
44.1601 0 63.5148 0 1 0  255 255 255 255
74.456 0 26.5258 0 1 0  255 255 255 255
78.5102 0 20.7758 0 1 0  255 255 255 255
62.3654 0 81.463 0 1 0  255 255 255 255
43.7964 0 61.0782 0 1 0  255 255 255 255
21.4713 0 66.5571 0 1 0  255 255 255 255
52.4732 0 47.8691 0 1 0  255 255 255 255
75.4083 0 82.1802 0 1 0  255 255 255 255
63.3746 0 78.1339 0 1 0  255 255 255 255
72.7022 0 82.6853 0 1 0  255 255 255 255
56.6606 0 58.736 0 1 0  255 255 255 255
77.3136 0 44.2708 0 1 0  255 255 255 255
61.9172 0 32.7993 0 1 0  255 255 255 255
84.0606 0 52.113 0 1 0  255 255 255 255
68.2304 0 72.285 0 1 0  255 255 255 255
42.4157 0 74.5721 0 1 0  255 255 255 255
77.6571 0 19.1828 0 1 0  255 255 255 255
80.0274 0 62.3939 0 1 0  255 255 255 255
43.3113 0 54.4286 0 1 0  255 255 255 255
67.0604 0 74.7451 0 1 0  255 255 255 255
47.4764 0 78.7769 0 1 0  255 255 255 255
77.0212 0 43.3134 0 1 0  255 255 255 255
56.7666 0 52.6563 0 1 0  255 255 255 255
65.5455 0 70.9534 0 1 0  255 255 255 255
33.1656 0 91.0198 0 1 0  255 255 255 255
12.1294 0 83.7696 0 1 0  255 255 255 255
58.2605 0 46.4825 0 1 0  255 255 255 255
59.112 0 44.9575 0 1 0  255 255 255 255
81.7171 0 41.9958 0 1 0  255 255 255 255
74.8315 0 52.5843 0 1 0  255 255 255 255
77.3712 0 59.0494 0 1 0  255 255 255 255
34.6227 0 56.6513 0 1 0  255 255 255 255
64.67 0 31.2225 0 1 0  255 255 255 255
17.4345 0 84.0177 0 1 0  255 255 255 255
48.5312 0 81.3946 0 1 0  255 255 255 255
12.7163 0 75.7087 0 1 0  255 255 255 255
46.1817 0 55.68 0 1 0  255 255 255 255
78.6276 0 70.4764 0 1 0  255 255 255 255
75.568 0 62.8734 0 1 0  255 255 255 255
79.8196 0 91.3273 0 1 0  255 255 255 255
67.1612 0 80.7488 0 1 0  255 255 255 255
60.0027 0 64.9569 0 1 0  255 255 255 255
12.9649 0 69.8705 0 1 0  255 255 255 255
49.0246 0 74.9017 0 1 0  255 255 255 255
61.032 0 65.1306 0 1 0  255 255 255 255
70.6428 0 88.1696 0 1 0  255 255 255 255
64.6434 0 42.117 0 1 0  255 255 255 255
71.6522 0 25.2062 0 1 0  255 255 255 255
76.4362 0 45.6243 0 1 0  255 255 255 255
47.5133 0 48.3151 0 1 0  255 255 255 255
84.1989 0 54.1464 0 1 0  255 255 255 255
61.2311 0 37.1823 0 1 0  255 255 255 255
74.2088 0 88.9366 0 1 0  255 255 255 255
32.0412 0 83.7593 0 1 0  255 255 255 255
77.9061 0 83.6436 0 1 0  255 255 255 255
62.3676 0 64.1381 0 1 0  255 255 255 255
68.536 0 82.9416 0 1 0  255 255 255 255
49.1201 0 61.638 0 1 0  255 255 255 255
57.6383 0 63.7001 0 1 0  255 255 255 255
53.4467 0 71.6208 0 1 0  255 255 255 255
75.3791 0 57.2499 0 1 0  255 255 255 255
52.8993 0 58.7638 0 1 0  255 255 255 255
78.8616 0 87.2357 0 1 0  255 255 255 255
62.833 0 32.9446 0 1 0  255 255 255 255
82.9455 0 29.1105 0 1 0  255 255 255 255
36.8797 0 60.6837 0 1 0  255 255 255 255
13.6524 0 84.1746 0 1 0  255 255 255 255
73.0417 0 71.8956 0 1 0  255 255 255 255
50.7498 0 39.6888 0 1 0  255 255 255 255
51.9619 0 44.9277 0 1 0  255 255 255 255
32.392 0 64.5117 0 1 0  255 255 255 255
77.8818 0 40.4566 0 1 0  255 255 255 255
64.2527 0 40.5984 0 1 0  255 255 255 255
58.7989 0 36.7751 0 1 0  255 255 255 255
72.3187 0 26.6059 0 1 0  255 255 255 255
31.1482 0 61.0958 0 1 0  255 255 255 255
27.8532 0 79.9096 0 1 0  255 255 255 255
46.5374 0 58.2889 0 1 0  255 255 255 255
78.5053 0 25.8594 0 1 0  255 255 255 255
56.048 0 62.9918 0 1 0  255 255 255 255
66.5168 0 91.0614 0 1 0  255 255 255 255
76.0638 0 92.5131 0 1 0  255 255 255 255
63.3349 0 20.289 0 1 0  255 255 255 255
82.5212 0 80.1296 0 1 0  255 255 255 255
77.1274 0 75.6585 0 1 0  255 255 255 255
61.1097 0 71.8296 0 1 0  255 255 255 255
82.9737 0 24.1523 0 1 0  255 255 255 255
71.8803 0 41.8086 0 1 0  255 255 255 255
59.8939 0 68.647 0 1 0  255 255 255 255
17.0872 0 75.4794 0 1 0  255 255 255 255
42.3786 0 87.2625 0 1 0  255 255 255 255
69.0265 0 40.8107 0 1 0  255 255 255 255
56.1534 0 75.1108 0 1 0  255 255 255 255
58.4524 0 66.5238 0 1 0  255 255 255 255
26.0569 0 64.1067 0 1 0  255 255 255 255
58.1769 0 80.7112 0 1 0  255 255 255 255
64.1963 0 73.8493 0 1 0  255 255 255 255
58.9686 0 34.0353 0 1 0  255 255 255 255
70.9723 0 29.1597 0 1 0  255 255 255 255
60.4428 0 40.3419 0 1 0  255 255 255 255
84.1481 0 42.5006 0 1 0  255 255 255 255
37.7775 0 75.2453 0 1 0  255 255 255 255
57.3121 0 71.2094 0 1 0  255 255 255 255
14.3397 0 82.4792 0 1 0  255 255 255 255
54.2693 0 76.8996 0 1 0  255 255 255 255
78.1403 0 54.9459 0 1 0  255 255 255 255
68.4893 0 74.0812 0 1 0  255 255 255 255
84.0389 0 70.7651 0 1 0  255 255 255 255
30.5535 0 67.0199 0 1 0  255 255 255 255
26.9137 0 75.1514 0 1 0  255 255 255 255
16.8699 0 66.2969 0 1 0  255 255 255 255
84.1038 0 62.6874 0 1 0  255 255 255 255
80.8121 0 19.4171 0 1 0  255 255 255 255
64.9496 0 34.955 0 1 0  255 255 255 255
75.5641 0 88.0168 0 1 0  255 255 255 255
44.4319 0 51.7588 0 1 0  255 255 255 255
56.698 0 72.2996 0 1 0  255 255 255 255
76.4541 0 54.1416 0 1 0  255 255 255 255
43.1426 0 64.7201 0 1 0  255 255 255 255
70.8934 0 17.9193 0 1 0  255 255 255 255
50.1308 0 91.2203 0 1 0  255 255 255 255
69.0247 0 24.6184 0 1 0  255 255 255 255
84.1152 0 47.88 0 1 0  255 255 255 255
60.695 0 48.3072 0 1 0  255 255 255 255
61.8392 0 67.3826 0 1 0  255 255 255 255
78.1552 0 58.7307 0 1 0  255 255 255 255
70.6789 0 46.1511 0 1 0  255 255 255 255
30.4854 0 72.5027 0 1 0  255 255 255 255
36.5143 0 59.1058 0 1 0  255 255 255 255
62.6451 0 63.1307 0 1 0  255 255 255 255
33.7828 0 62.8871 0 1 0  255 255 255 255
57.9384 0 32.3168 0 1 0  255 255 255 255
28.0194 0 85.1724 0 1 0  255 255 255 255
14.3605 0 79.1036 0 1 0  255 255 255 255
46.8958 0 44.8374 0 1 0  255 255 255 255
62.3338 0 58.7047 0 1 0  255 255 255 255
48.4438 0 71.9439 0 1 0  255 255 255 255
78.1751 0 22.8782 0 1 0  255 255 255 255
82.5679 0 40.5638 0 1 0  255 255 255 255
46.3996 0 71.344 0 1 0  255 255 255 255
54.6939 0 56.664 0 1 0  255 255 255 255
80.6392 0 80.2258 0 1 0  255 255 255 255
10.786 0 79.7944 0 1 0  255 255 255 255
73.5821 0 71.0772 0 1 0  255 255 255 255
79.2381 0 53.9545 0 1 0  255 255 255 255
43.9512 0 69.6829 0 1 0  255 255 255 255
57.5736 0 73.063 0 1 0  255 255 255 255
64.3835 0 28.9082 0 1 0  255 255 255 255
15.1236 0 88.0521 0 1 0  255 255 255 255
84.1022 0 59.6607 0 1 0  255 255 255 255
74.5264 0 71.1042 0 1 0  255 255 255 255
61.2511 0 54.8566 0 1 0  255 255 255 255
80.2159 0 74.6068 0 1 0  255 255 255 255
59.7818 0 43.2418 0 1 0  255 255 255 255
26.0069 0 80.6742 0 1 0  255 255 255 255
48.4987 0 73.007 0 1 0  255 255 255 255
37.3229 0 57.5003 0 1 0  255 255 255 255
46.8682 0 72.153 0 1 0  255 255 255 255
84.1343 0 63.6628 0 1 0  255 255 255 255
81.2341 0 60.652 0 1 0  255 255 255 255
79.855 0 37.7745 0 1 0  255 255 255 255
57.8072 0 37.1437 0 1 0  255 255 255 255
72.4623 0 57.9283 0 1 0  255 255 255 255
65.3401 0 37.9755 0 1 0  255 255 255 255
84.2038 0 25.1919 0 1 0  255 255 255 255
41.8071 0 52.3257 0 1 0  255 255 255 255
75.4644 0 46.0847 0 1 0  255 255 255 255
48.6091 0 65.2146 0 1 0  255 255 255 255
76.6395 0 90.6805 0 1 0  255 255 255 255
67.2469 0 89.1475 0 1 0  255 255 255 255
54.0397 0 69.1865 0 1 0  255 255 255 255
73.519 0 57.5934 0 1 0  255 255 255 255
53.7686 0 91.2147 0 1 0  255 255 255 255
31.051 0 82.0504 0 1 0  255 255 255 255
78.1904 0 17.8295 0 1 0  255 255 255 255
80.8495 0 54.0026 0 1 0  255 255 255 255
81.0381 0 62.3827 0 1 0  255 255 255 255
67.2573 0 84.8512 0 1 0  255 255 255 255
75.5299 0 91.1243 0 1 0  255 255 255 255
35.3629 0 71.5317 0 1 0  255 255 255 255
50.9861 0 61.3071 0 1 0  255 255 255 255
53.9431 0 55.0821 0 1 0  255 255 255 255
52.1622 0 76.8696 0 1 0  255 255 255 255
58.1602 0 68.3796 0 1 0  255 255 255 255
79.278 0 31.1923 0 1 0  255 255 255 255
49.5659 0 63.6933 0 1 0  255 255 255 255
41.4735 0 50.837 0 1 0  255 255 255 255
58.9291 0 74.1159 0 1 0  255 255 255 255
62.629 0 79.6485 0 1 0  255 255 255 255
82.6689 0 89.1231 0 1 0  255 255 255 255
69.3525 0 77.5711 0 1 0  255 255 255 255
21.0641 0 64.7432 0 1 0  255 255 255 255
61.8854 0 34.7295 0 1 0  255 255 255 255
78.0342 0 38.1702 0 1 0  255 255 255 255
52.4038 0 39.0596 0 1 0  255 255 255 255
14.1312 0 76.2348 0 1 0  255 255 255 255
80.7797 0 70.7428 0 1 0  255 255 255 255
72.2572 0 60.1866 0 1 0  255 255 255 255
84.2095 0 67.8934 0 1 0  255 255 255 255
76.2514 0 39.854 0 1 0  255 255 255 255
81.1288 0 59.0496 0 1 0  255 255 255 255
76.2893 0 56.8778 0 1 0  255 255 255 255
73.9855 0 65.823 0 1 0  255 255 255 255
59.6066 0 83.4517 0 1 0  255 255 255 255
62.2037 0 45.6198 0 1 0  255 255 255 255
56.6389 0 42.3992 0 1 0  255 255 255 255
63.9505 0 80.7513 0 1 0  255 255 255 255
10.8917 0 92.4441 0 1 0  255 255 255 255
70.2041 0 75.9583 0 1 0  255 255 255 255
68.3432 0 54.781 0 1 0  255 255 255 255
53.222 0 88.4444 0 1 0  255 255 255 255
74.8562 0 44.662 0 1 0  255 255 255 255
18.4377 0 71.2444 0 1 0  255 255 255 255
70.6562 0 76.8319 0 1 0  255 255 255 255
43.1497 0 55.344 0 1 0  255 255 255 255
11.049 0 86.9405 0 1 0  255 255 255 255
46.497 0 82.798 0 1 0  255 255 255 255
18.1201 0 88.2135 0 1 0  255 255 255 255
19.0905 0 88.4053 0 1 0  255 255 255 255
9.61466 0 73.5383 0 1 0  255 255 255 255
29.6414 0 61.5955 0 1 0  255 255 255 255
65.5319 0 88.6237 0 1 0  255 255 255 255
82.744 0 32.2523 0 1 0  255 255 255 255
36.9077 0 83.9981 0 1 0  255 255 255 255
29.9423 0 74.1513 0 1 0  255 255 255 255
61.8966 0 92.5765 0 1 0  255 255 255 255
35.3335 0 73.4049 0 1 0  255 255 255 255
26.489 0 77.7395 0 1 0  255 255 255 255
51.2153 0 66.8094 0 1 0  255 255 255 255
50.3269 0 66.2551 0 1 0  255 255 255 255
63.954 0 64.7892 0 1 0  255 255 255 255
70.1455 0 23.349 0 1 0  255 255 255 255
77.7585 0 67.4085 0 1 0  255 255 255 255
55.5779 0 48.0677 0 1 0  255 255 255 255
24.766 0 91.116 0 1 0  255 255 255 255
31.6568 0 69.7045 0 1 0  255 255 255 255
83.0287 0 19.7477 0 1 0  255 255 255 255
33.6504 0 69.2823 0 1 0  255 255 255 255
60.862 0 58.1171 0 1 0  255 255 255 255
49.9097 0 44.6634 0 1 0  255 255 255 255
61.7466 0 62.588 0 1 0  255 255 255 255
76.1517 0 52.1159 0 1 0  255 255 255 255
58.9159 0 50.9024 0 1 0  255 255 255 255
69.8487 0 25.1107 0 1 0  255 255 255 255
66.4503 0 17.9351 0 1 0  255 255 255 255
55.8199 0 73.0117 0 1 0  255 255 255 255
73.8668 0 38.891 0 1 0  255 255 255 255
71.0412 0 64.3276 0 1 0  255 255 255 255
74.4102 0 72.6834 0 1 0  255 255 255 255
45.1229 0 68.5768 0 1 0  255 255 255 255
55.3582 0 65.0914 0 1 0  255 255 255 255
32.9767 0 65.9088 0 1 0  255 255 255 255
20.0066 0 70.3602 0 1 0  255 255 255 255
71.8982 0 77.8504 0 1 0  255 255 255 255
39.5862 0 52.6263 0 1 0  255 255 255 255
70.348 0 56.7913 0 1 0  255 255 255 255
52.2385 0 71.0064 0 1 0  255 255 255 255
73.7849 0 44.8141 0 1 0  255 255 255 255
20.0768 0 68.8018 0 1 0  255 255 255 255
18.417 0 91.1361 0 1 0  255 255 255 255
41.7579 0 54.0813 0 1 0  255 255 255 255
25.0106 0 75.5362 0 1 0  255 255 255 255
26.5216 0 82.397 0 1 0  255 255 255 255
52.6422 0 63.9251 0 1 0  255 255 255 255
78.7069 0 60.3118 0 1 0  255 255 255 255
53.7874 0 60.0912 0 1 0  255 255 255 255
61.7536 0 88.2153 0 1 0  255 255 255 255
64.2661 0 24.3949 0 1 0  255 255 255 255
55.1027 0 42.3632 0 1 0  255 255 255 255
36.5013 0 91.3066 0 1 0  255 255 255 255
73.0795 0 76.4272 0 1 0  255 255 255 255
57.6594 0 52.5499 0 1 0  255 255 255 255
63.848 0 38.6926 0 1 0  255 255 255 255
73.4351 0 77.3074 0 1 0  255 255 255 255
62.9472 0 37.0214 0 1 0  255 255 255 255
64.5752 0 61.003 0 1 0  255 255 255 255
60.6928 0 80.2423 0 1 0  255 255 255 255
55.8237 0 34.0262 0 1 0  255 255 255 255
61.1888 0 17.9817 0 1 0  255 255 255 255
56.6317 0 46.7434 0 1 0  255 255 255 255
47.1976 0 89.8514 0 1 0  255 255 255 255
27.7266 0 66.6642 0 1 0  255 255 255 255
73.503 0 84.9521 0 1 0  255 255 255 255
49.1453 0 92.5204 0 1 0  255 255 255 255
79.9757 0 54.7573 0 1 0  255 255 255 255
70.2585 0 73.6849 0 1 0  255 255 255 255
31.6946 0 76.7798 0 1 0  255 255 255 255
59.0734 0 48.4069 0 1 0  255 255 255 255
61.1589 0 45.3771 0 1 0  255 255 255 255
70.014 0 80.4591 0 1 0  255 255 255 255
54.0866 0 39.1579 0 1 0  255 255 255 255
34.7224 0 58.1249 0 1 0  255 255 255 255
32.9797 0 74.3427 0 1 0  255 255 255 255
45.0075 0 91.1923 0 1 0  255 255 255 255
43.1332 0 85.8199 0 1 0  255 255 255 255
81.3193 0 73.3339 0 1 0  255 255 255 255
36.9649 0 85.8536 0 1 0  255 255 255 255
20.0625 0 71.2728 0 1 0  255 255 255 255
63.6166 0 27.4177 0 1 0  255 255 255 255
67.1658 0 55.7749 0 1 0  255 255 255 255
74.2969 0 34.4488 0 1 0  255 255 255 255
14.6254 0 67.0511 0 1 0  255 255 255 255
58.2527 0 28.4116 0 1 0  255 255 255 255
60.5139 0 21.8349 0 1 0  255 255 255 255
68.1897 0 25.0791 0 1 0  255 255 255 255
61.4016 0 41.6046 0 1 0  255 255 255 255
67.6156 0 77.1385 0 1 0  255 255 255 255
9.5721 0 82.1923 0 1 0  255 255 255 255
67.5427 0 67.9809 0 1 0  255 255 255 255
71.6011 0 74.2244 0 1 0  255 255 255 255
58.5503 0 72.6784 0 1 0  255 255 255 255
54.0685 0 33.7998 0 1 0  255 255 255 255
42.9935 0 51.0586 0 1 0  255 255 255 255
60.6742 0 31.6762 0 1 0  255 255 255 255
83.0576 0 38.3791 0 1 0  255 255 255 255
58.7061 0 57.0904 0 1 0  255 255 255 255
24.2078 0 74.0586 0 1 0  255 255 255 255
28.9036 0 83.4026 0 1 0  255 255 255 255
84.0899 0 92.4382 0 1 0  255 255 255 255
64.0431 0 92.5952 0 1 0  255 255 255 255
50.4586 0 75.3298 0 1 0  255 255 255 255
63.8598 0 35.3308 0 1 0  255 255 255 255
32.6605 0 61.2304 0 1 0  255 255 255 255
62.3763 0 48.6173 0 1 0  255 255 255 255
80.1789 0 29.9462 0 1 0  255 255 255 255
25.3736 0 72.381 0 1 0  255 255 255 255
65.8639 0 53.6569 0 1 0  255 255 255 255
20.8614 0 72.794 0 1 0  255 255 255 255
55.1421 0 34.8758 0 1 0  255 255 255 255
71.8863 0 29.6403 0 1 0  255 255 255 255
18.4077 0 70.3292 0 1 0  255 255 255 255
39.0476 0 65.2584 0 1 0  255 255 255 255
37.7356 0 69.5127 0 1 0  255 255 255 255
72.5257 0 34.1867 0 1 0  255 255 255 255
75.2966 0 55.6394 0 1 0  255 255 255 255
29.1172 0 80.9311 0 1 0  255 255 255 255
64.0221 0 86.7032 0 1 0  255 255 255 255
55.3801 0 85.4267 0 1 0  255 255 255 255
66.5087 0 25.771 0 1 0  255 255 255 255
80.7312 0 57.4519 0 1 0  255 255 255 255
30.8453 0 75.622 0 1 0  255 255 255 255
11.9108 0 78.0571 0 1 0  255 255 255 255
49.9675 0 64.6424 0 1 0  255 255 255 255
25.7518 0 89.8744 0 1 0  255 255 255 255
48.5559 0 59.4485 0 1 0  255 255 255 255
62.5411 0 89.916 0 1 0  255 255 255 255
80.9353 0 25.4713 0 1 0  255 255 255 255
30.773 0 65.3205 0 1 0  255 255 255 255
81.7475 0 48.3324 0 1 0  255 255 255 255
64.6048 0 22.6177 0 1 0  255 255 255 255
66.2873 0 48.1552 0 1 0  255 255 255 255
50.2337 0 87.8563 0 1 0  255 255 255 255
40.0967 0 73.398 0 1 0  255 255 255 255
49.8995 0 57.7807 0 1 0  255 255 255 255
78.5705 0 50.5513 0 1 0  255 255 255 255
68.2161 0 28.9461 0 1 0  255 255 255 255
83.211 0 49.4717 0 1 0  255 255 255 255
39.218 0 61.2478 0 1 0  255 255 255 255
40.9 0 58.3546 0 1 0  255 255 255 255
43.4478 0 71.204 0 1 0  255 255 255 255
73.6306 0 69.6073 0 1 0  255 255 255 255
82.7429 0 68.2944 0 1 0  255 255 255 255
13.9252 0 77.167 0 1 0  255 255 255 255
60.5079 0 30.7318 0 1 0  255 255 255 255
45.9525 0 47.677 0 1 0  255 255 255 255
59.3142 0 67.9196 0 1 0  255 255 255 255
20.6943 0 88.8405 0 1 0  255 255 255 255
42.4939 0 88.9109 0 1 0  255 255 255 255
61.8299 0 57.0389 0 1 0  255 255 255 255
42.4883 0 68.5056 0 1 0  255 255 255 255
57.1249 0 57.1515 0 1 0  255 255 255 255
66.3696 0 28.2762 0 1 0  255 255 255 255
57.8658 0 83.6709 0 1 0  255 255 255 255
66.1244 0 39.6598 0 1 0  255 255 255 255
15.5363 0 91.0664 0 1 0  255 255 255 255
82.716 0 72.1833 0 1 0  255 255 255 255
65.4156 0 77.9876 0 1 0  255 255 255 255
79.8911 0 42.0422 0 1 0  255 255 255 255
72.6965 0 67.0773 0 1 0  255 255 255 255
78.5844 0 57.8584 0 1 0  255 255 255 255
70.4337 0 72.0639 0 1 0  255 255 255 255
38.4824 0 62.7065 0 1 0  255 255 255 255
67.8217 0 62.8347 0 1 0  255 255 255 255
42.5836 0 92.6109 0 1 0  255 255 255 255
60.7774 0 90.1414 0 1 0  255 255 255 255
66.6455 0 82.134 0 1 0  255 255 255 255
56.8578 0 45.1734 0 1 0  255 255 255 255
65.6905 0 41.6888 0 1 0  255 255 255 255
54.102 0 79.2964 0 1 0  255 255 255 255
54.0361 0 82.5396 0 1 0  255 255 255 255
73.3309 0 79.0183 0 1 0  255 255 255 255
77.6423 0 64.9455 0 1 0  255 255 255 255
14.2873 0 74.7028 0 1 0  255 255 255 255
51.9724 0 55.3672 0 1 0  255 255 255 255
72.0117 0 73.4975 0 1 0  255 255 255 255
78.8046 0 66.2378 0 1 0  255 255 255 255
75.651 0 42.8887 0 1 0  255 255 255 255
79.2793 0 48.4705 0 1 0  255 255 255 255
58.1984 0 65.5151 0 1 0  255 255 255 255
23.5982 0 63.3516 0 1 0  255 255 255 255
50.1791 0 77.9457 0 1 0  255 255 255 255
55.621 0 40.1133 0 1 0  255 255 255 255
75.0958 0 22.7286 0 1 0  255 255 255 255
23.9695 0 72.5988 0 1 0  255 255 255 255
57.3318 0 40.6821 0 1 0  255 255 255 255
74.013 0 25.4759 0 1 0  255 255 255 255
43.2679 0 73.8729 0 1 0  255 255 255 255
79.6051 0 71.9038 0 1 0  255 255 255 255
77.609 0 51.8256 0 1 0  255 255 255 255
35.425 0 79.982 0 1 0  255 255 255 255
55.0721 0 78.2303 0 1 0  255 255 255 255
46.3241 0 61.6328 0 1 0  255 255 255 255
55.1746 0 76.4377 0 1 0  255 255 255 255
66.0125 0 23.9901 0 1 0  255 255 255 255
45.7923 0 73.4876 0 1 0  255 255 255 255
82.8995 0 73.2239 0 1 0  255 255 255 255
70.466 0 19.3611 0 1 0  255 255 255 255
61.7081 0 47.9645 0 1 0  255 255 255 255
20.7675 0 86.4275 0 1 0  255 255 255 255
72.5553 0 24.95 0 1 0  255 255 255 255
72.687 0 41.374 0 1 0  255 255 255 255
28.2062 0 74.1856 0 1 0  255 255 255 255
43.8182 0 52.6182 0 1 0  255 255 255 255
16.857 0 70.4008 0 1 0  255 255 255 255
75.4676 0 78.9742 0 1 0  255 255 255 255
42.3534 0 78.9811 0 1 0  255 255 255 255
54.5856 0 65.6401 0 1 0  255 255 255 255
33.1839 0 60.3603 0 1 0  255 255 255 255
53.4184 0 89.9302 0 1 0  255 255 255 255
58.9675 0 82.5417 0 1 0  255 255 255 255
55.2407 0 38.6156 0 1 0  255 255 255 255
15.902 0 86.0326 0 1 0  255 255 255 255
41.0154 0 64.2218 0 1 0  255 255 255 255
58.1479 0 87.1106 0 1 0  255 255 255 255
58.9917 0 88.4988 0 1 0  255 255 255 255
82.9265 0 59.3402 0 1 0  255 255 255 255
62.3685 0 91.0126 0 1 0  255 255 255 255
50.8227 0 81.0165 0 1 0  255 255 255 255
36.2306 0 69.3317 0 1 0  255 255 255 255
77.6376 0 29.5661 0 1 0  255 255 255 255
70.1101 0 39.9049 0 1 0  255 255 255 255
57.1781 0 87.7841 0 1 0  255 255 255 255
74.4032 0 80.4095 0 1 0  255 255 255 255
72.8545 0 39.0665 0 1 0  255 255 255 255
82.4783 0 37.3416 0 1 0  255 255 255 255
50.3352 0 59.8424 0 1 0  255 255 255 255
46.8143 0 68.4598 0 1 0  255 255 255 255
75.3913 0 77.3869 0 1 0  255 255 255 255
46.4554 0 57.4045 0 1 0  255 255 255 255
71.8652 0 57.3096 0 1 0  255 255 255 255
84.2689 0 77.7577 0 1 0  255 255 255 255
68.7048 0 75.3042 0 1 0  255 255 255 255
32.1438 0 68.5322 0 1 0  255 255 255 255
79.8055 0 83.0452 0 1 0  255 255 255 255
72.8532 0 78.0276 0 1 0  255 255 255 255
9.61755 0 84.8238 0 1 0  255 255 255 255
75.9298 0 21.2121 0 1 0  255 255 255 255
82.9834 0 81.4941 0 1 0  255 255 255 255
80.1732 0 28.3047 0 1 0  255 255 255 255
82.3937 0 63.2317 0 1 0  255 255 255 255
57.1903 0 27.0108 0 1 0  255 255 255 255
50.472 0 79.3618 0 1 0  255 255 255 255
81.4747 0 58.2036 0 1 0  255 255 255 255
69.7566 0 27.9826 0 1 0  255 255 255 255
63.4 0 67.0941 0 1 0  255 255 255 255
71.9253 0 54.5934 0 1 0  255 255 255 255
69.0943 0 27.3974 0 1 0  255 255 255 255
72.1034 0 71.9483 0 1 0  255 255 255 255
81.9975 0 66.0261 0 1 0  255 255 255 255
12.7375 0 85.3038 0 1 0  255 255 255 255
82.5518 0 53.8861 0 1 0  255 255 255 255
42.5753 0 53.8091 0 1 0  255 255 255 255
52.6051 0 73.8339 0 1 0  255 255 255 255
76.6956 0 69.4191 0 1 0  255 255 255 255
84.1582 0 21.0803 0 1 0  255 255 255 255
35.7023 0 88.9772 0 1 0  255 255 255 255
67.1849 0 71.5475 0 1 0  255 255 255 255
77.9525 0 57.0235 0 1 0  255 255 255 255
43.8959 0 75.4265 0 1 0  255 255 255 255
48.4291 0 45.2433 0 1 0  255 255 255 255
47.3461 0 87.1095 0 1 0  255 255 255 255
57.5499 0 55.5311 0 1 0  255 255 255 255
34.1475 0 65.0602 0 1 0  255 255 255 255
76.1952 0 50.3645 0 1 0  255 255 255 255
38.1003 0 66.4999 0 1 0  255 255 255 255
82.8203 0 54.924 0 1 0  255 255 255 255
73.4951 0 72.7317 0 1 0  255 255 255 255
72.8101 0 17.8156 0 1 0  255 255 255 255
19.0283 0 78.4064 0 1 0  255 255 255 255
40.0825 0 62.7745 0 1 0  255 255 255 255
81.678 0 76.5578 0 1 0  255 255 255 255
68.6638 0 30.4255 0 1 0  255 255 255 255
73.2469 0 31.7071 0 1 0  255 255 255 255
10.8913 0 84.3982 0 1 0  255 255 255 255
81.5123 0 26.0004 0 1 0  255 255 255 255
64.9105 0 45.7981 0 1 0  255 255 255 255
65.1108 0 91.5135 0 1 0  255 255 255 255
44.1739 0 68.1071 0 1 0  255 255 255 255
68.2962 0 69.7306 0 1 0  255 255 255 255
80.8894 0 89.4993 0 1 0  255 255 255 255
78.4653 0 72.9963 0 1 0  255 255 255 255
17.6927 0 89.3661 0 1 0  255 255 255 255
68.7585 0 19.3985 0 1 0  255 255 255 255
38.1048 0 55.287 0 1 0  255 255 255 255
42.2337 0 55.5474 0 1 0  255 255 255 255
82.9806 0 46.5107 0 1 0  255 255 255 255
63.9578 0 25.7521 0 1 0  255 255 255 255
42.3571 0 63.292 0 1 0  255 255 255 255
60.9368 0 28.0338 0 1 0  255 255 255 255
44.6649 0 86.1725 0 1 0  255 255 255 255
62.4396 0 44.1934 0 1 0  255 255 255 255
17.683 0 78.0945 0 1 0  255 255 255 255
69.2776 0 64.5771 0 1 0  255 255 255 255
66.1982 0 65.8086 0 1 0  255 255 255 255
42.1569 0 76.9311 0 1 0  255 255 255 255
72.8646 0 30.8792 0 1 0  255 255 255 255
67.7335 0 87.3926 0 1 0  255 255 255 255
27.971 0 87.9378 0 1 0  255 255 255 255
49.8943 0 69.6306 0 1 0  255 255 255 255
56.271 0 48.7823 0 1 0  255 255 255 255
81.1437 0 79.0938 0 1 0  255 255 255 255
24.2087 0 85.1157 0 1 0  255 255 255 255
55.8137 0 49.514 0 1 0  255 255 255 255
23.997 0 68.4998 0 1 0  255 255 255 255
51.4136 0 40.4633 0 1 0  255 255 255 255
76.3519 0 74.2157 0 1 0  255 255 255 255
41.9902 0 91.3736 0 1 0  255 255 255 255
54.6217 0 89.527 0 1 0  255 255 255 255
73.9695 0 42.2204 0 1 0  255 255 255 255
25.4576 0 62.4137 0 1 0  255 255 255 255
47.5047 0 66.8993 0 1 0  255 255 255 255
79.1067 0 88.7823 0 1 0  255 255 255 255
56.8366 0 54.0774 0 1 0  255 255 255 255
35.3911 0 85.9859 0 1 0  255 255 255 255
77.0294 0 59.9434 0 1 0  255 255 255 255
67.9086 0 47.1757 0 1 0  255 255 255 255
36.6803 0 62.4203 0 1 0  255 255 255 255
22.8156 0 84.4239 0 1 0  255 255 255 255
29.5399 0 91.1816 0 1 0  255 255 255 255
78.4754 0 74.6785 0 1 0  255 255 255 255
75.6068 0 74.8723 0 1 0  255 255 255 255
69.3344 0 79.0344 0 1 0  255 255 255 255
82.8718 0 92.4499 0 1 0  255 255 255 255
45.6176 0 61.1894 0 1 0  255 255 255 255
12.9648 0 83.4119 0 1 0  255 255 255 255
28.0985 0 82.7016 0 1 0  255 255 255 255
54.8085 0 48.649 0 1 0  255 255 255 255
70.4695 0 92.5459 0 1 0  255 255 255 255
33.8606 0 86.2501 0 1 0  255 255 255 255
44.9593 0 54.74 0 1 0  255 255 255 255
58.1891 0 30.5753 0 1 0  255 255 255 255
63.734 0 73.0063 0 1 0  255 255 255 255
23.48 0 75.7341 0 1 0  255 255 255 255
20.9254 0 71.7106 0 1 0  255 255 255 255
70.3508 0 65.7056 0 1 0  255 255 255 255
32.3083 0 79.9928 0 1 0  255 255 255 255
13.0552 0 81.3952 0 1 0  255 255 255 255
59.8539 0 18.7633 0 1 0  255 255 255 255
59.5372 0 86.384 0 1 0  255 255 255 255
60.1283 0 60.4048 0 1 0  255 255 255 255
15.8729 0 92.5556 0 1 0  255 255 255 255
31.8644 0 80.8394 0 1 0  255 255 255 255
74.3424 0 30.4448 0 1 0  255 255 255 255
80.8151 0 48.6862 0 1 0  255 255 255 255
69.1198 0 20.5656 0 1 0  255 255 255 255
55.8017 0 66.8829 0 1 0  255 255 255 255
58.6827 0 58.0058 0 1 0  255 255 255 255
13.7338 0 91.2201 0 1 0  255 255 255 255
75.3127 0 84.5444 0 1 0  255 255 255 255
62.745 0 40.9848 0 1 0  255 255 255 255
10.4532 0 72.2147 0 1 0  255 255 255 255
79.4619 0 39.7863 0 1 0  255 255 255 255
38.0104 0 76.941 0 1 0  255 255 255 255
30.7118 0 79.644 0 1 0  255 255 255 255
65.545 0 69.337 0 1 0  255 255 255 255
51.4505 0 51.9861 0 1 0  255 255 255 255
60.4686 0 74.6707 0 1 0  255 255 255 255
54.013 0 41.2772 0 1 0  255 255 255 255
65.3524 0 79.8938 0 1 0  255 255 255 255
48.5831 0 77.5192 0 1 0  255 255 255 255
55.9435 0 42.7948 0 1 0  255 255 255 255
75.1909 0 87.1198 0 1 0  255 255 255 255
57.0954 0 39.7476 0 1 0  255 255 255 255
28.7741 0 92.548 0 1 0  255 255 255 255
75.7652 0 58.936 0 1 0  255 255 255 255
56.3322 0 38.5387 0 1 0  255 255 255 255
52.6422 0 61.3196 0 1 0  255 255 255 255
75.4029 0 39.3353 0 1 0  255 255 255 255
37.0476 0 73.2965 0 1 0  255 255 255 255
51.9569 0 82.9706 0 1 0  255 255 255 255
55.3522 0 61.6419 0 1 0  255 255 255 255
72.0386 0 76.0686 0 1 0  255 255 255 255
41.8077 0 76.0486 0 1 0  255 255 255 255
25.7017 0 85.4958 0 1 0  255 255 255 255
79.2298 0 44.1316 0 1 0  255 255 255 255
34.4803 0 61.1478 0 1 0  255 255 255 255
44.9483 0 64.7698 0 1 0  255 255 255 255
62.4361 0 70.7787 0 1 0  255 255 255 255
70.2178 0 89.7565 0 1 0  255 255 255 255
51.9588 0 72.48 0 1 0  255 255 255 255
56.7366 0 61.1894 0 1 0  255 255 255 255
56.664 0 81.0569 0 1 0  255 255 255 255
77.0991 0 78.7172 0 1 0  255 255 255 255
60.1922 0 53.533 0 1 0  255 255 255 255
68.5322 0 23.1433 0 1 0  255 255 255 255
29.7801 0 78.2619 0 1 0  255 255 255 255
81.1464 0 72.2511 0 1 0  255 255 255 255
17.4047 0 79.6483 0 1 0  255 255 255 255
66.5045 0 72.3094 0 1 0  255 255 255 255
51.9147 0 80.0608 0 1 0  255 255 255 255
62.5796 0 74.2877 0 1 0  255 255 255 255
54.3012 0 36.4688 0 1 0  255 255 255 255
81.3937 0 45.9431 0 1 0  255 255 255 255
83.2957 0 60.9445 0 1 0  255 255 255 255
74.154 0 85.6872 0 1 0  255 255 255 255
66.3916 0 55.0942 0 1 0  255 255 255 255
