ply
format ascii 1.0
comment VCGLIB generated
element vertex 754
property float x
property float y
property float z
property float nx
property float ny
property float nz
property uchar red
property uchar green
property uchar blue
property uchar alpha
element face 0
property list uchar int vertex_indices
end_header
3.76008 -24.4369 -1.3283 0.942895 0 -0.33309  255 255 255 255
3.76012 24.4368 1.32817 0.942906 0 0.333058  255 255 255 255
0.978328 -38.073 3.86593 0.24533 0 0.96944  255 255 255 255
0.013477 -37.8817 3.98778 0.00338 0 0.999994  255 255 255 255
-0.851994 -37.7225 3.89572 -0.21365 0 0.97691  255 255 255 255
-1.68294 -37.6914 3.61528 -0.422021 0 0.906586  255 255 255 255
-2.4637 -37.6952 3.13572 -0.617809 0 0.786328  255 255 255 255
-3.12943 -37.7136 2.47169 -0.78475 0 0.619813  255 255 255 255
-3.6269 -37.7338 1.65776 -0.909499 0 0.415707  255 255 255 255
-3.91857 -37.7484 0.73984 -0.982639 0 0.185526  255 255 255 255
-3.98128 -37.7598 -0.22788 -0.998366 0 -0.057144  255 255 255 255
-3.80759 -37.7713 -1.18523 -0.954811 0 -0.297215  255 255 255 255
-3.4075 -37.7857 -2.07159 -0.854481 0 -0.519483  255 255 255 255
-2.80799 -37.805 -2.83156 -0.704146 0 -0.710055  255 255 255 255
-2.05002 -37.8307 -3.42052 -0.514073 0 -0.857747  255 255 255 255
-1.18744 -37.8607 -3.80691 -0.297767 0 -0.954638  255 255 255 255
-0.343684 -37.8606 -3.97296 -0.086184 0 -0.996279  255 255 255 255
0.548492 -37.9479 -3.9499 0.137543 0 -0.990496  255 255 255 255
0.97833 38.073 -3.86593 0.245331 0 -0.969439  255 255 255 255
0.01348 37.8817 -3.98778 0.00338 0 -0.999994  255 255 255 255
-0.85199 37.7225 -3.89572 -0.213649 0 -0.97691  255 255 255 255
-1.68293 37.6914 -3.61528 -0.42202 0 -0.906586  255 255 255 255
-2.4637 37.6952 -3.13572 -0.617808 0 -0.786329  255 255 255 255
-3.12942 37.7136 -2.47169 -0.784749 0 -0.619814  255 255 255 255
-3.6269 37.7338 -1.65776 -0.909498 0 -0.415708  255 255 255 255
-3.91857 37.7484 -0.739849 -0.982639 0 -0.185528  255 255 255 255
-3.98128 37.7598 0.227869 -0.998366 0 0.057142  255 255 255 255
-3.8076 37.7714 1.18522 -0.954812 0 0.297212  255 255 255 255
-3.40751 37.7857 2.07158 -0.854483 0 0.519479  255 255 255 255
-2.80801 37.805 2.83155 -0.704149 0 0.710052  255 255 255 255
-2.05003 37.8307 3.42051 -0.514077 0 0.857744  255 255 255 255
-1.18745 37.8607 3.8069 -0.297772 0 0.954637  255 255 255 255
-0.343702 37.8606 3.97296 -0.086188 0 0.996279  255 255 255 255
0.548477 37.9479 3.9499 0.137539 0 0.990496  255 255 255 255
1.39112 -38.2514 -3.73729 0.348844 0 -0.937181  255 255 255 255
1.39111 38.2514 3.73729 0.348841 0 0.937182  255 255 255 255
2.02872 -38.1415 3.4332 0.508731 0 0.860926  255 255 255 255
2.02872 38.1415 -3.4332 0.508731 0 -0.860925  255 255 255 255
2.59513 -38.2657 -3.02785 0.650767 0 -0.759277  255 255 255 255
2.59512 38.2657 3.02785 0.650766 0 0.759278  255 255 255 255
2.76111 -38.0346 2.87729 0.69239 0 0.721523  255 255 255 255
2.76112 38.0346 -2.87729 0.692391 0 -0.721523  255 255 255 255
2.62378 -35.7885 -3.00305 0.657951 0 -0.75306  255 255 255 255
2.62376 35.7885 3.00307 0.657947 0 0.753064  255 255 255 255
3.86688 -19.5707 0.974572 0.969677 0 0.244388  255 255 255 255
3.86601 19.5786 -0.97802 0.969459 0 -0.245253  255 255 255 255
3.27305 -35.3878 2.2781 0.820765 0 0.571266  255 255 255 255
3.27305 35.3878 -2.27808 0.820767 0 -0.571263  255 255 255 255
2.99481 -34.8646 -2.63318 0.750993 0 -0.66031  255 255 255 255
2.9948 34.8646 2.6332 0.750989 0 0.660314  255 255 255 255
0.631374 -33.2465 3.9375 0.158326 0 0.987387  255 255 255 255
-0.197646 -33.2271 3.9829 -0.049563 0 0.998771  255 255 255 255
-1.25692 -33.188 3.78453 -0.315192 0 0.949028  255 255 255 255
-1.99973 -33.1506 3.45016 -0.501462 0 0.86518  255 255 255 255
-2.86112 -33.0942 2.77787 -0.717468 0 0.696592  255 255 255 255
-3.36716 -33.0322 2.13653 -0.844366 0 0.535767  255 255 255 255
-3.80402 -32.9929 1.19665 -0.953915 0 0.300077  255 255 255 255
-3.98157 -32.9749 0.222867 -0.998437 0 0.055887  255 255 255 255
-3.91418 -32.967 -0.762703 -0.98154 0 -0.191259  255 255 255 255
-3.60666 -32.9661 -1.70134 -0.904424 0 -0.426635  255 255 255 255
-3.07833 -32.9714 -2.53504 -0.771938 0 -0.635698  255 255 255 255
-2.36068 -32.9835 -3.21399 -0.591976 0 -0.805956  255 255 255 255
-1.45721 -33.0061 -3.71202 -0.365417 0 -0.930844  255 255 255 255
-0.680635 -33.0322 -3.92929 -0.170679 0 -0.985327  255 255 255 255
0.414951 -33.0812 -3.96615 0.104055 0 -0.994572  255 255 255 255
1.23532 -32.9914 -3.79164 0.309774 0 -0.95081  255 255 255 255
0.631491 33.2465 -3.93748 0.158356 0 -0.987382  255 255 255 255
-0.197517 33.2271 -3.9829 -0.04953 0 -0.998773  255 255 255 255
-1.2568 33.1879 -3.78457 -0.315161 0 -0.949038  255 255 255 255
-1.99962 33.1505 -3.45023 -0.501434 0 -0.865196  255 255 255 255
-2.86103 33.0941 -2.77796 -0.717446 0 -0.696614  255 255 255 255
-3.3671 33.0321 -2.13664 -0.844349 0 -0.535793  255 255 255 255
-3.80398 32.9928 -1.19677 -0.953905 0 -0.300108  255 255 255 255
-3.98156 32.9748 -0.223006 -0.998435 0 -0.055922  255 255 255 255
-3.91421 32.967 0.762546 -0.981547 0 0.19122  255 255 255 255
-3.60674 32.9661 1.70117 -0.904443 0 0.426594  255 255 255 255
-3.07846 32.9715 2.53488 -0.771969 0 0.63566  255 255 255 255
-2.36085 32.9837 3.21387 -0.592018 0 0.805925  255 255 255 255
-1.4574 33.0063 3.71195 -0.365465 0 0.930825  255 255 255 255
-0.680822 33.0323 3.92925 -0.170726 0 0.985319  255 255 255 255
0.4148 33.0813 3.96617 0.104017 0 0.994575  255 255 255 255
1.2352 32.9916 3.79168 0.309745 0 0.95082  255 255 255 255
1.44976 -33.3103 3.71494 0.363548 0 0.931575  255 255 255 255
1.44986 33.3103 -3.7149 0.363573 0 -0.931566  255 255 255 255
2.20584 -33.4372 3.32217 0.553148 0 0.833083  255 255 255 255
2.20592 33.4373 -3.32212 0.553166 0 -0.833071  255 255 255 255
2.76431 14.5629 2.87422 0.693193 0 0.720752  255 255 255 255
2.76016 -14.5411 -2.87821 0.69215 0 -0.721753  255 255 255 255
1.13921 -14.6651 3.82162 0.285673 0 0.958327  255 255 255 255
1.45617 14.9229 3.71243 0.365157 0 0.930946  255 255 255 255
0.062053 -14.7521 3.98732 0.015561 0 0.999879  255 255 255 255
0.295751 14.8591 3.97682 0.074164 0 0.997246  255 255 255 255
-0.939274 -14.8398 3.87561 -0.235537 0 0.971865  255 255 255 255
-0.748911 14.9255 3.91685 -0.187801 0 0.982207  255 255 255 255
-1.86745 -14.9089 3.52352 -0.46829 0 0.883575  255 255 255 255
-1.70344 14.9942 3.60567 -0.427163 0 0.904175  255 255 255 255
-2.67501 -14.9675 2.95751 -0.670799 0 0.741639  255 255 255 255
-2.54674 15.042 3.06866 -0.638632 0 0.769513  255 255 255 255
-3.31159 -14.9688 2.22169 -0.830432 0 0.557121  255 255 255 255
-3.2339 15.0791 2.33333 -0.810949 0 0.585117  255 255 255 255
-3.74885 -15.016 1.35967 -0.940079 0 0.340957  255 255 255 255
-3.7089 15.0314 1.46512 -0.930063 0 0.367401  255 255 255 255
-3.96791 -15.0323 0.397831 -0.995011 0 0.099762  255 255 255 255
-3.95223 14.9921 0.531451 -0.99108 0 0.133269  255 255 255 255
-3.94415 -14.9956 -0.5884 -0.989055 0 -0.14755  255 255 255 255
-3.96434 14.9961 -0.431951 -0.994116 0 -0.108318  255 255 255 255
-3.68384 -14.9733 -1.52705 -0.923777 0 -0.38293  255 255 255 255
-3.74378 15.0058 -1.37355 -0.938809 0 -0.344439  255 255 255 255
-3.20202 -14.953 -2.3769 -0.802953 0 -0.596042  255 255 255 255
-3.30283 15.0148 -2.23469 -0.828235 0 -0.560381  255 255 255 255
-2.51885 -14.9397 -3.09159 -0.63164 0 -0.775262  255 255 255 255
-2.65573 15.0261 -2.97484 -0.665963 0 -0.745985  255 255 255 255
-1.67001 -14.9509 -3.62127 -0.418781 0 -0.908087  255 255 255 255
-1.82446 14.9602 -3.54597 -0.457511 0 -0.889204  255 255 255 255
-0.724053 -14.9734 -3.92152 -0.181567 0 -0.983379  255 255 255 255
-0.835276 14.8984 -3.89934 -0.209458 0 -0.977818  255 255 255 255
0.230405 -14.89 -3.98114 0.057778 0 -0.998329  255 255 255 255
0.11904 14.8847 -3.98602 0.029851 0 -0.999554  255 255 255 255
1.43723 -14.9004 -3.7198 0.360407 0 -0.932795  255 255 255 255
1.08617 14.7758 -3.83703 0.272374 0 -0.962191  255 255 255 255
1.8595 -14.4342 3.52772 0.466297 0 0.884628  255 255 255 255
1.79143 14.4626 -3.56277 0.449227 0 -0.893418  255 255 255 255
2.13544 14.7386 3.36786 0.535493 0 0.84454  255 255 255 255
2.12689 -14.7112 -3.37326 0.533349 0 -0.845895  255 255 255 255
3.84963 8.8676 1.0406 0.965353 0 0.260947  255 255 255 255
3.84916 -8.86325 -1.04237 0.965233 0 -0.26139  255 255 255 255
3.50863 -27.0869 1.89528 0.87984 0 0.47527  255 255 255 255
3.50885 27.0885 -1.89487 0.879896 0 -0.475166  255 255 255 255
2.97789 -27.2813 2.6523 0.74675 0 0.665104  255 255 255 255
2.9784 27.2833 -2.65173 0.746878 0 -0.664961  255 255 255 255
1.38729 -27.1276 3.73871 0.347885 0 0.937537  255 255 255 255
0.169235 -27.0772 3.98421 0.042438 0 0.999099  255 255 255 255
-0.861658 -27.0199 3.8936 -0.216074 0 0.976377  255 255 255 255
-1.79789 -26.9721 3.55951 -0.450847 0 0.892601  255 255 255 255
-2.62565 -26.9355 3.00142 -0.658421 0 0.752649  255 255 255 255
-3.29247 -26.9128 2.24994 -0.825635 0 0.564205  255 255 255 255
-3.75064 -26.8997 1.35472 -0.940528 0 0.339717  255 255 255 255
-3.97016 -26.8921 0.374699 -0.995576 0 0.093961  255 255 255 255
-3.93824 -26.8868 -0.626768 -0.987571 0 -0.157171  255 255 255 255
-3.65893 -26.8818 -1.58581 -0.917531 0 -0.397665  255 255 255 255
-3.15222 -26.8749 -2.44255 -0.790466 0 -0.612505  255 255 255 255
-2.45183 -26.8642 -3.14501 -0.614833 0 -0.788658  255 255 255 255
-1.60267 -26.8489 -3.65157 -0.401894 0 -0.915686  255 255 255 255
-0.656793 -26.8268 -3.93334 -0.164701 0 -0.986344  255 255 255 255
0.333241 -26.7962 -3.97385 0.083565 0 -0.996502  255 255 255 255
1.31145 -26.7602 -3.76599 0.328866 0 -0.944377  255 255 255 255
2.37627 -26.8159 -3.20248 0.595885 0 -0.80307  255 255 255 255
1.38872 27.1293 -3.73818 0.348241 0 -0.937405  255 255 255 255
0.170959 27.0775 -3.98413 0.042871 0 -0.999081  255 255 255 255
-0.860178 27.0181 -3.89392 -0.215702 0 -0.976459  255 255 255 255
-1.79703 26.9678 -3.55995 -0.450633 0 -0.892709  255 255 255 255
-2.62544 26.9292 -3.0016 -0.658369 0 -0.752695  255 255 255 255
-3.29247 26.906 -2.24992 -0.825637 0 -0.564202  255 255 255 255
-3.75048 26.8936 -1.35515 -0.940489 0 -0.339825  255 255 255 255
-3.97002 26.8863 -0.376153 -0.995541 0 -0.094326  255 255 255 255
-3.9386 26.8807 0.624506 -0.987661 0 0.156604  255 255 255 255
-3.6599 26.8755 1.58357 -0.917773 0 0.397105  255 255 255 255
-3.15349 26.8703 2.44091 -0.790784 0 0.612095  255 255 255 255
-2.45329 26.8633 3.14387 -0.615198 0 0.788373  255 255 255 255
-1.60469 26.8521 3.65069 -0.402399 0 0.915464  255 255 255 255
-0.659683 26.8325 3.93286 -0.165425 0 0.986222  255 255 255 255
0.329894 26.8018 3.97413 0.082726 0 0.996572  255 255 255 255
1.30868 26.764 3.76695 0.328171 0 0.944618  255 255 255 255
2.375 26.8175 3.20343 0.595565 0 0.803307  255 255 255 255
1.96562 -27.3297 3.46971 0.492909 0 0.870081  255 255 255 255
1.9667 27.3316 -3.4691 0.49318 0 -0.869927  255 255 255 255
2.95465 -27.125 -2.67817 0.740922 0 -0.671591  255 255 255 255
2.95417 27.1257 2.6787 0.740802 0 0.671724  255 255 255 255
3.4152 -33.2973 -2.05887 0.856413 0 -0.516291  255 255 255 255
3.41519 33.2973 2.05888 0.856411 0 0.516295  255 255 255 255
1.32776 -26.1189 3.76027 0.332957 0 0.942942  255 255 255 255
0.19452 -26.212 3.98305 0.048779 0 0.99881  255 255 255 255
-0.827325 -26.2227 3.90104 -0.207464 0 0.978243  255 255 255 255
-1.76005 -26.1882 3.57838 -0.441359 0 0.897331  255 255 255 255
-2.60011 -26.1567 3.02357 -0.652017 0 0.758204  255 255 255 255
-3.27841 -26.14 2.27037 -0.82211 0 0.569328  255 255 255 255
-3.74402 -26.1316 1.37291 -0.938868 0 0.344278  255 255 255 255
-3.96857 -26.127 0.391132 -0.995178 0 0.098082  255 255 255 255
-3.94064 -26.124 -0.611492 -0.988173 0 -0.153341  255 255 255 255
-3.66524 -26.1204 -1.57116 -0.919114 0 -0.393992  255 255 255 255
-3.16301 -26.1132 -2.42857 -0.79317 0 -0.609  255 255 255 255
-2.4673 -26.0995 -3.13288 -0.618712 0 -0.785618  255 255 255 255
-1.62237 -26.0783 -3.64286 -0.406834 0 -0.913502  255 255 255 255
-0.681745 -26.0454 -3.92909 -0.170958 0 -0.985278  255 255 255 255
0.309486 -25.9909 -3.97577 0.077608 0 -0.996984  255 255 255 255
1.30269 -25.9345 -3.76903 0.326668 0 -0.945139  255 255 255 255
1.32966 26.1219 -3.75959 0.333432 0 -0.942774  255 255 255 255
0.19681 26.2127 -3.98294 0.049353 0 -0.998781  255 255 255 255
-0.82537 26.2201 -3.90145 -0.206974 0 -0.978346  255 255 255 255
-1.75903 26.1816 -3.57888 -0.441103 0 -0.897456  255 255 255 255
-2.60017 26.1467 -3.02352 -0.652031 0 -0.758192  255 255 255 255
-3.2788 26.1294 -2.2698 -0.822208 0 -0.569187  255 255 255 255
-3.74398 26.1226 -1.37301 -0.938859 0 -0.344302  255 255 255 255
-3.96839 26.1188 -0.393011 -0.995132 0 -0.098553  255 255 255 255
-3.94114 26.1146 0.608218 -0.9883 0 0.15252  255 255 255 255
-3.66658 26.1099 1.56804 -0.919449 0 0.39321  255 255 255 255
-3.16454 26.1051 2.42657 -0.793555 0 0.608499  255 255 255 255
-2.46889 26.0978 3.13163 -0.61911 0 0.785304  255 255 255 255
-1.62489 26.0837 3.64174 -0.407465 0 0.913221  255 255 255 255
-0.686023 26.0549 3.92835 -0.17203 0 0.985092  255 255 255 255
0.30402 26.0001 3.97619 0.076238 0 0.99709  255 255 255 255
1.29802 25.9402 3.77063 0.325498 0 0.945543  255 255 255 255
2.28462 -25.7871 -3.26849 0.572903 0 -0.819623  255 255 255 255
2.28206 25.7894 3.27028 0.572261 0 0.820071  255 255 255 255
1.91084 -26.5122 3.50018 0.479171 0 0.877721  255 255 255 255
1.91219 26.5151 -3.49944 0.479509 0 -0.877537  255 255 255 255
2.81676 -26.2092 2.82284 0.706344 0 0.707869  255 255 255 255
2.81748 26.2126 -2.82212 0.706524 0 -0.707689  255 255 255 255
3.52298 -22.5122 1.86846 0.88344 0 0.468544  255 255 255 255
3.52254 22.5211 -1.8693 0.883328 0 -0.468755  255 255 255 255
3.84172 -3.75985 1.06945 0.963369 0 0.26818  255 255 255 255
3.83729 3.75464 -1.08526 0.962257 0 -0.272144  255 255 255 255
3.17662 -20.3224 2.41073 0.796585 0 0.604526  255 255 255 255
3.17307 20.3435 -2.41541 0.795694 0 -0.605699  255 255 255 255
2.75365 9.69409 2.88443 0.690519 0 0.723314  255 255 255 255
2.76268 -9.68154 -2.87579 0.692782 0 -0.721147  255 255 255 255
2.66329 -20.4555 -2.96807 0.66786 0 -0.744287  255 255 255 255
2.6639 20.4511 2.96753 0.668011 0 0.744151  255 255 255 255
3.45052 -22.5655 -1.99911 0.865269 0 -0.501307  255 255 255 255
3.45043 22.5646 1.99928 0.865246 0 0.501348  255 255 255 255
0.537495 -9.09295 3.95141 0.134785 0 0.990875  255 255 255 255
1.05581 8.79454 3.84549 0.264761 0 0.964314  255 255 255 255
-0.43834 -9.14206 3.96364 -0.10992 0 0.99394  255 255 255 255
0.306058 9.20264 3.97604 0.076749 0 0.99705  255 255 255 255
-1.37418 -9.14327 3.74355 -0.344595 0 0.938751  255 255 255 255
-0.541804 9.10118 3.95082 -0.135865 0 0.990727  255 255 255 255
-2.22433 -9.11331 3.30982 -0.557785 0 0.829986  255 255 255 255
-1.41262 9.11158 3.72922 -0.354236 0 0.935156  255 255 255 255
-2.94665 -9.09513 2.68697 -0.738915 0 0.673798  255 255 255 255
-2.30309 9.26323 3.25551 -0.577533 0 0.816367  255 255 255 255
-3.53684 -9.21344 1.8421 -0.886914 0 0.461934  255 255 255 255
-3.06462 9.10049 2.5516 -0.768499 0 0.639851  255 255 255 255
-3.88941 -9.05019 0.880376 -0.975327 0 0.220767  255 255 255 255
-3.57288 9.06431 1.77118 -0.895953 0 0.444149  255 255 255 255
-3.98733 -9.01519 -0.061191 -0.999882 0 -0.015344  255 255 255 255
-3.88286 9.07631 0.908826 -0.973684 0 0.227902  255 255 255 255
-3.86125 -9.00508 -0.996643 -0.968266 0 -0.249923  255 255 255 255
-3.98775 9.08413 -0.019274 -0.999988 0 -0.004833  255 255 255 255
-3.51834 -9.00374 -1.87718 -0.882277 0 -0.470731  255 255 255 255
-3.87028 9.09029 -0.961 -0.970529 0 -0.240985  255 255 255 255
-2.97967 -9.00662 -2.6503 -0.747197 0 -0.664603  255 255 255 255
-3.52862 9.09968 -1.85779 -0.884854 0 -0.465869  255 255 255 255
-2.28514 -9.00491 -3.26813 -0.573033 0 -0.819532  255 255 255 255
-2.97514 9.10924 -2.65539 -0.74606 0 -0.665879  255 255 255 255
-1.4922 -9.00787 -3.69809 -0.374192 0 -0.927351  255 255 255 255
-2.24392 9.08417 -3.29657 -0.562696 0 -0.826664  255 255 255 255
-0.63661 -9.08004 -3.93666 -0.159639 0 -0.987175  255 255 255 255
-1.39945 9.05421 -3.73418 -0.350932 0 -0.936401  255 255 255 255
0.275719 -9.27926 -3.97826 0.069141 0 -0.997607  255 255 255 255
-0.494592 9.01884 -3.95701 -0.124026 0 -0.992279  255 255 255 255
1.07084 -8.80576 -3.84133 0.26853 0 -0.963271  255 255 255 255
0.450346 8.98642 -3.96229 0.112931 0 -0.993603  255 255 255 255
2.20471 9.09065 3.32292 0.552864 0 0.833271  255 255 255 255
2.21682 -9.0818 -3.31485 0.555902 0 -0.831248  255 255 255 255
2.36936 11.6503 3.2076 0.594152 0 0.804353  255 255 255 255
2.38688 -11.62 -3.19458 0.598546 0 -0.801089  255 255 255 255
3.66096 12.3337 1.58111 0.91804 0 0.396487  255 255 255 255
3.66153 -12.3236 -1.5798 0.918182 0 -0.396158  255 255 255 255
2.93777 -15.4002 2.69667 0.73669 0 0.676231  255 255 255 255
2.91437 15.4192 -2.72195 0.730821 0 -0.682569  255 255 255 255
2.624 -15.5854 -3.00286 0.658008 0 -0.753011  255 255 255 255
2.63143 15.6025 2.99635 0.65987 0 0.75138  255 255 255 255
3.82327 13.7555 1.13365 0.958742 0 0.284279  255 255 255 255
3.82294 -13.7486 -1.13475 0.958659 0 -0.284556  255 255 255 255
3.04784 -11.3132 2.57162 0.764291 0 0.644871  255 255 255 255
3.02678 11.3442 -2.59638 0.759009 0 -0.65108  255 255 255 255
3.7952 -24.2643 1.22433 0.951703 0 0.307019  255 255 255 255
3.79521 24.2676 -1.22431 0.951705 0 -0.307014  255 255 255 255
3.20983 11.2653 2.36633 0.804912 0 0.593394  255 255 255 255
3.21463 -11.2501 -2.35981 0.806116 0 -0.591757  255 255 255 255
1.69385 -42.7158 3.61018 0.424758 0 0.905307  255 255 255 255
1.69385 42.7158 -3.61018 0.424758 0 -0.905307  255 255 255 255
3.70956 -2.10537 1.46347 0.930227 0 0.366986  255 255 255 255
3.70261 2.10051 -1.48095 0.928484 0 -0.371371  255 255 255 255
3.60545 9.50172 1.7039 0.904121 0 0.427277  255 255 255 255
3.60562 -9.49427 -1.70353 0.904164 0 -0.427187  255 255 255 255
3.62588 -35.9627 1.65999 0.909242 0 0.416267  255 255 255 255
3.62588 35.9627 -1.65998 0.909243 0 -0.416266  255 255 255 255
3.25838 -35.6546 -2.29903 0.817087 0 -0.576515  255 255 255 255
3.25837 35.6546 2.29904 0.817085 0 0.576518  255 255 255 255
2.97061 -31.4615 2.66045 0.744925 0 0.667149  255 255 255 255
2.97074 31.4617 -2.66031 0.744956 0 -0.667113  255 255 255 255
2.06134 -31.46 -3.41371 0.516912 0 -0.856039  255 255 255 255
2.0612 31.4602 3.4138 0.516876 0 0.85606  255 255 255 255
3.03132 -31.6564 -2.59107 0.760148 0 -0.64975  255 255 255 255
3.03128 31.6565 2.59111 0.760139 0 0.649761  255 255 255 255
3.51365 -31.5128 -1.88596 0.881099 0 -0.472932  255 255 255 255
3.51364 31.5129 1.88597 0.881097 0 0.472936  255 255 255 255
3.84372 -14.8591 -1.06224 0.96387 0 -0.266373  255 255 255 255
3.84433 14.865 1.06004 0.964023 0 0.26582  255 255 255 255
3.61694 -14.4186 1.67937 0.907002 0 0.421127  255 255 255 255
3.60956 14.4282 -1.69517 0.905152 0 -0.425089  255 255 255 255
3.59445 -39.8848 -1.72699 0.901361 0 -0.433069  255 255 255 255
3.59445 39.8848 1.72699 0.901361 0 0.433069  255 255 255 255
2.5005 6.28782 3.10645 0.627039 0 0.778988  255 255 255 255
2.46404 -6.26952 -3.13545 0.617896 0 -0.78626  255 255 255 255
3.09407 13.6012 2.5158 0.775885 0 0.630875  255 255 255 255
3.09391 -13.581 -2.516 0.775845 0 -0.630924  255 255 255 255
2.66077 -29.1507 -2.97033 0.667227 0 -0.744854  255 255 255 255
2.66053 29.1511 2.97055 0.667167 0 0.744908  255 255 255 255
0.741159 -29.6809 3.91832 0.185857 0 0.982577  255 255 255 255
-0.146285 -29.6167 3.98512 -0.036683 0 0.999327  255 255 255 255
-1.04747 -29.523 3.84777 -0.262668 0 0.964886  255 255 255 255
-1.93011 -29.4603 3.48959 -0.484004 0 0.875066  255 255 255 255
-2.71617 -29.4185 2.91976 -0.681119 0 0.732173  255 255 255 255
-3.34721 -29.3928 2.16765 -0.839363 0 0.543572  255 255 255 255
-3.77778 -29.3787 1.27709 -0.947334 0 0.320248  255 255 255 255
-3.97624 -29.3704 0.303358 -0.997102 0 0.076072  255 255 255 255
-3.92749 -29.3637 -0.690914 -0.984877 0 -0.173257  255 255 255 255
-3.63421 -29.3574 -1.64166 -0.911333 0 -0.41167  255 255 255 255
-3.11612 -29.3503 -2.48845 -0.781413 0 -0.624014  255 255 255 255
-2.40812 -29.342 -3.1786 -0.603871 0 -0.797082  255 255 255 255
-1.55704 -29.336 -3.67126 -0.390451 0 -0.920624  255 255 255 255
-0.616066 -29.3406 -3.93992 -0.154488 0 -0.987995  255 255 255 255
0.361787 -29.3692 -3.97135 0.090724 0 -0.995876  255 255 255 255
1.33614 -29.4508 -3.7573 0.335056 0 -0.942198  255 255 255 255
0.74183 29.681 -3.91819 0.186025 0 -0.982545  255 255 255 255
-0.14558 29.6165 -3.98514 -0.036506 0 -0.999333  255 255 255 255
-1.04683 29.5223 -3.84795 -0.262507 0 -0.96493  255 255 255 255
-1.92962 29.4591 -3.48986 -0.483881 0 -0.875134  255 255 255 255
-2.71584 29.4169 -2.92006 -0.681037 0 -0.732249  255 255 255 255
-3.34699 29.3911 -2.168 -0.839307 0 -0.543657  255 255 255 255
-3.77763 29.3771 -1.27754 -0.947295 0 -0.320361  255 255 255 255
-3.9762 29.3689 -0.303983 -0.99709 0 -0.076228  255 255 255 255
-3.92763 29.3624 0.690144 -0.984911 0 0.173064  255 255 255 255
-3.63457 29.3563 1.64086 -0.911423 0 0.41147  255 255 255 255
-3.11668 29.3497 2.48774 -0.781554 0 0.623838  255 255 255 255
-2.40884 29.3421 3.17806 -0.604051 0 0.796945  255 255 255 255
-1.55788 29.3367 3.67091 -0.390661 0 0.920534  255 255 255 255
-0.616967 29.3418 3.93978 -0.154714 0 0.987959  255 255 255 255
0.360951 29.3704 3.97143 0.090514 0 0.995895  255 255 255 255
1.33554 29.4518 3.75751 0.334907 0 0.942251  255 255 255 255
1.62227 -29.7069 3.64291 0.406807 0 0.913514  255 255 255 255
1.62282 29.7073 -3.64266 0.406946 0 -0.913452  255 255 255 255
1.8316 -28.8565 -3.54228 0.459302 0 -0.88828  255 255 255 255
1.83093 28.8575 3.54263 0.459133 0 0.888368  255 255 255 255
2.39591 -29.823 3.18781 0.600811 0 0.799391  255 255 255 255
2.3963 29.8235 -3.18753 0.600906 0 -0.799319  255 255 255 255
3.82981 -34.4181 1.11136 0.960381 0 0.278691  255 255 255 255
3.82981 34.4181 -1.11135 0.960382 0 -0.278688  255 255 255 255
3.704 -43.2865 -1.47747 0.928833 0 -0.370498  255 255 255 255
3.704 43.2865 1.47747 0.928833 0 0.370498  255 255 255 255
3.08645 -9.77446 2.52515 0.773973 0 0.633219  255 255 255 255
3.05715 9.79041 -2.56054 0.766625 0 -0.642095  255 255 255 255
3.87199 -38.7389 0.954077 0.970958 0 0.239249  255 255 255 255
3.87199 38.7389 -0.954077 0.970958 0 -0.239249  255 255 255 255
3.76554 -34.537 -1.31273 0.944265 0 -0.329186  255 255 255 255
3.76554 34.537 1.31273 0.944265 0 0.329187  255 255 255 255
3.79152 -18.7664 -1.23567 0.950781 0 -0.309864  255 255 255 255
3.79274 18.7687 1.23195 0.951085 0 0.30893  255 255 255 255
3.92515 -25.0506 -0.704063 0.984291 0 -0.176554  255 255 255 255
3.92518 25.0506 0.703942 0.984296 0 0.176524  255 255 255 255
3.91125 -33.7779 -0.77758 0.980805 0 -0.19499  255 255 255 255
3.91125 33.7779 0.777582 0.980805 0 0.19499  255 255 255 255
3.45375 -21.2354 1.99353 0.866079 0 0.499907  255 255 255 255
3.45233 21.2488 -1.99598 0.865724 0 -0.500522  255 255 255 255
3.31418 3.47548 2.21783 0.831079 0 0.556155  255 255 255 255
3.301 -3.4504 -2.2374 0.827774 0 -0.561062  255 255 255 255
3.75795 -37.0253 -1.33429 0.942363 0 -0.334593  255 255 255 255
3.75795 37.0253 1.3343 0.942362 0 0.334594  255 255 255 255
3.60544 17.9654 1.70393 0.904116 0 0.427286  255 255 255 255
3.60285 -17.9609 -1.70938 0.903469 0 -0.428653  255 255 255 255
2.80686 -21.3106 2.83268 0.703863 0 0.710336  255 255 255 255
2.80513 21.3313 -2.83439 0.703429 0 -0.710766  255 255 255 255
1.69862 11.679 3.60794 0.425954 0 0.904745  255 255 255 255
1.73305 -11.6328 -3.59153 0.434588 0 -0.900629  255 255 255 255
2.89728 11.7278 2.74013 0.726535 0 0.687129  255 255 255 255
2.90539 -11.7062 -2.73153 0.728569 0 -0.684973  255 255 255 255
3.9198 -28.0192 0.733285 0.982948 0 0.183882  255 255 255 255
3.91983 28.0196 -0.733155 0.982954 0 -0.183849  255 255 255 255
0.423529 8.0422 3.96525 0.106206 0 0.994344  255 255 255 255
0.41896 -7.92544 3.96573 0.10506 0 0.994466  255 255 255 255
-0.522693 8.03354 3.9534 -0.131073 0 0.991373  255 255 255 255
-0.451205 -7.94607 3.96219 -0.113146 0 0.993578  255 255 255 255
-1.43526 8.02879 3.72056 -0.359913 0 0.932986  255 255 255 255
-1.37431 -7.97604 3.7435 -0.344629 0 0.938739  255 255 255 255
-2.22262 -7.97193 3.31097 -0.557355 0 0.830274  255 255 255 255
-3.56551 8.03828 1.78597 -0.894104 0 0.447859  255 255 255 255
-3.88006 8.03584 0.920712 -0.972982 0 0.230882  255 255 255 255
-3.88257 -7.93636 0.910074 -0.973611 0 0.228215  255 255 255 255
-3.9878 8.01882 -0.005378 -0.999999 0 -0.001349  255 255 255 255
-3.98754 -7.9166 -0.045659 -0.999934 0 -0.01145  255 255 255 255
-3.87289 8.00605 -0.950388 -0.971186 0 -0.238324  255 255 255 255
-3.864 -7.90263 -0.98594 -0.968955 0 -0.247239  255 255 255 255
-3.53205 8.00062 -1.85125 -0.885715 0 -0.464229  255 255 255 255
-3.52274 -7.89426 -1.86891 -0.88338 0 -0.468658  255 255 255 255
-2.98316 7.99424 -2.64638 -0.748072 0 -0.663618  255 255 255 255
-2.98356 -7.89333 -2.64592 -0.748173 0 -0.663504  255 255 255 255
-2.26326 7.9747 -3.28332 -0.567546 0 -0.823342  255 255 255 255
-2.28114 -7.90267 -3.27092 -0.57203 0 -0.820233  255 255 255 255
-1.42341 7.9414 -3.72511 -0.356942 0 -0.934127  255 255 255 255
-1.46101 -7.93145 -3.71053 -0.366369 0 -0.930469  255 255 255 255
-0.516684 7.89264 -3.95419 -0.129566 0 -0.991571  255 255 255 255
-0.56204 -7.98942 -3.94799 -0.14094 0 -0.990018  255 255 255 255
0.337762 7.87125 -3.97347 0.084699 0 -0.996407  255 255 255 255
0.403149 -8.04522 -3.96737 0.101096 0 -0.994877  255 255 255 255
1.72723 8.42461 3.59433 0.433128 0 0.901332  255 255 255 255
1.73149 -8.42349 -3.59228 0.434196 0 -0.900819  255 255 255 255
2.45004 -7.91384 3.14641 0.614383 0 0.789008  255 255 255 255
2.3966 7.89933 -3.1873 0.600982 0 -0.799262  255 255 255 255
2.97826 -7.84958 2.6519 0.746842 0 0.665002  255 255 255 255
2.94346 7.84259 -2.69046 0.738116 0 -0.674673  255 255 255 255
3.80209 -39.7128 -1.20278 0.95343 0 -0.301615  255 255 255 255
3.80209 39.7128 1.20278 0.95343 0 0.301615  255 255 255 255
3.92562 -23.8992 -0.701497 0.984406 0 -0.175911  255 255 255 255
3.92565 23.8991 0.701292 0.984415 0 0.175859  255 255 255 255
3.91776 1.6073 -0.744133 0.982436 0 -0.186602  255 255 255 255
3.91935 -1.60891 0.735673 0.982836 0 0.184481  255 255 255 255
3.94744 -1.67658 -0.565907 0.98988 0 -0.14191  255 255 255 255
3.94812 1.6802 0.561134 0.99005 0 0.140713  255 255 255 255
3.73449 -15.2646 1.39861 0.93648 0 0.350722  255 255 255 255
3.72954 15.2739 -1.41177 0.935237 0 -0.354023  255 255 255 255
3.79922 -42.5121 1.21182 0.95271 0 0.303881  255 255 255 255
3.74701 -42.1056 -1.36472 0.939619 0 -0.342223  255 255 255 255
3.79922 42.5121 -1.21182 0.95271 0 -0.303881  255 255 255 255
3.74701 42.1056 1.36472 0.939619 0 0.342223  255 255 255 255
3.90848 -29.8799 -0.791421 0.980109 0 -0.198461  255 255 255 255
3.90848 29.8799 0.791413 0.980109 0 0.198459  255 255 255 255
3.95269 3.64338 -0.528025 0.991195 0 -0.13241  255 255 255 255
3.95371 -3.64574 0.520353 0.99145 0 0.130486  255 255 255 255
3.88327 13.3425 -0.907072 0.973787 0 -0.227462  255 255 255 255
3.88529 -13.3372 0.89836 0.974295 0 0.225277  255 255 255 255
3.75163 -25.2941 -1.35196 0.940778 0 -0.339024  255 255 255 255
3.75164 25.2941 1.35196 0.940778 0 0.339023  255 255 255 255
3.95296 17.7338 -0.525987 0.991263 0 -0.131899  255 255 255 255
3.95343 -17.7294 0.522454 0.991381 0 0.131013  255 255 255 255
3.85212 -31.838 1.03138 0.965975 0 0.258635  255 255 255 255
3.85213 31.8381 -1.03133 0.965979 0 -0.258622  255 255 255 255
3.93104 -31.5228 -0.670444 0.985766 0 -0.168124  255 255 255 255
3.93104 31.5228 0.670442 0.985766 0 0.168123  255 255 255 255
3.93263 -5.55275 -0.66107 0.986164 0 -0.165773  255 255 255 255
3.93367 5.55746 0.65485 0.986425 0 0.164213  255 255 255 255
3.9322 5.64711 -0.663598 0.986057 0 -0.166407  255 255 255 255
3.93395 -5.64969 0.653154 0.986496 0 0.163788  255 255 255 255
3.94812 -12.554 -0.561182 0.990049 0 -0.140725  255 255 255 255
3.92776 12.3981 -0.689393 0.984944 0 -0.172875  255 255 255 255
3.94811 12.5572 0.56123 0.990047 0 0.140737  255 255 255 255
3.92901 -12.3938 0.682215 0.985258 0 0.171076  255 255 255 255
3.89941 -16.0233 -0.834955 0.977835 0 -0.209377  255 255 255 255
3.89993 16.0272 0.832532 0.977965 0 0.20877  255 255 255 255
3.92292 -29.8779 0.716395 0.983731 0 0.179647  255 255 255 255
3.92294 29.878 -0.71632 0.983735 0 -0.179628  255 255 255 255
3.89184 -30.7369 -0.869569 0.975936 0 -0.218057  255 255 255 255
3.89184 30.7369 0.869564 0.975936 0 0.218056  255 255 255 255
3.70622 -0.970337 1.47189 0.929391 0 0.369098  255 255 255 255
3.7004 0.968806 -1.48647 0.92793 0 -0.372755  255 255 255 255
0.654896 -20.7842 3.93366 0.164225 0 0.986423  255 255 255 255
-1.40813 -21.226 3.73092 -0.353109 0 0.935582  255 255 255 255
-3.02031 -21.878 2.60389 -0.757389 0 0.652964  255 255 255 255
-3.8994 -21.9723 0.834991 -0.977833 0 0.209386  255 255 255 255
-3.82222 -22.0388 -1.13717 -0.958479 0 -0.285163  255 255 255 255
-2.887 -22.1033 -2.75096 -0.723958 0 -0.689844  255 255 255 255
-1.67973 -21.4654 -3.61677 -0.421217 0 -0.90696  255 255 255 255
-0.886959 -21.5476 -3.88791 -0.222418 0 -0.974951  255 255 255 255
0.666567 20.8172 -3.9317 0.167152 0 -0.985931  255 255 255 255
-1.38689 21.2195 -3.73886 -0.347784 0 -0.937575  255 255 255 255
-3.04083 21.6974 -2.5799 -0.762534 0 -0.646948  255 255 255 255
-3.90199 21.9985 -0.822794 -0.978483 0 -0.206328  255 255 255 255
-3.83409 21.9954 1.09651 -0.961454 0 0.274965  255 255 255 255
-2.86398 22.0577 2.77492 -0.718185 0 0.695852  255 255 255 255
-1.65173 21.5743 3.62965 -0.414195 0 0.910188  255 255 255 255
-0.90574 21.7063 3.88358 -0.227128 0 0.973865  255 255 255 255
2.53355 -21.4016 -3.07956 0.635326 0 -0.772244  255 255 255 255
2.52886 21.3958 3.08341 0.634148 0 0.773212  255 255 255 255
3.95015 -34.9476 0.54671 0.990558 0 0.137096  255 255 255 255
3.92225 -35.0332 -0.720088 0.983562 0 -0.180573  255 255 255 255
3.95015 34.9476 -0.546705 0.990558 0 -0.137094  255 255 255 255
3.92225 35.0332 0.72009 0.983562 0 0.180573  255 255 255 255
3.72284 -40.7968 -1.42934 0.933557 0 -0.358428  255 255 255 255
3.72284 40.7968 1.42934 0.933557 0 0.358428  255 255 255 255
3.93619 0.746258 -0.639512 0.987057 0 -0.160367  255 255 255 255
3.93724 -0.74665 0.63301 0.987321 0 0.158737  255 255 255 255
3.24513 -40.4391 -2.31769 0.813763 0 -0.581196  255 255 255 255
3.24512 40.4391 2.3177 0.813763 0 0.581197  255 255 255 255
3.18993 -28.2928 -2.3931 0.799922 0 -0.600104  255 255 255 255
3.18976 28.2932 2.39332 0.79988 0 0.60016  255 255 255 255
2.49637 -27.9572 -3.10977 0.626002 0 -0.779821  255 255 255 255
2.4957 27.9582 3.11031 0.625834 0 0.779956  255 255 255 255
3.93467 -21.7364 -0.648791 0.986677 0 -0.162694  255 255 255 255
3.94612 22.0696 -0.575051 0.989548 0 -0.144203  255 255 255 255
3.9348 21.7364 0.647974 0.98671 0 0.162489  255 255 255 255
3.94619 -22.0668 0.574584 0.989565 0 0.144086  255 255 255 255
3.6811 -28.1742 -1.53364 0.92309 0 -0.384583  255 255 255 255
3.68108 28.1743 1.53369 0.923085 0 0.384597  255 255 255 255
3.94208 -20.703 -0.602124 0.988535 0 -0.150992  255 255 255 255
3.94219 21.0478 -0.601412 0.988562 0 -0.150813  255 255 255 255
3.94226 20.7033 0.600941 0.98858 0 0.150695  255 255 255 255
3.94233 -21.0442 0.600467 0.988598 0 0.150576  255 255 255 255
3.62383 -41.6459 1.66446 0.908729 0 0.417387  255 255 255 255
3.62383 41.6459 -1.66446 0.908729 0 -0.417387  255 255 255 255
3.57972 1.22187 1.75732 0.897667 0 0.440675  255 255 255 255
3.57344 -1.21245 -1.77006 0.896092 0 -0.443869  255 255 255 255
3.88925 -41.5806 0.881064 0.975287 0 0.22094  255 255 255 255
3.94254 -41.5738 -0.599115 0.98865 0 -0.150237  255 255 255 255
3.88925 41.5806 -0.881064 0.975287 0 -0.22094  255 255 255 255
3.94254 41.5738 0.599115 0.98865 0 0.150237  255 255 255 255
3.94791 -47.3367 -0.562605 0.989998 0 -0.141082  255 255 255 255
3.94791 47.3367 0.562605 0.989998 0 0.141082  255 255 255 255
2.82558 -46.9744 2.814 0.708557 0 0.705654  255 255 255 255
2.82558 46.9744 -2.814 0.708557 0 -0.705654  255 255 255 255
0.946592 -46.6303 3.87382 0.237372 0 0.971419  255 255 255 255
0.595806 -46.6528 -3.94304 0.149407 0 -0.988776  255 255 255 255
1.50699 -46.5461 -3.69209 0.3779 0 -0.925847  255 255 255 255
0.946592 46.6303 -3.87382 0.237372 0 -0.971419  255 255 255 255
0.595806 46.6528 3.94304 0.149407 0 0.988776  255 255 255 255
1.50699 46.5461 3.69209 0.3779 0 0.925847  255 255 255 255
2.2893 -46.6913 -3.26522 0.574077 0 -0.818801  255 255 255 255
2.2893 46.6913 3.26522 0.574077 0 0.818801  255 255 255 255
2.18382 -46.9971 3.33669 0.547625 0 0.836724  255 255 255 255
2.18382 46.9971 -3.33669 0.547625 0 -0.836724  255 255 255 255
3.37759 -46.9928 -2.12001 0.84698 0 -0.531625  255 255 255 255
3.37759 46.9928 2.12001 0.84698 0 0.531625  255 255 255 255
3.75683 -47.4398 -1.33746 0.942081 0 -0.335387  255 255 255 255
3.75683 47.4398 1.33746 0.942081 0 0.335387  255 255 255 255
2.60519 -47.7614 3.01919 0.653291 0 0.757107  255 255 255 255
2.60519 47.7614 -3.01919 0.653291 0 -0.757107  255 255 255 255
2.92017 2.62583 2.71572 0.732276 0 0.681008  255 255 255 255
2.90575 -2.59514 -2.73115 0.728659 0 -0.684876  255 255 255 255
2.31888 -3.12147 3.24428 0.581493 0 0.813551  255 255 255 255
2.26844 3.09063 -3.27975 0.568844 0 -0.822445  255 255 255 255
3.63368 -47.5079 1.64284 0.911199 0 0.411966  255 255 255 255
3.63368 47.5079 -1.64284 0.911199 0 -0.411966  255 255 255 255
3.14394 1.54513 2.4532 0.78839 0 0.615176  255 255 255 255
3.13287 -1.52893 -2.46732 0.785613 0 -0.618718  255 255 255 255
2.95265 -40.8538 2.68037 0.740421 0 0.672143  255 255 255 255
2.95265 40.8538 -2.68037 0.740421 0 -0.672143  255 255 255 255
0.794938 2.85863 3.90776 0.199343 0 0.97993  255 255 255 255
-0.426932 -2.75625 3.96488 -0.10706 0 0.994253  255 255 255 255
-0.351228 2.7417 3.9723 -0.088076 0 0.996114  255 255 255 255
-1.52422 -2.71684 3.68501 -0.38222 0 0.924071  255 255 255 255
-1.06918 2.65397 3.8418 -0.268112 0 0.963388  255 255 255 255
-2.47203 -2.86941 3.12916 -0.619897 0 0.784683  255 255 255 255
-3.60209 -2.65164 1.711 -0.903276 0 0.429059  255 255 255 255
-3.39675 2.66868 2.08917 -0.851786 0 0.52389  255 255 255 255
-2.94073 -2.66911 2.69345 -0.737432 0 0.675422  255 255 255 255
-2.93315 2.75089 2.7017 -0.735531 0 0.677492  255 255 255 255
-3.92666 -2.72448 0.695604 -0.984669 0 0.174433  255 255 255 255
-3.97164 -2.74231 -0.3586 -0.995949 0 -0.089924  255 255 255 255
-3.98768 2.91553 0.031289 -0.999969 0 0.007846  255 255 255 255
-3.7537 -2.69045 -1.34621 -0.941296 0 -0.337583  255 255 255 255
-3.88653 2.98981 -0.892981 -0.974606 0 -0.223928  255 255 255 255
-3.30702 -2.6469 -2.22848 -0.829286 0 -0.558825  255 255 255 255
-3.56103 3.02151 -1.79488 -0.892982 0 -0.450092  255 255 255 255
-2.66263 -2.60791 -2.96866 -0.667695 0 -0.744435  255 255 255 255
-3.03269 3.04708 -2.58946 -0.760493 0 -0.649347  255 255 255 255
-1.86137 -2.55526 -3.52674 -0.466766 0 -0.884381  255 255 255 255
-2.34419 3.05353 -3.22604 -0.587841 0 -0.808977  255 255 255 255
-0.814046 -2.53885 -3.90383 -0.204134 0 -0.978943  255 255 255 255
-1.5418 3.01861 -3.67769 -0.386629 0 -0.922235  255 255 255 255
-0.211451 -2.66786 -3.98219 -0.053025 0 -0.998593  255 255 255 255
-0.500613 2.83987 -3.95625 -0.125536 0 -0.992089  255 255 255 255
0.846175 -2.78858 -3.89699 0.212191 0 -0.977228  255 255 255 255
0.20664 2.64856 -3.98244 0.051818 0 -0.998657  255 255 255 255
1.5754 2.93365 3.66342 0.395056 0 0.918657  255 255 255 255
1.58216 -2.86644 -3.66051 0.39675 0 -0.917927  255 255 255 255
1.56211 -2.69029 3.66911 0.391723 0 0.920083  255 255 255 255
1.51217 2.65156 -3.68997 0.379198 0 -0.925315  255 255 255 255
3.72035 2.99876 1.43581 0.932933 0 0.360051  255 255 255 255
3.71536 -2.98554 -1.44867 0.931681 0 -0.363276  255 255 255 255
3.36741 4.68632 2.13614 0.844429 0 0.535667  255 255 255 255
3.35282 -4.66394 -2.15897 0.840769 0 -0.541395  255 255 255 255
3.57465 -5.58546 1.7676 0.896397 0 0.443252  255 255 255 255
3.56055 5.57655 -1.79584 0.892861 0 -0.450332  255 255 255 255
3.5088 -42.4859 -1.89496 0.879883 0 -0.47519  255 255 255 255
3.5088 42.4859 1.89496 0.879883 0 0.47519  255 255 255 255
3.30945 -27.9891 2.22488 0.829893 0 0.557922  255 255 255 255
3.30973 27.9904 -2.22446 0.829964 0 -0.557817  255 255 255 255
3.89001 0.842942 0.877696 0.975478 0 0.220095  255 255 255 255
3.88837 -0.839156 -0.884964 0.975065 0 -0.221918  255 255 255 255
2.61303 -32.4814 3.01241 0.655257 0 0.755406  255 255 255 255
2.61314 32.4815 -3.01232 0.655283 0 -0.755383  255 255 255 255
0.215986 -32.2781 3.98195 0.054162 0 0.998532  255 255 255 255
-0.712615 -32.373 3.92361 -0.178699 0 0.983904  255 255 255 255
-1.61031 -32.2312 3.64821 -0.403808 0 0.914844  255 255 255 255
-2.43226 -32.2956 3.16017 -0.609924 0 0.79246  255 255 255 255
-3.11392 -32.15 2.4912 -0.780861 0 0.624705  255 255 255 255
-3.61911 -32.2361 1.67469 -0.907546 0 0.419953  255 255 255 255
-3.92067 -32.236 0.728606 -0.983167 0 0.182709  255 255 255 255
-3.97931 -32.2287 -0.260128 -0.99787 0 -0.065231  255 255 255 255
-3.79264 -32.2241 -1.23224 -0.951061 0 -0.309003  255 255 255 255
-3.37267 -32.2227 -2.12782 -0.845748 0 -0.533583  255 255 255 255
-2.74595 -32.2218 -2.89176 -0.688589 0 -0.725152  255 255 255 255
-1.95096 -32.2081 -3.47798 -0.489231 0 -0.872154  255 255 255 255
-1.07538 -32.0984 -3.84007 -0.269669 0 -0.962953  255 255 255 255
-0.141495 -32.2178 -3.98529 -0.035482 0 -0.99937  255 255 255 255
0.764944 -32.1004 -3.91375 0.191821 0 -0.98143  255 255 255 255
0.216208 32.278 -3.98194 0.054217 0 -0.998529  255 255 255 255
-0.712402 32.3729 -3.92365 -0.178645 0 -0.983914  255 255 255 255
-1.6101 32.231 -3.6483 -0.403757 0 -0.914866  255 255 255 255
-2.4321 32.2954 -3.16029 -0.609885 0 -0.79249  255 255 255 255
-3.1138 32.1498 -2.49135 -0.780831 0 -0.624743  255 255 255 255
-3.61904 32.2358 -1.67485 -0.907527 0 -0.419994  255 255 255 255
-3.92064 32.2358 -0.728799 -0.983158 0 -0.182757  255 255 255 255
-3.97932 32.2286 0.259905 -0.997874 0 0.065175  255 255 255 255
-3.79272 32.2241 1.232 -0.951081 0 0.308942  255 255 255 255
-3.37282 32.2228 2.12759 -0.845785 0 0.533524  255 255 255 255
-2.74617 32.2219 2.89156 -0.688643 0 0.725101  255 255 255 255
-1.95122 32.2083 3.47783 -0.489297 0 0.872117  255 255 255 255
-1.07567 32.0986 3.83998 -0.269741 0 0.962933  255 255 255 255
-0.141747 32.2181 3.98528 -0.035545 0 0.999368  255 255 255 255
0.764733 32.1007 3.91379 0.191768 0 0.98144  255 255 255 255
1.08267 -32.2984 3.83802 0.271496 0 0.96244  255 255 255 255
1.08287 32.2984 -3.83796 0.271547 0 -0.962425  255 255 255 255
1.46404 -32.0706 -3.70933 0.367129 0 -0.93017  255 255 255 255
1.46388 32.0708 3.70939 0.367089 0 0.930186  255 255 255 255
1.88915 -32.3731 3.51193 0.473732 0 0.880669  255 255 255 255
1.88931 32.3732 -3.51185 0.473773 0 -0.880647  255 255 255 255
2.55239 -32.2212 -3.06396 0.64005 0 -0.768333  255 255 255 255
2.55233 32.2212 3.06401 0.640034 0 0.768347  255 255 255 255
2.91717 -28.3908 2.71895 0.731522 0 0.681817  255 255 255 255
2.91758 28.3919 -2.7185 0.731627 0 -0.681706  255 255 255 255
0.639568 -27.9518 3.93618 0.160381 0 0.987055  255 255 255 255
-0.414744 -27.7867 3.96617 -0.104003 0 0.994577  255 255 255 255
-1.38391 -27.7079 3.73996 -0.347037 0 0.937851  255 255 255 255
-2.26119 -27.6579 3.28475 -0.567027 0 0.823699  255 255 255 255
-3.00361 -27.6253 2.62314 -0.7532 0 0.657792  255 255 255 255
-3.5614 -27.6055 1.79414 -0.893075 0 0.449907  255 255 255 255
-3.89599 -27.5937 0.850765 -0.976978 0 0.213342  255 255 255 255
-3.98513 -27.5862 -0.145994 -0.99933 0 -0.03661  255 255 255 255
-3.82375 -27.5802 -1.13203 -0.958861 0 -0.283874  255 255 255 255
-3.42365 -27.5739 -2.04478 -0.858532 0 -0.51276  255 255 255 255
-2.812 -27.5657 -2.82757 -0.705152 0 -0.709056  255 255 255 255
-2.02875 -27.5551 -3.43318 -0.50874 0 -0.86092  255 255 255 255
-1.12308 -27.5427 -3.82639 -0.281628 0 -0.959524  255 255 255 255
-0.148712 -27.5297 -3.98503 -0.037292 0 -0.999304  255 255 255 255
0.83473 -27.518 -3.89946 0.209321 0 -0.977847  255 255 255 255
0.640825 27.9523 -3.93597 0.160696 0 -0.987004  255 255 255 255
-0.413463 27.786 -3.96631 -0.103682 0 -0.994611  255 255 255 255
-1.38295 27.7056 -3.74032 -0.346795 0 -0.937941  255 255 255 255
-2.26068 27.6541 -3.2851 -0.5669 0 -0.823787  255 255 255 255
-3.00341 27.6207 -2.62337 -0.75315 0 -0.657849  255 255 255 255
-3.56124 27.6008 -1.79447 -0.893034 0 -0.44999  255 255 255 255
-3.89581 27.5893 -0.851588 -0.976933 0 -0.213548  255 255 255 255
-3.98518 27.5818 0.144552 -0.999343 0 0.036249  255 255 255 255
-3.82426 27.5759 1.13031 -0.958989 0 0.283443  255 255 255 255
-3.42456 27.5702 2.04326 -0.85876 0 0.512378  255 255 255 255
-2.81316 27.5639 2.82643 -0.705441 0 0.708769  255 255 255 255
-2.03019 27.556 3.43233 -0.509099 0 0.860708  255 255 255 255
-1.12496 27.5458 3.82583 -0.282101 0 0.959385  255 255 255 255
-0.150977 27.5336 3.98494 -0.03786 0 0.999283  255 255 255 255
0.832566 27.5214 3.89992 0.208778 0 0.977963  255 255 255 255
1.63405 -28.116 3.63764 0.409763 0 0.912192  255 255 255 255
1.63502 28.1171 -3.6372 0.410006 0 -0.912083  255 255 255 255
1.73418 -27.4961 -3.59098 0.434872 0 -0.900492  255 255 255 255
1.73258 27.4984 3.59176 0.43447 0 0.900686  255 255 255 255
2.39383 -27.9861 3.18938 0.600287 0 0.799784  255 255 255 255
2.39453 27.9876 -3.18885 0.600463 0 -0.799652  255 255 255 255
2.79025 -37.0874 2.84905 0.699695 0 0.714441  255 255 255 255
2.79025 37.0874 -2.84905 0.699696 0 -0.71444  255 255 255 255
0.644381 -36.6751 -3.93539 0.161588 0 -0.986858  255 255 255 255
0.644351 36.6751 3.9354 0.16158 0 0.98686  255 255 255 255
1.32012 -37.2192 -3.76295 0.33104 0 -0.943617  255 255 255 255
1.3201 37.2192 3.76296 0.331036 0 0.943618  255 255 255 255
2.22104 -36.9387 3.31203 0.55696 0 0.83054  255 255 255 255
2.22105 36.9388 -3.31202 0.556961 0 -0.830539  255 255 255 255
2.56563 -37.0761 -3.05288 0.643369 0 -0.765556  255 255 255 255
2.56562 37.0761 3.05289 0.643367 0 0.765558  255 255 255 255
0.259179 -2.62168 3.97937 0.064993 0 0.997886  255 255 255 255
0.263425 2.3095 3.97909 0.066058 0 0.997816  255 255 255 255
-0.98637 -2.32719 3.86389 -0.247347 0 0.968927  255 255 255 255
-2.0465 -2.41511 3.42263 -0.513191 0 0.858274  255 255 255 255
-1.88565 2.48437 3.51381 -0.472854 0 0.881141  255 255 255 255
-2.52402 2.22199 3.08737 -0.632935 0 0.774205  255 255 255 255
-3.33973 -2.28528 2.17917 -0.837486 0 0.546459  255 255 255 255
-3.80201 -2.35231 1.20301 -0.953411 0 0.301673  255 255 255 255
-3.78979 2.49582 1.24099 -0.950346 0 0.311196  255 255 255 255
-3.9846 -2.41823 0.159828 -0.999197 0 0.040079  255 255 255 255
-3.96818 2.32027 0.395067 -0.995081 0 0.099069  255 255 255 255
-3.89386 -2.39673 -0.860472 -0.976443 0 -0.215776  255 255 255 255
-3.96254 2.4231 -0.448142 -0.993666 0 -0.112378  255 255 255 255
-3.55884 -2.34944 -1.79922 -0.892433 0 -0.451181  255 255 255 255
-3.74984 2.45082 -1.35692 -0.940329 0 -0.340267  255 255 255 255
-3.00905 -2.31483 -2.6169 -0.754563 0 -0.656227  255 255 255 255
-3.31998 2.48006 -2.20914 -0.832533 0 -0.553975  255 255 255 255
-2.2789 -2.26736 -3.27248 -0.571469 0 -0.820624  255 255 255 255
-2.70941 2.51734 -2.92603 -0.679424 0 -0.733746  255 255 255 255
-1.39255 -2.2159 -3.73676 -0.349201 0 -0.937048  255 255 255 255
-1.96901 2.5021 -3.46779 -0.493758 0 -0.8696  255 255 255 255
-1.16817 2.40482 -3.81286 -0.292937 0 -0.956132  255 255 255 255
0.346786 -2.28157 -3.97269 0.086962 0 -0.996212  255 255 255 255
0.921253 -2.43183 3.87993 0.231018 0 0.97295  255 255 255 255
0.869111 2.40778 -3.89194 0.217942 0 -0.975962  255 255 255 255
3.13318 -17.7339 -2.46693 0.785691 0 -0.618619  255 255 255 255
3.13907 17.7412 2.45942 0.787169 0 0.616737  255 255 255 255
2.28776 2.34986 3.2663 0.57369 0 0.819072  255 255 255 255
2.27729 -2.3122 -3.27361 0.571065 0 -0.820905  255 255 255 255
2.71464 -17.5628 2.92118 0.680736 0 0.732529  255 255 255 255
2.69273 17.6012 -2.94139 0.675243 0 -0.737596  255 255 255 255
2.68721 1.74826 2.94643 0.673858 0 0.738861  255 255 255 255
2.67452 -1.72574 -2.95795 0.670675 0 -0.741751  255 255 255 255
3.19559 -25.4722 -2.38553 0.801342 0 -0.598207  255 255 255 255
3.19497 25.4726 2.38636 0.801186 0 0.598416  255 255 255 255
2.84619 -2.19181 2.79316 0.713725 0 0.700426  255 255 255 255
2.81767 2.17646 -2.82193 0.706571 0 -0.707642  255 255 255 255
3.30613 -18.5785 -2.22981 0.829061 0 -0.559158  255 255 255 255
3.31028 18.5825 2.22364 0.830102 0 0.557611  255 255 255 255
3.53907 -48.4002 1.8378 0.887475 0 0.460856  255 255 255 255
3.53907 48.4002 -1.8378 0.887475 0 -0.460856  255 255 255 255
1.97701 -48.2988 3.46323 0.495765 0 0.868457  255 255 255 255
1.97701 48.2988 -3.46323 0.495765 0 -0.868457  255 255 255 255
3.40576 -48.0206 -2.07445 0.854046 0 -0.520198  255 255 255 255
3.40576 48.0206 2.07445 0.854046 0 0.520198  255 255 255 255
3.71049 -48.6737 -1.4611 0.93046 0 -0.366393  255 255 255 255
3.71049 48.6737 1.4611 0.93046 0 0.366393  255 255 255 255
2.59022 -41.2587 -3.03205 0.649535 0 -0.760332  255 255 255 255
2.59021 41.2587 3.03205 0.649535 0 0.760332  255 255 255 255
3.12351 6.4983 2.47916 0.783266 0 0.621687  255 255 255 255
3.10687 -6.48334 -2.49998 0.779094 0 -0.626908  255 255 255 255
0.419373 -17.4075 3.96569 0.105164 0 0.994455  255 255 255 255
-0.485964 -17.3769 3.95808 -0.121863 0 0.992547  255 255 255 255
-1.64015 -17.3599 3.6349 -0.411291 0 0.911504  255 255 255 255
-2.32679 -17.3241 3.23861 -0.583477 0 0.812129  255 255 255 255
-3.05488 -17.2933 2.56325 -0.766058 0 0.642772  255 255 255 255
-3.62842 -17.312 1.65443 -0.909879 0 0.414873  255 255 255 255
-3.88665 -17.323 0.892462 -0.974636 0 0.223798  255 255 255 255
-3.98656 -17.3348 -0.099402 -0.999689 0 -0.024927  255 255 255 255
-3.85464 -17.3703 -1.02192 -0.966607 0 -0.256262  255 255 255 255
-3.49928 -17.3816 -1.91247 -0.877497 0 -0.479581  255 255 255 255
-2.93972 -17.448 -2.69455 -0.737179 0 -0.675697  255 255 255 255
-2.18163 -17.5976 -3.33812 -0.547076 0 -0.837083  255 255 255 255
-1.22345 -17.7205 -3.79549 -0.306798 0 -0.951775  255 255 255 255
-0.019402 -17.6466 -3.98775 -0.004865 0 -0.999988  255 255 255 255
0.929384 -17.6749 -3.87799 0.233057 0 -0.972463  255 255 255 255
1.72526 -17.902 -3.59528 0.432634 0 -0.90157  255 255 255 255
0.50847 17.4797 -3.95525 0.127506 0 -0.991838  255 255 255 255
-0.426024 17.4379 -3.96498 -0.106832 0 -0.994277  255 255 255 255
-1.59017 17.4141 -3.65703 -0.398759 0 -0.917056  255 255 255 255
-2.28026 17.3821 -3.27154 -0.571808 0 -0.820387  255 255 255 255
-3.00769 17.3727 -2.61846 -0.754224 0 -0.656618  255 255 255 255
-3.53019 17.3903 -1.8548 -0.885249 0 -0.465118  255 255 255 255
-3.87228 17.3709 -0.95287 -0.971033 0 -0.238946  255 255 255 255
-3.98768 17.383 0.031396 -0.999969 0 0.007873  255 255 255 255
-3.80793 17.3693 1.18416 -0.954894 0 0.296946  255 255 255 255
-3.44317 17.3402 2.01175 -0.863425 0 0.504477  255 255 255 255
-2.91743 17.5299 2.71866 -0.73159 0 0.681745  255 255 255 255
-1.9288 17.3783 3.49031 -0.483675 0 0.875248  255 255 255 255
-1.18716 17.419 3.80699 -0.297697 0 0.95466  255 255 255 255
0.028963 17.4634 3.98769 0.007263 0 0.999974  255 255 255 255
0.993951 17.7298 3.86194 0.249248 0 0.96844  255 255 255 255
1.74953 17.9197 3.58353 0.438722 0 0.898623  255 255 255 255
1.55812 -17.2468 3.67081 0.390721 0 0.920509  255 255 255 255
1.46745 17.3334 -3.70798 0.367986 0 -0.929831  255 255 255 255
2.46391 -17.6304 -3.13555 0.617862 0 -0.786286  255 255 255 255
2.47549 17.6411 3.12642 0.620765 0 0.783996  255 255 255 255
3.46835 -36.4728 -1.96801 0.869741 0 -0.493509  255 255 255 255
3.46835 36.4728 1.96802 0.86974 0 0.493511  255 255 255 255
3.17368 -17.256 2.41461 0.795846 0 0.605499  255 255 255 255
3.15977 17.2816 -2.43278 0.792359 0 -0.610055  255 255 255 255
3.71175 -29.4352 1.4579 0.930776 0 0.365591  255 255 255 255
3.71182 29.4356 -1.45772 0.930794 0 -0.365545  255 255 255 255
2.21079 -45.7752 3.31888 0.554388 0 0.832259  255 255 255 255
2.21079 45.7752 -3.31888 0.554388 0 -0.832259  255 255 255 255
2.94345 -46.0074 2.69047 0.738114 0 0.674677  255 255 255 255
2.94345 46.0074 -2.69047 0.738114 0 -0.674677  255 255 255 255
