ply
format ascii 1.0
comment VCGLIB generated
element vertex 746
property float x
property float y
property float z
property float nx
property float ny
property float nz
property uchar red
property uchar green
property uchar blue
property uchar alpha
element face 0
property list uchar int vertex_indices
end_header
-11.5651 -55.762 -335.415 0.707107 0 -0.707107  255 255 255 255
-26.5349 17.662 -350.385 0.707107 0 -0.707107  255 255 255 255
14.4394 17.873 -309.411 0.707107 0 -0.707107  255 255 255 255
14.4394 -55.973 -309.411 0.707107 0 -0.707107  255 255 255 255
-52.5394 -55.973 -376.389 0.707107 0 -0.707107  255 255 255 255
-52.5394 17.873 -376.389 0.707107 0 -0.707107  255 255 255 255
-32.139 0.169479 -355.989 0.707107 0 -0.707107  255 255 255 255
-5.96097 -38.2695 -329.811 0.707107 0 -0.707107  255 0 0 255
-5.96097 0.169479 -329.811 0.707107 0 -0.707107  255 0 0 255
-32.139 -38.2695 -355.989 0.707107 0 -0.707107  255 255 255 255
14.747 -51.694 -309.103 0.707107 0 -0.707107  255 255 255 255
-52.847 -51.694 -376.697 0.707107 0 -0.707107  255 255 255 255
14.747 13.594 -309.103 0.707107 0 -0.707107  255 255 255 255
-52.847 13.594 -376.697 0.707107 0 -0.707107  255 255 255 255
15.4654 -26.9592 -308.385 0.707107 0 -0.707107  255 255 255 255
-53.5654 -26.9592 -377.415 0.707107 0 -0.707107  255 255 255 255
-53.5654 -11.1408 -377.415 0.707107 0 -0.707107  255 255 255 255
15.4654 -11.1408 -308.385 0.707107 0 -0.707107  255 255 255 255
-7.3462 5.33129 -331.196 0.707107 0 -0.707107  255 255 255 255
-30.7538 -43.4313 -354.604 0.707107 0 -0.707107  255 255 255 255
-7.3462 -43.4313 -331.196 0.707107 0 -0.707107  255 255 255 255
-30.7538 5.33129 -354.604 0.707107 0 -0.707107  255 255 255 255
18.1806 -13.4981 -305.669 0.707107 0 -0.707107  255 255 255 255
-56.2806 -24.6019 -380.131 0.707107 0 -0.707107  255 0 0 255
18.1806 -24.6019 -305.669 0.707107 0 -0.707107  255 255 255 255
-56.2806 -13.4981 -380.131 0.707107 0 -0.707107  255 255 255 255
-2.07062 -41.8586 -325.921 0.707107 0 -0.707107  255 255 255 255
-2.07062 3.75857 -325.921 0.707107 0 -0.707107  255 255 255 255
-36.0294 -41.8586 -359.879 0.707107 0 -0.707107  255 255 255 255
-36.0294 3.75857 -359.879 0.707107 0 -0.707107  255 255 255 255
9.70369 11.6062 -314.146 0.707107 0 -0.707107  255 0 0 255
-47.8037 -49.7062 -371.654 0.707107 0 -0.707107  255 255 255 255
9.70369 -49.7062 -314.146 0.707107 0 -0.707107  255 0 0 255
-47.8037 11.6062 -371.654 0.707107 0 -0.707107  255 255 255 255
-50.674 12.5546 -374.524 0.707107 0 -0.707107  255 255 255 255
12.574 -50.6546 -311.276 0.707107 0 -0.707107  255 255 255 255
12.574 12.5546 -311.276 0.707107 0 -0.707107  255 255 255 255
-50.674 -50.6546 -374.524 0.707107 0 -0.707107  255 255 255 255
-40.5726 -32.3016 -364.423 0.707107 0 -0.707107  255 255 255 255
-40.5726 -5.79839 -364.423 0.707107 0 -0.707107  255 255 255 255
2.47259 -5.79839 -321.377 0.707107 0 -0.707107  255 255 255 255
2.47259 -32.3016 -321.377 0.707107 0 -0.707107  255 255 255 255
-47.4086 17.2008 -371.259 0.707107 0 -0.707107  255 255 255 255
9.3086 -55.3008 -314.541 0.707107 0 -0.707107  255 255 255 255
-47.4086 -55.3008 -371.259 0.707107 0 -0.707107  255 255 255 255
9.3086 17.2008 -314.541 0.707107 0 -0.707107  255 255 255 255
16.6249 16.899 -307.225 0.707107 0 -0.707107  255 255 255 255
16.6249 -54.999 -307.225 0.707107 0 -0.707107  255 255 255 255
-54.7249 -54.999 -378.575 0.707107 0 -0.707107  255 255 255 255
-54.7249 16.899 -378.575 0.707107 0 -0.707107  255 255 255 255
-55.18 -12.6458 -379.03 0.707107 0 -0.707107  255 255 255 255
-55.18 -25.4542 -379.03 0.707107 0 -0.707107  255 255 255 255
17.08 -25.4542 -306.77 0.707107 0 -0.707107  255 255 255 255
17.08 -12.6458 -306.77 0.707107 0 -0.707107  255 255 255 255
-27.7015 8.65675 -351.552 0.707107 0 -0.707107  255 255 255 255
-10.3985 -46.7568 -334.248 0.707107 0 -0.707107  255 255 255 255
-10.3985 8.65675 -334.248 0.707107 0 -0.707107  255 255 255 255
-27.7015 -46.7568 -351.552 0.707107 0 -0.707107  255 255 255 255
-50.5288 -15.2484 -374.379 0.707107 0 -0.707107  255 255 255 255
-50.5288 -22.8516 -374.379 0.707107 0 -0.707107  255 255 255 255
12.4288 -22.8516 -311.421 0.707107 0 -0.707107  255 255 255 255
12.4288 -15.2484 -311.421 0.707107 0 -0.707107  255 0 0 255
15.5253 -54.1464 -308.325 0.707107 0 -0.707107  255 255 255 255
15.5253 16.0464 -308.325 0.707107 0 -0.707107  255 255 255 255
-53.6253 -54.1464 -377.475 0.707107 0 -0.707107  255 255 255 255
-53.6253 16.0464 -377.475 0.707107 0 -0.707107  255 255 255 255
12.2404 -14.2821 -311.61 0.707107 0 -0.707107  255 255 255 255
12.2404 -23.8179 -311.61 0.707107 0 -0.707107  255 255 255 255
-50.3404 -23.8179 -374.19 0.707107 0 -0.707107  255 255 255 255
-50.3404 -14.2821 -374.19 0.707107 0 -0.707107  255 255 255 255
10.8094 15.8207 -313.041 0.707107 0 -0.707107  255 255 255 255
-48.9094 -53.9207 -372.759 0.707107 0 -0.707107  255 255 255 255
10.8094 -53.9207 -313.041 0.707107 0 -0.707107  255 255 255 255
-48.9094 15.8207 -372.759 0.707107 0 -0.707107  255 255 255 255
-44.1366 0.957506 -367.987 0.707107 0 -0.707107  255 0 0 255
6.03662 0.957505 -317.813 0.707107 0 -0.707107  255 255 255 255
6.03662 -39.0575 -317.813 0.707107 0 -0.707107  255 255 255 255
-44.1366 -39.0575 -367.987 0.707107 0 -0.707107  255 0 0 255
-43.9504 4.42081 -367.8 0.707107 0 -0.707107  255 255 255 255
5.85041 -42.5208 -318 0.707107 0 -0.707107  255 255 255 255
5.85041 4.42081 -318 0.707107 0 -0.707107  255 255 255 255
-43.9504 -42.5208 -367.8 0.707107 0 -0.707107  255 255 255 255
-48.4287 14.6159 -372.279 0.707107 0 -0.707107  255 255 255 255
10.3287 -52.7159 -313.521 0.707107 0 -0.707107  255 0 0 255
-48.4287 -52.7159 -372.279 0.707107 0 -0.707107  255 255 255 255
10.3287 14.6159 -313.521 0.707107 0 -0.707107  255 0 0 255
-54.7893 -7.56879 -378.639 0.707107 0 -0.707107  255 255 255 255
16.6893 -7.56879 -307.161 0.707107 0 -0.707107  255 255 255 255
-54.7893 -30.5312 -378.639 0.707107 0 -0.707107  255 255 255 255
16.6893 -30.5312 -307.161 0.707107 0 -0.707107  255 255 255 255
-17.1842 16.1801 -341.034 0.707107 0 -0.707107  255 255 255 255
-20.9158 -54.2801 -344.766 0.707107 0 -0.707107  255 255 255 255
15.4869 -52.465 -308.363 0.707107 0 -0.707107  255 255 255 255
15.4869 14.365 -308.363 0.707107 0 -0.707107  255 255 255 255
-53.5869 -52.465 -377.437 0.707107 0 -0.707107  255 255 255 255
-53.5869 14.365 -377.437 0.707107 0 -0.707107  255 255 255 255
-53.5842 12.6711 -377.434 0.707107 0 -0.707107  255 255 255 255
-53.5842 -50.7711 -377.434 0.707107 0 -0.707107  255 255 255 255
15.4842 -50.7711 -308.366 0.707107 0 -0.707107  255 255 255 255
15.4842 12.6711 -308.366 0.707107 0 -0.707107  255 255 255 255
11.2365 12.0584 -312.614 0.707107 0 -0.707107  255 255 255 255
10.777 12.1635 -313.073 0.707107 0 -0.707107  255 255 255 255
11.2365 -50.1584 -312.614 0.707107 0 -0.707107  255 255 255 255
10.777 -50.2635 -313.073 0.707107 0 -0.707107  255 255 255 255
-49.3365 -50.1584 -373.186 0.707107 0 -0.707107  255 255 255 255
-48.877 -50.2635 -372.727 0.707107 0 -0.707107  255 255 255 255
-49.3365 12.0584 -373.186 0.707107 0 -0.707107  255 255 255 255
-48.877 12.1635 -372.727 0.707107 0 -0.707107  255 255 255 255
-26.2011 11.6207 -350.051 0.707107 0 -0.707107  255 255 255 255
-11.8989 -49.7207 -335.749 0.707107 0 -0.707107  255 255 255 255
-26.2011 -49.7207 -350.051 0.707107 0 -0.707107  255 255 255 255
-11.8989 11.6207 -335.749 0.707107 0 -0.707107  255 255 255 255
-19.7748 -52.9084 -343.625 0.707107 0 -0.707107  255 255 255 255
-18.3252 14.8084 -342.175 0.707107 0 -0.707107  255 255 255 255
-17.2266 -52.3382 -341.077 0.707107 0 -0.707107  255 0 0 255
-20.8734 14.2382 -344.723 0.707107 0 -0.707107  255 255 255 255
-55.4738 -9.9843 -379.324 0.707107 0 -0.707107  255 255 255 255
17.3738 -28.1157 -306.476 0.707107 0 -0.707107  255 255 255 255
17.3738 -9.9843 -306.476 0.707107 0 -0.707107  255 255 255 255
-55.4738 -28.1157 -379.324 0.707107 0 -0.707107  255 255 255 255
-32.9888 1.9146 -356.839 0.707107 0 -0.707107  255 255 255 255
-5.11121 -40.0146 -328.961 0.707107 0 -0.707107  255 255 255 255
-5.11121 1.9146 -328.961 0.707107 0 -0.707107  255 255 255 255
-32.9888 -40.0146 -356.839 0.707107 0 -0.707107  255 255 255 255
-41.4267 0.069723 -288.957 0.99978 -0.020954 0  255 255 255 255
-40.7912 -1.95673 -208.894 0.808813 0.588066 0  255 255 255 255
-40.7547 2.00602 -207.333 0.797833 -0.602879 0  255 255 255 255
-37.7778 -3.31176 -216.724 -0.096833 0.995301 0  255 255 255 255
-37.7776 3.31174 -216.867 -0.096888 -0.995295 0  255 255 255 255
-36.3813 -2.84917 -278.625 -0.516522 0.856274 0  255 255 255 255
-36.3356 2.82106 -278.542 -0.530274 -0.847827 0  255 255 255 255
-35.1398 -1.51954 -256.397 -0.889633 0.456676 0  255 255 255 255
-35.1244 1.48903 -256.404 -0.894281 -0.447505 0  255 255 255 255
-35.3234 1.83363 -205.395 -0.834458 -0.551071 0  255 255 255 255
-35.3105 -1.81397 -205.437 -0.838332 0.54516 0  255 255 255 255
-35.0456 1.31996 -179.794 -0.91795 -0.396695 0  255 255 255 255
-35.0582 -1.3487 -179.751 -0.91417 0.405332 0  255 255 255 255
-35.3184 -1.82607 -337.929 -0.835955 0.548797 0  255 255 255 255
-35.3562 1.8823 -338.056 -0.824613 -0.565698 0  255 255 255 255
-35.0805 1.39803 -153.399 -0.907452 -0.420156 0  255 255 255 255
-35.0752 -1.38651 -153.4 -0.909047 0.416695 0  255 0 0 255
-41.4271 0.047507 -225.549 0.999898 -0.014278 0  255 255 255 255
-41.2099 -1.18327 -281.806 0.934632 0.355615 0  255 255 255 255
-41.047 1.54484 -281.694 0.885689 -0.464278 0  255 255 255 255
-39.9153 2.78862 -208.798 0.545553 -0.838077 0  255 255 255 255
-39.685 -2.92562 -209.461 0.476357 0.879252 0  255 255 255 255
-35.2685 -1.74758 -279.983 -0.850973 0.52521 0  255 255 255 255
-35.2563 1.72773 -279.929 -0.854627 -0.519242 0  255 255 255 255
-35.2606 1.73481 -217.674 -0.85333 -0.52137 0  255 255 255 255
-35.2571 -1.7291 -217.64 -0.854377 0.519654 0  255 255 255 255
-41.1525 -1.32435 -187.723 0.91738 0.398013 0  255 255 255 255
-41.396 0.456141 -187.554 0.990559 -0.137086 0  255 255 255 255
-40.816 1.92218 -201.007 0.816262 -0.577682 0  255 255 255 255
-40.8713 -1.84165 -201.341 0.832863 0.553479 0  255 255 255 255
-39.1524 -3.15658 -305.541 0.316286 0.948664 0  255 255 255 255
-39.3893 3.06746 -305.571 0.387479 -0.921879 0  255 255 255 255
-37.2581 3.21913 -182.699 -0.253021 -0.967461 0  255 255 255 255
-37.3369 -3.23871 -182.577 -0.22934 0.973346 0  255 255 255 255
-40.0932 2.66438 -174.405 0.599012 -0.80074 0  255 255 255 255
-40.3357 -2.46437 -174.431 0.671913 0.74063 0  255 255 255 255
-38.7251 -3.26815 -332.194 0.187871 0.982194 0  255 255 255 255
-38.598 3.28992 -331.814 0.14968 -0.988734 0  255 255 255 255
-41.4271 -0.041132 -323.084 0.999924 0.012362 0  255 255 255 255
-35.1406 -1.5211 -323.762 -0.889393 0.457143 0  255 255 255 255
-35.2599 1.73354 -323.789 -0.853563 -0.520989 0  255 255 255 255
-35.3046 1.80475 -227.142 -0.840127 -0.542389 0  255 255 255 255
-35.313 -1.81782 -227.15 -0.837578 0.546318 0  255 255 255 255
-35.2202 1.66679 -235.813 -0.865489 -0.500928 0  255 255 255 255
-35.2166 -1.66063 -235.855 -0.866557 0.499079 0  255 255 255 255
-35.006 1.22432 -348.812 -0.929846 -0.36795 0  255 255 255 255
-35.3229 1.83278 -176.094 -0.834627 -0.550815 0  255 255 255 255
-35.3475 -1.86958 -176.014 -0.827224 0.561873 0  255 255 255 255
-35.0538 -1.33876 -315.251 -0.915488 0.402345 0  255 255 255 255
-35.1265 1.49323 -316.083 -0.893648 -0.448769 0  255 255 255 255
-40.4996 -2.30511 -316.488 0.721163 0.692766 0  255 255 255 255
-40.6877 2.0917 -316.733 0.777707 -0.628628 0  255 255 255 255
-35.9648 -2.552 -311.494 -0.641691 0.766964 0  255 255 255 255
-36.0691 2.63571 -311.697 -0.610361 -0.792123 0  255 255 255 255
-41.0586 -1.52269 -328.827 0.889148 0.45762 0  255 255 255 255
-41.3998 0.427661 -329.011 0.991706 -0.128527 0  255 255 255 255
-40.6894 -2.08965 -177.471 0.778203 0.628012 0  255 255 255 255
-41.0844 -1.47145 -273.222 0.896905 0.442222 0  255 255 255 255
-41.0336 1.57027 -273.202 0.88164 -0.471922 0  255 255 255 255
-35.3864 -1.92565 -251.903 -0.815522 0.578726 0  255 255 255 255
-35.3563 1.88253 -251.977 -0.824566 -0.565766 0  255 255 255 255
-40.1876 -2.59102 -292.347 0.627407 0.778692 0  255 255 255 255
-40.0506 2.69567 -292.286 0.586232 -0.810143 0  255 255 255 255
-36.218 2.74401 -184.352 -0.565611 -0.824672 0  255 255 255 255
-36.2768 -2.78344 -184.272 -0.547936 0.83652 0  255 255 255 255
-41.3978 0.442527 -316.079 0.991117 -0.132995 0  255 255 255 255
-39.5096 3.01405 -255.183 0.423645 -0.905828 0  255 255 255 255
-40.7115 2.06192 -168.219 0.784855 -0.619679 0  255 255 255 255
-40.9843 -1.65904 -168.131 0.866832 0.498601 0  255 255 255 255
-38.7417 -3.26494 -342.4 0.192855 0.981227 0  255 255 255 255
-36.7806 3.05462 -167.634 -0.396537 -0.918019 0  255 255 255 255
-36.7517 -3.042 -167.335 -0.405204 0.914226 0  255 255 255 255
-38.5115 -3.30186 -281.998 0.123675 0.992323 0  255 255 255 255
-38.4189 3.31208 -281.731 0.095841 -0.995397 0  255 255 255 255
-41.4072 0.365649 -246.756 0.993944 -0.10989 0  255 255 255 255
-37.3291 3.23687 -198.85 -0.23168 -0.972792 0  255 255 255 255
-37.3319 -3.23752 -198.932 -0.230849 0.972989 0  255 255 255 255
-41.4169 0.264241 -283.449 0.996842 -0.079414 0  255 255 255 255
-36.0874 2.64972 -231.707 -0.604858 -0.796333 0  255 255 255 255
-36.1051 -2.66311 -231.765 -0.599522 0.800358 0  255 255 255 255
-35.1797 1.59489 -167.417 -0.877639 -0.479322 0  255 255 255 255
-35.1726 -1.58169 -167.306 -0.879795 0.475353 0  255 255 255 255
-40.9791 -1.66801 -221.019 0.865277 0.501294 0  255 255 255 255
-40.9318 1.74722 -221.057 0.85104 -0.5251 0  255 255 255 255
-40.9297 -1.75047 -256.501 0.850436 0.526078 0  255 255 255 255
-35.2117 -1.65207 -304.606 -0.868035 0.496503 0  255 255 255 255
-35.2395 1.69971 -304.592 -0.859687 -0.510821 0  255 255 255 255
-35.6759 2.27935 -198.773 -0.72852 -0.685024 0  255 255 255 255
-35.6779 -2.28141 -198.819 -0.727937 0.685645 0  255 255 255 255
-36.3324 -2.81905 -267.044 -0.531236 0.847224 0  255 255 255 255
-36.3017 2.79958 -267.035 -0.540459 -0.841371 0  255 255 255 255
-35.09 1.41826 -268.417 -0.904612 -0.426235 0  255 255 255 255
-35.0971 -1.43331 -268.423 -0.902466 0.430761 0  255 255 255 255
-35.2462 -1.71099 -351.806 -0.857662 0.514213 0  255 255 255 255
-35.2612 1.73576 -351.199 -0.853156 -0.521656 0  255 255 255 255
-40.8996 -1.79825 -276.102 0.841385 0.540437 0  255 255 255 255
-40.8146 1.92423 -276.055 0.815825 -0.578299 0  255 255 255 255
-35.1472 1.53388 -265.208 -0.887409 -0.460984 0  255 255 255 255
-35.1558 -1.55024 -265.212 -0.884837 0.465901 0  255 255 255 255
-35.2698 -1.74969 -291.563 -0.850581 0.525843 0  255 255 255 255
-35.2655 1.74272 -291.501 -0.851874 -0.523747 0  255 255 255 255
-35.4575 2.02203 -208.702 -0.794173 -0.607692 0  255 255 255 255
-35.4264 -1.98083 -208.73 -0.803497 0.595309 0  255 255 255 255
-35.2679 1.7466 -202.083 -0.851156 -0.524913 0  255 255 255 255
-35.2633 -1.73912 -202.121 -0.852537 0.522667 0  255 255 255 255
-35.1088 1.4576 -261.986 -0.898945 -0.438061 0  255 255 255 255
-35.1176 -1.4754 -261.988 -0.896319 0.44341 0  255 255 255 255
-34.9479 1.06587 -199.865 -0.947305 -0.320332 0  255 255 255 255
-34.9478 -1.06534 -199.886 -0.947359 0.320173 0  255 255 255 255
-35.2115 1.65172 -189.233 -0.868094 -0.4964 0  255 255 255 255
-35.2308 -1.68503 -189.23 -0.862293 0.50641 0  255 255 255 255
-39.6214 2.9592 -216.851 0.45724 -0.889343 0  255 255 255 255
-39.6924 -2.9216 -216.642 0.47858 0.878044 0  255 255 255 255
-35.1829 1.60058 -186.213 -0.876704 -0.481031 0  255 255 255 255
-35.202 -1.63502 -186.187 -0.870945 0.49138 0  255 255 255 255
-34.9011 -0.915849 -321.788 -0.961374 0.275245 0  255 255 255 255
-35.006 1.22432 -321.301 -0.929845 -0.367951 0  255 255 255 255
-35.2035 1.63772 -192.188 -0.870487 -0.492191 0  255 255 255 255
-35.2173 -1.66189 -192.204 -0.866339 0.499457 0  255 255 255 255
-35.1481 -1.53547 -340.797 -0.88716 0.461462 0  255 255 255 255
-35.0763 1.38872 -340.74 -0.908741 -0.41736 0  255 255 255 255
-37.0976 -3.17283 -221.45 -0.301252 0.953545 0  255 255 255 255
-37.072 3.16463 -221.494 -0.308943 -0.951081 0  255 255 255 255
-40.5547 -2.24637 -237.829 0.737715 0.675112 0  255 255 255 255
-41.0515 1.53624 -238.289 0.887039 -0.461694 0  255 255 255 255
-35.2739 1.75638 -294.467 -0.849336 -0.527853 0  255 255 255 255
-35.2752 -1.75842 -294.547 -0.848954 0.528466 0  255 255 255 255
-38.9142 -3.22625 -271.754 0.244695 0.9696 0  255 255 255 255
-38.8438 3.24319 -271.726 0.223547 -0.974693 0  255 255 255 255
-38.6868 3.27524 -172.442 0.176366 -0.984325 0  255 255 255 255
-38.8864 -3.23314 -172.174 0.23634 0.97167 0  255 255 255 255
-41.4268 0.063876 -162.606 0.999816 -0.019197 0  255 255 255 255
-41.4273 -0.029238 -205.106 0.999961 0.008787 0  255 255 255 255
-36.085 -2.64793 -333.581 -0.605564 0.795797 0  255 255 255 255
-36.1307 2.68203 -333.466 -0.591857 -0.806043 0  255 255 255 255
-39.3552 -3.08155 -211.529 0.377244 0.926114 0  255 255 255 255
-40.7487 2.01396 -161.668 0.796023 -0.605266 0  255 255 255 255
-40.6557 -2.1307 -162.148 0.768083 0.640351 0  255 255 255 255
-38.2991 3.32144 -201.429 0.059825 -0.998209 0  255 255 255 255
-38.2625 -3.32343 -201.53 0.04883 0.998807 0  255 255 255 255
-37.4887 3.27076 -164.364 -0.183724 -0.982978 0  255 255 255 255
-37.2995 -3.22967 -164.165 -0.240581 0.970629 0  255 255 255 255
-41.4161 -0.273849 -305.528 0.996608 0.082301 0  255 255 255 255
-41.3152 -0.856905 -230.601 0.96627 0.25753 0  255 255 255 255
-41.274 0.998666 -230.564 0.953897 -0.300134 0  255 255 255 255
-35.6536 2.25535 -165.057 -0.735234 -0.677813 0  255 255 255 255
-35.6108 -2.2081 -164.938 -0.748078 0.663611 0  255 255 255 255
-38.4671 3.30709 -245.406 0.110313 -0.993897 0  255 255 255 255
-38.3085 -3.32086 -245.216 0.062658 0.998035 0  255 255 255 255
-36.3267 -2.81548 -263.789 -0.532943 0.846151 0  255 255 255 255
-36.2942 2.79473 -263.783 -0.542718 -0.839915 0  255 255 255 255
-41.4267 0.069383 -274.692 0.999783 -0.020852 0  255 255 255 255
-39.6935 2.921 -195.947 0.478915 -0.877862 0  255 255 255 255
-39.7371 -2.89681 -196.067 0.492003 0.870593 0  255 255 255 255
-39.7312 -2.90013 -249.075 0.490237 0.871589 0  255 255 255 255
-40.2547 2.53552 -248.99 0.647563 -0.762012 0  255 255 255 255
-40.2356 2.55163 -223.435 0.641823 -0.766853 0  255 255 255 255
-40.2914 -2.50384 -223.415 0.658603 0.75249 0  255 255 255 255
-37.2725 -3.22286 -348.171 -0.2487 0.968581 0  255 255 255 255
-37.7019 3.3035 -348.113 -0.119642 -0.992817 0  255 255 255 255
-35.2583 -1.73101 -343.434 -0.854027 0.520228 0  255 255 255 255
-35.3039 1.80365 -343.331 -0.84034 -0.54206 0  255 255 255 255
-39.9747 -2.74901 -326.559 0.563416 0.826173 0  255 255 255 255
-39.8865 2.80711 -326.695 0.536919 -0.843634 0  255 255 255 255
-41.1265 -1.38279 -351.427 0.909558 0.415576 0  255 255 255 255
-41.3519 0.704717 -350.571 0.977315 -0.211792 0  255 255 255 255
-40.9048 1.79013 -214.81 0.842948 -0.537996 0  255 255 255 255
-41.031 -1.57511 -214.681 0.880861 0.473376 0  255 255 255 255
-36.9042 -3.1051 -283.761 -0.359383 0.93319 0  255 255 255 255
-36.9028 3.10457 -283.587 -0.359791 -0.933033 0  255 255 255 255
-36.5065 2.92102 -229.24 -0.478901 -0.877869 0  255 255 255 255
-36.5358 -2.93683 -229.28 -0.47009 0.882619 0  255 255 255 255
-39.8633 -2.82179 -352.327 0.529919 0.848048 0  255 255 255 255
-37.5622 -3.28365 -313.036 -0.161632 0.986851 0  255 255 255 255
-37.756 3.30957 -313.268 -0.103375 -0.994642 0  255 255 255 255
-41.4273 -0.027385 -155.61 0.999966 0.00823 0  255 255 255 255
-37.2558 -3.21852 -159.096 -0.253719 0.967278 0  255 255 255 255
-38.488 -3.3047 -251.029 0.116604 0.993178 0  255 255 255 255
-38.0295 3.32665 -251.32 -0.021182 -0.999776 0  255 255 255 255
-36.5975 -2.96888 -241.005 -0.45154 0.892251 0  255 255 255 255
-36.69 3.01391 -240.993 -0.42374 -0.905784 0  255 255 255 255
-35.2806 -1.76707 -299.495 -0.84733 0.531067 0  255 255 255 255
-35.3 1.79774 -299.413 -0.841483 -0.540283 0  255 255 255 255
-37.9933 -3.32569 -262.347 -0.032075 0.999485 0  255 255 255 255
-37.9351 3.32331 -262.341 -0.049571 -0.998771 0  255 255 255 255
-38.1692 -3.32668 -268.882 0.020793 0.999784 0  255 255 255 255
-38.1132 3.32737 -268.865 0.003953 -0.999992 0  255 255 255 255
-36.1166 2.67164 -156.998 -0.596084 -0.802922 0  255 255 255 255
-36.0763 -2.64128 -156.999 -0.608184 0.793796 0  255 255 255 255
-39.7841 -2.86973 -289.595 0.506134 0.862455 0  255 255 255 255
-39.7497 2.88967 -289.605 0.495782 -0.868447 0  255 255 255 255
-40.7197 -2.0515 -313.838 0.787317 0.616548 0  255 255 255 255
-40.9626 1.69615 -313.65 0.86032 -0.509754 0  255 255 255 255
-36.5579 2.94848 -175.311 -0.463452 -0.886122 0  255 255 255 255
-36.6299 -2.98505 -175.16 -0.441804 0.897111 0  255 255 255 255
-41.2416 -1.09646 -315.637 0.944147 0.329525 0  255 255 255 255
-41.4138 -0.300104 -331.982 0.995924 0.090192 0  255 255 255 255
-38.7845 -3.25624 -284.61 0.205703 0.978614 0  255 255 255 255
-38.8738 3.23618 -284.272 0.232541 -0.972587 0  255 255 255 255
-38.8998 3.22984 -190.477 0.240375 -0.97068 0  255 255 255 255
-39.0414 -3.19146 -190.593 0.282913 0.959146 0  255 255 255 255
-38.522 3.30054 -215.091 0.126813 -0.991927 0  255 255 255 255
-38.4962 -3.30372 -214.822 0.119082 0.992884 0  255 255 255 255
-38.1655 3.32676 -185.155 0.019684 -0.999806 0  255 255 255 255
-38.2737 -3.32286 -184.985 0.052207 0.998636 0  255 255 255 255
-41.4237 0.156854 -280.129 0.998888 -0.04714 0  255 255 255 255
-40.8744 1.83693 -193.316 0.833804 -0.55206 0  255 255 255 255
-40.8923 -1.80963 -193.487 0.839178 0.543857 0  255 255 255 255
-37.5277 3.27782 -177.526 -0.171987 -0.985099 0  255 255 255 255
-37.6216 -3.29283 -177.345 -0.143764 0.989612 0  255 255 255 255
-40.1886 -2.59028 -166.455 0.627683 0.778469 0  255 255 255 255
-41.4011 -0.417756 -356.055 0.992087 0.12555 0  255 255 255 255
-35.5101 -2.08898 -285.853 -0.778366 0.627811 0  255 255 255 255
-35.5137 2.09347 -285.774 -0.777274 -0.629162 0  255 255 255 255
-37.955 -3.32424 -327.029 -0.043567 0.999051 0  255 255 255 255
-37.9546 3.32422 -327.057 -0.043703 -0.999045 0  255 255 255 255
-40.4905 -2.31451 -231.931 0.718437 0.695592 0  255 255 255 255
-40.3967 2.40766 -231.809 0.690233 -0.723587 0  255 255 255 255
-35.2351 -1.69239 -249.275 -0.86099 0.508622 0  255 255 255 255
-35.2344 1.6911 -249.365 -0.861218 -0.508236 0  255 255 255 255
-35.8911 2.4884 -223.755 -0.663866 -0.747851 0  255 255 255 255
-35.9058 -2.50138 -223.743 -0.659446 0.751752 0  255 255 255 255
-36.5541 2.94651 -211.572 -0.464587 -0.885528 0  255 255 255 255
-36.4487 -2.88873 -211.544 -0.49628 0.868163 0  255 255 255 255
-37.3998 -3.2529 -315.952 -0.210427 0.97761 0  255 255 255 255
-37.7219 3.30585 -316.309 -0.113631 -0.993523 0  255 255 255 255
-38.5062 -3.30252 -274.142 0.122073 0.992521 0  255 255 255 255
-38.4258 3.31141 -274.094 0.097922 -0.995194 0  255 255 255 255
-37.6531 -3.29726 -306.848 -0.134294 0.990942 0  255 255 255 255
-37.8067 3.31445 -306.908 -0.088134 -0.996109 0  255 255 255 255
-37.2998 -3.22974 -321.767 -0.240502 0.970649 0  255 255 255 255
-37.6509 3.29695 -322.036 -0.134983 -0.990848 0  255 255 255 255
-35.0467 1.32238 -271.309 -0.917636 -0.397422 0  255 255 255 255
-35.0533 -1.33755 -271.319 -0.915648 0.401982 0  255 255 255 255
-41.4034 -0.398848 -300.221 0.99279 0.119868 0  255 255 255 255
-39.3834 -3.06992 -193.05 0.385717 0.922617 0  255 255 255 255
-39.3119 3.09884 -192.913 0.364231 -0.931309 0  255 255 255 255
-40.1789 -2.59805 -285.363 0.624776 0.780804 0  255 255 255 255
-39.5289 3.00495 -177.05 0.429448 -0.903092 0  255 255 255 255
-39.3768 -3.0727 -176.685 0.383711 0.923453 0  255 255 255 255
-41.4273 0.029662 -334.86 0.99996 -0.008914 0  255 255 255 255
-40.4745 2.33092 -171.425 0.713631 -0.700522 0  255 255 255 255
-40.6586 -2.12724 -171.159 0.768949 0.63931 0  255 255 255 255
-41.4273 0.019357 -363.02 0.999983 -0.005818 0  255 255 255 255
-39.5945 2.97291 -186.721 0.449136 -0.893463 0  255 255 255 255
-40.0386 -2.70432 -186.457 0.582624 0.812742 0  255 255 255 255
-35.1803 1.59588 -246.686 -0.877477 -0.479618 0  255 255 255 255
-35.1645 -1.5666 -246.616 -0.882231 0.470817 0  255 255 255 255
-34.945 1.057 -197.847 -0.948203 -0.317665 0  255 255 255 255
-34.946 -1.06019 -197.866 -0.947881 0.318624 0  255 255 255 255
-35.0633 1.36007 -310.787 -0.912647 -0.408748 0  255 255 255 255
-35.0383 -1.30281 -310.682 -0.920161 0.39154 0  255 255 255 255
-35.4016 1.94685 -214.253 -0.810963 -0.585098 0  255 255 255 255
-35.3795 -1.9158 -214.213 -0.817615 0.575766 0  255 255 255 255
-35.0536 1.33824 -244.383 -0.915558 -0.402187 0  255 255 255 255
-35.0399 -1.30673 -244.346 -0.919659 0.392718 0  255 255 255 255
-35.9198 2.51364 -296.782 -0.655223 -0.755436 0  255 255 255 255
-35.9049 -2.50066 -296.926 -0.659693 0.751535 0  255 255 255 255
-35.432 -1.98831 -320.482 -0.801826 0.597558 0  255 255 255 255
-36.0128 2.59138 -320.913 -0.62727 -0.778802 0  255 255 255 255
-35.069 1.37271 -182.942 -0.910936 -0.412547 0  255 255 255 255
-35.0824 -1.40199 -182.905 -0.906899 0.421347 0  255 255 255 255
-35.1824 1.59967 -233.133 -0.876853 -0.480758 0  255 255 255 255
-35.1854 -1.60518 -233.169 -0.875944 0.482413 0  255 255 255 255
-35.0309 1.28542 -296.802 -0.922367 -0.386315 0  255 255 255 255
-35.0268 -1.27552 -296.864 -0.923608 0.383338 0  255 255 255 255
-35.414 1.96388 -238.759 -0.807246 -0.590215 0  255 255 255 255
-35.3932 -1.93517 -238.794 -0.813485 0.581586 0  255 255 255 255
-35.049 -1.32787 -302.169 -0.91692 0.399072 0  255 255 255 255
-35.0645 1.36293 -302.132 -0.912262 -0.409608 0  255 255 255 255
-35.1265 -1.49333 -332.387 -0.893633 0.448798 0  255 255 255 255
-35.1364 1.51283 -332.346 -0.890666 -0.454657 0  255 255 255 255
-36.5313 2.93441 -200.926 -0.47145 -0.881893 0  255 255 255 255
-36.5197 -2.92821 -200.996 -0.474921 0.880028 0  255 255 255 255
-35.1345 -1.50919 -329.698 -0.891223 0.453565 0  255 255 255 255
-35.1441 1.52776 -329.671 -0.888362 -0.459144 0  255 255 255 255
-36.3141 2.80752 -190.745 -0.536723 -0.843759 0  255 255 255 255
-36.3726 -2.84386 -190.767 -0.519155 0.85468 0  255 255 255 255
-35.2771 -1.76146 -288.769 -0.848385 0.52938 0  255 255 255 255
-35.2766 1.76066 -288.714 -0.848535 -0.52914 0  255 255 255 255
-34.8445 0.688065 -181.204 -0.978386 -0.206788 0  255 255 255 255
-34.8478 -0.703611 -181.184 -0.977387 0.21146 0  255 255 255 255
-35.1803 1.59593 -326.898 -0.87747 -0.479632 0  255 255 255 255
-35.1466 -1.53275 -326.893 -0.887585 0.460644 0  255 255 255 255
-35.1382 1.51629 -211.435 -0.890135 -0.455698 0  255 255 255 255
-35.1193 -1.47879 -211.427 -0.895815 0.444428 0  255 255 255 255
-40.1901 -2.58906 -349.575 0.628135 0.778104 0  255 255 255 255
-40.5539 2.24722 -348.954 0.737482 -0.675367 0  255 255 255 255
-39.3788 3.07185 -160.35 0.384322 -0.923199 0  255 255 255 255
-39.2211 -3.13284 -160.44 0.336938 0.941527 0  255 255 255 255
-41.4273 -0.020858 -152.823 0.99998 0.006269 0  255 255 255 255
-37.3523 3.24231 -159.093 -0.224704 -0.974427 0  255 255 255 255
-36.2941 2.79471 -162.14 -0.54273 -0.839907 0  255 255 255 255
-36.2072 -2.73662 -162.071 -0.568838 0.82245 0  255 255 255 255
-41.4252 0.122099 -214.103 0.999327 -0.036695 0  255 255 255 255
-41.4273 0.022357 -194.861 0.999977 -0.006719 0  255 255 255 255
-35.3976 -1.94128 -348.664 -0.812169 0.583423 0  255 255 255 255
-35.9124 2.50719 -348.485 -0.657451 -0.753497 0  255 255 255 255
-36.6325 -2.98632 -350.921 -0.441026 0.897494 0  255 255 255 255
-36.8087 3.06663 -351.048 -0.38807 -0.92163 0  255 255 255 255
-40.8541 1.86718 -154.1 0.827713 -0.561152 0  255 255 255 255
-40.8253 -1.90904 -154.12 0.819043 0.573732 0  255 255 255 255
-36.2272 -2.75033 -302.381 -0.562832 0.826571 0  255 255 255 255
-36.3124 2.80645 -302.29 -0.537227 -0.843438 0  255 255 255 255
-37.2562 -3.21863 -318.93 -0.253591 0.967312 0  255 255 255 255
-37.6771 3.30042 -319.308 -0.127095 -0.991891 0  255 255 255 255
-37.9237 -3.32273 -353.17 -0.052975 0.998596 0  255 255 255 255
-38.0108 3.32621 -353.072 -0.026795 -0.999641 0  255 255 255 255
-41.1636 1.2985 -151.421 0.920711 -0.390244 0  255 255 255 255
-41.15 -1.32997 -151.428 0.916645 0.399701 0  255 255 255 255
-41.3296 -0.80065 -236.052 0.970619 0.240623 0  255 255 255 255
-41.2146 1.17088 -235.831 0.936041 -0.35189 0  255 255 255 255
-37.9808 3.32526 -194.618 -0.035827 -0.999358 0  255 255 255 255
-38.0322 -3.32671 -194.708 -0.020378 0.999792 0  255 255 255 255
-36.4136 -2.86837 -288.024 -0.506829 0.862046 0  255 255 255 255
-36.4218 2.8732 -287.927 -0.504352 -0.863498 0  255 255 255 255
-41.3472 -0.726087 -251.636 0.975901 0.218215 0  255 255 255 255
-41.2873 0.955439 -252.163 0.957888 -0.287143 0  255 255 255 255
-39.9426 2.77065 -188.907 0.553758 -0.832677 0  255 255 255 255
-40.173 -2.60277 -189.126 0.623 0.782222 0  255 255 255 255
-39.6053 -2.96742 -255.238 0.452402 0.891814 0  255 255 255 255
-41.2403 -1.1 -207.007 0.943775 0.330588 0  255 255 255 255
-41.3601 0.665957 -207.261 0.979767 -0.200143 0  255 255 255 255
-41.4271 0.042962 -269.812 0.999917 -0.012912 0  255 255 255 255
-38.4841 3.30516 -207.567 0.115428 -0.993316 0  255 255 255 255
-38.4076 -3.31315 -207.814 0.092449 0.995717 0  255 255 255 255
-40.9794 -1.66761 -321.19 0.865346 0.501174 0  255 255 255 255
-41.0199 1.59555 -321.405 0.877532 -0.479517 0  255 255 255 255
-40.0343 2.70741 -202.827 0.581325 -0.813671 0  255 255 255 255
-39.8637 -2.82154 -202.884 0.530042 0.847971 0  255 255 255 255
-41.2809 -0.976554 -293.046 0.955963 0.293489 0  255 255 255 255
-41.2282 1.13392 -293.41 0.940142 -0.340784 0  255 255 255 255
-40.856 -1.86447 -265.096 0.828263 0.560339 0  255 255 255 255
-40.8151 1.92347 -265.091 0.815987 -0.578071 0  255 255 255 255
-41.1446 -1.34238 -307.746 0.915009 0.403433 0  255 255 255 255
-41.3825 0.544907 -311.494 0.9865 -0.163764 0  255 255 255 255
-36.1952 -2.72822 -328.395 -0.572468 0.819927 0  255 255 255 255
-36.2201 2.74549 -328.367 -0.564966 -0.825114 0  255 255 255 255
-40.2058 2.57628 -184.324 0.632866 -0.774261 0  255 255 255 255
-39.9995 -2.73194 -183.788 0.570864 0.821045 0  255 255 255 255
-38.9787 -3.20927 -300.395 0.26409 0.964498 0  255 255 255 255
-39.2144 3.13524 -300.023 0.334909 -0.942251 0  255 255 255 255
-36.2553 -2.76922 -257.734 -0.554404 0.832248 0  255 255 255 255
-36.2057 2.73551 -257.738 -0.569318 -0.822118 0  255 255 255 255
-41.4242 0.14569 -170.361 0.999041 -0.043785 0  255 255 255 255
-37.9488 -3.32396 -288.803 -0.045449 0.998967 0  255 255 255 255
-37.9612 3.3245 -288.704 -0.04172 -0.999129 0  255 255 255 255
-41.3661 -0.635513 -175.668 0.981591 0.190994 0  255 255 255 255
-41.0768 1.48668 -176.878 0.894635 -0.446799 0  255 255 255 255
-37.3152 -3.23353 -296.135 -0.235854 0.971789 0  255 255 255 255
-37.3089 3.232 -295.889 -0.237741 -0.971329 0  255 255 255 255
-40.9747 -1.6756 -182.592 0.86395 0.503577 0  255 255 255 255
-41.1986 1.21251 -182.619 0.931242 -0.364402 0  255 255 255 255
-41.4274 -0.014127 -150.253 0.999991 0.004246 0  255 255 255 255
-39.5166 -3.01078 -355.277 0.42574 0.904846 0  255 255 255 255
-38.0771 -3.32732 -247.94 -0.006872 0.999976 0  255 255 255 255
-38.3181 3.32025 -248.393 0.065539 -0.99785 0  255 255 255 255
-36.3173 -2.80954 -244.421 -0.535768 0.844365 0  255 255 255 255
-36.3989 2.85969 -244.521 -0.511241 -0.859437 0  255 255 255 255
-41.1806 -1.25751 -242.873 0.925836 0.377925 0  255 255 255 255
-41.381 0.553455 -243.777 0.98607 -0.166333 0  255 255 255 255
-37.1741 -3.19599 -332.352 -0.278259 0.960506 0  255 255 255 255
-37.1758 3.19649 -332.141 -0.27774 -0.960656 0  255 255 255 255
-40.0449 2.69978 -150.87 0.58452 -0.811379 0  255 255 255 255
-40.0207 -2.7171 -150.88 0.577227 0.816584 0  255 255 255 255
-40.9092 -1.78331 -287.447 0.844251 0.535949 0  255 255 255 255
-40.8876 1.81685 -287.811 0.837767 -0.546027 0  255 255 255 255
-37.8992 -3.32134 -256.461 -0.060339 0.998178 0  255 255 255 255
-37.8023 3.31406 -256.455 -0.089466 -0.99599 0  255 255 255 255
-37.57 3.28491 -189.804 -0.159293 -0.987231 0  255 255 255 255
-37.6904 -3.30209 -189.836 -0.123101 0.992394 0  255 255 255 255
-37.4673 -3.26669 -223.787 -0.190149 0.981755 0  255 255 255 255
-37.4304 3.25933 -223.805 -0.201235 -0.979543 0  255 255 255 255
-38.3231 3.31991 -234.322 0.067047 -0.99775 0  255 255 255 255
-38.3614 -3.31712 -234.502 0.07856 0.996909 0  255 255 255 255
-41.4179 -0.251074 -241.059 0.997149 0.075457 0  255 255 255 255
-41.4273 -0.02829 -157.979 0.999964 0.008502 0  255 255 255 255
-35.206 -1.64198 -354.419 -0.869762 0.493472 0  255 255 255 255
-35.332 1.84652 -354.112 -0.831888 -0.554944 0  255 255 255 255
-41.306 -0.890596 -345.602 0.963515 0.267655 0  255 255 255 255
-41.2935 0.93427 -344.426 0.959772 -0.280781 0  255 255 255 255
-37.3581 3.24363 -236.06 -0.22298 -0.974823 0  255 255 255 255
-37.3394 -3.23931 -236.216 -0.228576 0.973526 0  255 255 255 255
-36.0279 2.60349 -154.458 -0.622728 -0.782438 0  255 255 255 255
-36.0031 -2.58353 -154.463 -0.630188 0.776442 0  255 255 255 255
-37.2172 -3.20814 -272.878 -0.265327 0.964158 0  255 255 255 255
-37.1628 3.19268 -272.844 -0.281672 -0.959511 0  255 255 255 255
-36.2357 -2.7561 -270.491 -0.56028 0.828303 0  255 255 255 255
-36.2044 2.73465 -270.473 -0.569691 -0.821859 0  255 255 255 255
-37.95 -3.32401 -259.36 -0.045093 0.998983 0  255 255 255 255
-37.8792 3.32007 -259.354 -0.06636 -0.997796 0  255 255 255 255
-40.1511 -2.62005 -283.144 0.616422 0.787416 0  255 255 255 255
-39.917 2.78751 -282.538 0.546061 -0.837746 0  255 255 255 255
-39.3973 3.06409 -250.524 0.389882 -0.920865 0  255 255 255 255
-41.4121 -0.318699 -327.345 0.995403 0.09578 0  255 255 255 255
-35.0655 1.36509 -162.891 -0.91197 -0.410256 0  255 255 255 255
-35.05 -1.33006 -162.855 -0.916633 0.39973 0  255 255 255 255
-36.3007 -2.79892 -216.334 -0.540765 0.841174 0  255 255 255 255
-36.3194 2.81087 -216.418 -0.535137 -0.844765 0  255 255 255 255
-37.3736 3.24713 -180.333 -0.218321 -0.975877 0  255 255 255 255
-37.4925 -3.27147 -180.195 -0.182588 0.98319 0  255 255 255 255
-41.0628 1.51442 -149.058 0.890422 -0.455135 0  255 255 255 255
-41.0527 -1.5339 -149.062 0.887405 0.460991 0  255 255 255 255
-41.2914 -0.941524 -318.204 0.959131 0.282961 0  255 255 255 255
-41.2804 0.977989 -318.679 0.95583 -0.29392 0  255 255 255 255
-40.455 -2.35064 -229.305 0.707765 0.706448 0  255 255 255 255
-40.3815 2.4221 -229.251 0.685656 -0.727926 0  255 255 255 255
-40.0653 -2.68497 -278.159 0.590652 0.806926 0  255 255 255 255
-39.9307 2.7785 -278.048 0.550195 -0.835036 0  255 255 255 255
-41.4215 -0.198022 -189.532 0.998228 0.059513 0  255 255 255 255
-36.6773 3.00791 -196.364 -0.427569 -0.903983 0  255 255 255 255
-36.6991 -3.01814 -196.429 -0.421007 0.907057 0  255 255 255 255
-40.2495 2.53995 -226.434 0.645993 -0.763344 0  255 255 255 255
-40.3107 -2.48681 -226.449 0.664405 0.747373 0  255 255 255 255
-41.4274 0.007649 -353.398 0.999997 -0.002299 0  255 255 255 255
-37.9443 -3.32376 -301.82 -0.046779 0.998905 0  255 255 255 255
-38.1388 3.32717 -301.63 0.01166 -0.999932 0  255 255 255 255
-36.8068 -3.06583 -252.267 -0.388641 0.921389 0  255 255 255 255
-36.6555 2.99751 -252.387 -0.434115 -0.900857 0  255 255 255 255
-41.3355 -0.776613 -199.228 0.972381 0.233399 0  255 255 255 255
-41.2899 0.946712 -199.147 0.95867 -0.28452 0  255 255 255 255
-35.5757 -2.16785 -308.014 -0.758635 0.651516 0  255 255 255 255
-35.6295 2.22897 -308.075 -0.742467 -0.669883 0  255 255 255 255
-37.1116 3.1772 -173.349 -0.297061 -0.954858 0  255 255 255 255
-37.2181 -3.20841 -173.146 -0.265032 0.96424 0  255 255 255 255
-36.1907 -2.7251 -323.169 -0.573811 0.818988 0  255 255 255 255
-36.4875 2.9106 -323.356 -0.4846 -0.874736 0  255 255 255 255
-38.3039 -3.32115 -278.928 0.061288 0.99812 0  255 255 255 255
-38.1974 3.32597 -278.793 0.02927 -0.999572 0  255 255 255 255
-34.8601 0.758111 -266.601 -0.973699 -0.227839 0  255 255 255 255
-34.8621 -0.76666 -266.604 -0.973094 0.230408 0  255 255 255 255
-40.9565 -1.7064 -259.498 0.858489 0.512832 0  255 255 255 255
-40.9114 1.77974 -259.493 0.844932 -0.534873 0  255 255 255 255
-40.6826 -2.09802 -211.493 0.776166 0.630529 0  255 255 255 255
-40.1465 2.6236 -211.811 0.615057 -0.788483 0  255 255 255 255
-35.1582 -1.55475 -258.843 -0.884122 0.467256 0  255 255 255 255
-35.1458 1.53115 -258.844 -0.887834 -0.460164 0  255 255 255 255
-37.4996 -3.27279 -324.25 -0.180433 0.983587 0  255 255 255 255
-37.6771 3.30042 -324.402 -0.127085 -0.991892 0  255 255 255 255
-41.4261 0.093865 -216.519 0.999602 -0.02821 0  255 255 255 255
-36.0042 2.58445 -181.446 -0.629848 -0.776719 0  255 255 255 255
-36.057 -2.62636 -181.359 -0.613992 0.789313 0  255 255 255 255
-39.4309 -3.04963 -230.815 0.399985 0.916522 0  255 255 255 255
-39.3501 3.08364 -230.721 0.375699 -0.926742 0  255 255 255 255
-41.4217 0.1944 -286.154 0.998292 -0.058424 0  255 255 255 255
-34.9858 1.17191 -224.673 -0.935925 -0.3522 0  255 255 255 255
-34.9887 -1.17961 -224.67 -0.935051 0.354513 0  255 255 255 255
-40.7576 2.00222 -187.104 0.798694 -0.601737 0  255 255 255 255
-35.7047 -2.30955 -317.04 -0.719878 0.6941 0  255 255 255 255
-36.1432 2.6912 -317.706 -0.588083 -0.808801 0  255 255 255 255
-35.2157 -1.65907 -241.965 -0.866828 0.498607 0  255 255 255 255
-35.2383 1.6977 -241.98 -0.860046 -0.510217 0  255 255 255 255
-40.233 -2.5538 -234.81 0.641043 0.767505 0  255 255 255 255
-40.1179 2.6457 -234.527 0.606445 -0.795126 0  255 255 255 255
-37.66 -3.29818 -334.82 -0.132239 0.991218 0  255 255 255 255
-37.7927 3.31318 -334.493 -0.092345 -0.995727 0  255 255 255 255
-38.4418 -3.3098 -345.317 0.102723 0.99471 0  255 255 255 255
-38.7342 3.2664 -345.458 0.190605 -0.981667 0  255 255 255 255
-35.5076 2.08589 -173.018 -0.779113 -0.626884 0  255 255 255 255
-35.5407 -2.12639 -172.896 -0.76916 0.639056 0  255 255 255 255
-38.8295 -3.24645 -294.353 0.219236 0.975672 0  255 255 255 255
-38.7031 3.27228 -294.09 0.181259 -0.983435 0  255 255 255 255
-41.3024 -0.903386 -159.873 0.962439 0.271499 0  255 255 255 255
-41.3154 0.855915 -159.774 0.96635 -0.257232 0  255 255 255 255
-36.5824 2.96116 -187.66 -0.456091 -0.889933 0  255 255 255 255
-36.667 -3.00301 -187.626 -0.430673 0.902508 0  255 255 255 255
-35.662 2.26443 -220.657 -0.732711 -0.68054 0  255 255 255 255
-35.6681 -2.27101 -220.625 -0.73087 0.682517 0  255 255 255 255
-39.9716 -2.75114 -273.878 0.562473 0.826815 0  255 255 255 255
-39.8859 2.8075 -273.839 0.536731 -0.843753 0  255 255 255 255
-40.9335 1.74439 -164.826 0.851563 -0.524252 0  255 255 255 255
-41.1462 -1.33864 -165.089 0.915504 0.40231 0  255 255 255 255
-41.3059 -0.891124 -337.229 0.963471 0.267814 0  255 255 255 255
-41.2194 1.15797 -336.837 0.937491 -0.348011 0  255 255 255 255
-37.7882 3.31276 -342.538 -0.093714 -0.995599 0  255 255 255 255
-41.4271 0.042361 -360.682 0.999919 -0.012731 0  255 255 255 255
-41.2118 -1.17831 -267.768 0.935199 0.354123 0  255 255 255 255
-41.1838 1.24961 -267.762 0.926802 -0.37555 0  255 255 255 255
-40.3658 -2.43678 -251.171 0.680943 0.732336 0  255 255 255 255
-37.9777 3.32515 -161.834 -0.036752 -0.999324 0  255 255 255 255
-37.787 -3.31265 -161.78 -0.094058 0.995567 0  255 255 255 255
-38.0597 -3.32716 -265.451 -0.012108 0.999927 0  255 255 255 255
-38.0062 3.32608 -265.442 -0.028191 -0.999603 0  255 255 255 255
-37.6067 -3.29062 -271.001 -0.148268 0.988947 0  255 255 255 255
-37.5516 3.2819 -270.977 -0.16481 -0.986325 0  255 255 255 255
-41.4268 0.064169 -254.596 0.999814 -0.019285 0  255 255 255 255
-40.4795 -2.32586 -198.793 0.715119 0.699003 0  255 255 255 255
-40.4319 2.37359 -198.645 0.700812 -0.713346 0  255 255 255 255
-34.9583 1.09612 -219.957 -0.944183 -0.329423 0  255 255 255 255
-34.9589 -1.09768 -219.942 -0.944019 0.32989 0  255 255 255 255
-39.2725 -3.11397 -287.028 0.352384 0.935855 0  255 255 255 255
-39.3988 3.06343 -286.88 0.390349 -0.920667 0  255 255 255 255
-40.029 -2.71121 -243.5 0.579724 0.814813 0  255 255 255 255
-40.2048 2.57707 -243.76 0.632574 -0.7745 0  255 255 255 255
-37.8016 -3.31399 -304.121 -0.089695 0.995969 0  255 255 255 255
-37.9953 3.32575 -304.057 -0.03147 -0.999505 0  255 255 255 255
-41.1677 -1.28882 -224.821 0.921938 0.387336 0  255 255 255 255
-41.1323 1.36992 -224.823 0.911315 -0.41171 0  255 255 255 255
-37.0916 3.17093 -238.21 -0.303045 -0.952976 0  255 255 255 255
-37.0241 -3.14866 -238.327 -0.323344 0.946281 0  255 255 255 255
-38.4771 3.30596 -188.121 0.113345 -0.993556 0  255 255 255 255
-38.6875 -3.27513 -188.104 0.176559 0.98429 0  255 255 255 255
-38.1708 -3.32665 -242.554 0.021265 0.999774 0  255 255 255 255
-38.3511 3.31791 -242.629 0.075474 -0.997148 0  255 255 255 255
-38.1419 3.32714 -196.899 0.012606 -0.999921 0  255 255 255 255
-38.1707 -3.32665 -196.993 0.021241 0.999774 0  255 255 255 255
-35.3383 1.85596 -169.848 -0.829989 -0.55778 0  255 255 255 255
-35.3491 -1.872 -169.711 -0.826728 0.562601 0  255 255 255 255
-38.6021 -3.2893 -219.462 0.150886 0.988551 0  255 255 255 255
-38.558 3.29573 -219.557 0.13765 -0.990481 0  255 255 255 255
-40.1416 2.62744 -191.107 0.613573 -0.789638 0  255 255 255 255
-40.2178 -2.56641 -191.356 0.636478 0.771295 0  255 255 255 255
-36.2135 -2.74093 -295.248 -0.566962 0.823744 0  255 255 255 255
-36.209 2.73784 -295.094 -0.568306 -0.822817 0  255 255 255 255
-40.725 -2.04469 -240.663 0.788917 0.6145 0  255 255 255 255
-40.9943 1.64149 -240.93 0.869844 -0.493327 0  255 255 255 255
-36.2593 2.77187 -176.872 -0.553206 -0.833044 0  255 255 255 255
-36.3196 -2.81098 -176.744 -0.535086 0.844798 0  255 255 255 255
-41.4271 0.048033 -257.945 0.999896 -0.014436 0  255 255 255 255
-36.808 3.06632 -206.457 -0.388292 -0.921536 0  255 255 255 255
-36.7604 -3.04583 -206.562 -0.402598 0.915377 0  255 255 255 255
-35.1746 1.58542 -335.02 -0.879189 -0.476473 0  255 255 255 255
-35.1523 -1.54364 -335.026 -0.885878 0.463918 0  255 255 255 255
-36.664 3.0016 -203.494 -0.431557 -0.902086 0  255 255 255 255
-36.6419 -2.9909 -203.578 -0.438214 0.898871 0  255 255 255 255
-35.198 1.62794 -230.403 -0.872142 -0.489253 0  255 255 255 255
-35.2044 -1.63918 -230.426 -0.870238 0.492631 0  255 255 255 255
-38.6182 3.2868 -228.369 0.155739 -0.987798 0  255 255 255 255
-38.6811 -3.27626 -228.413 0.174643 0.984632 0  255 255 255 255
-38.4615 3.3077 -210.264 0.108656 -0.994079 0  255 255 255 255
-38.1744 -3.32657 -210.343 0.022369 0.99975 0  255 255 255 255
-40.3654 2.43715 -178.93 0.680823 -0.732448 0  255 255 255 255
-35.9072 2.5026 -352.461 -0.659026 -0.75212 0  255 255 255 255
-40.7813 -1.97037 -356.46 0.805818 0.592164 0  255 255 255 255
-40.274 2.51896 -355.811 0.653373 -0.757036 0  255 255 255 255
-41.1427 1.34679 -358.347 0.914425 -0.404756 0  255 255 255 255
-37.2781 3.2243 -152.798 -0.247005 -0.969014 0  255 255 255 255
-37.2468 -3.21614 -152.808 -0.25643 0.966563 0  255 255 255 255
-36.2658 -2.77622 -353.353 -0.551235 0.83435 0  255 255 255 255
-36.5785 2.95916 -353.486 -0.457262 -0.889332 0  255 255 255 255
-40.4344 -2.37109 -343.43 0.701576 0.712595 0  255 255 255 255
-40.1599 2.61311 -342.793 0.619077 -0.78533 0  255 255 255 255
-39.1754 3.14881 -166.294 0.323205 -0.946329 0  255 255 255 255
-38.8054 -3.25176 -165.734 0.212005 0.977269 0  255 255 255 255
-41.4268 0.060698 -219.569 0.999834 -0.018242 0  255 255 255 255
-41.4274 -0.008244 -147.724 0.999997 0.002478 0  255 255 255 255
-41.4259 0.101275 -232.369 0.999537 -0.030437 0  255 255 255 255
-37.6952 -3.30269 -355.57 -0.121657 0.992572 0  255 255 255 255
-38.4346 3.31053 -355.546 0.100557 -0.994931 0  255 255 255 255
-41.4045 -0.389402 -178.554 0.993129 0.117029 0  255 255 255 255
-37.0752 -3.16565 -275.982 -0.307989 0.95139 0  255 255 255 255
-37.0122 3.14456 -275.92 -0.326929 -0.945049 0  255 255 255 255
-38.7516 3.26297 -225.117 0.195841 -0.980636 0  255 255 255 255
-38.8074 -3.25132 -225.116 0.212612 0.977137 0  255 255 255 255
-39.2502 3.12229 -232.593 0.345666 -0.938358 0  255 255 255 255
-39.3351 -3.08967 -232.748 0.371197 0.928554 0  255 255 255 255
-38.5171 -3.30116 -350.366 0.12534 0.992114 0  255 255 255 255
-39.0563 3.18702 -350.525 0.287402 -0.95781 0  255 255 255 255
-39.9637 -2.7565 -357.995 0.560101 0.828424 0  255 255 255 255
-41.2477 -1.07864 -348.549 0.945999 0.324169 0  255 255 255 255
-41.3871 0.516016 -239.34 0.987902 -0.155081 0  255 255 255 255
-40.9365 1.73949 -247.529 0.85247 -0.522777 0  255 255 255 255
-38.4364 3.31035 -151.266 0.101112 -0.994875 0  255 255 255 255
-38.4087 -3.31305 -151.276 0.092782 0.995686 0  255 255 255 255
-41.1889 -1.23709 -340.459 0.928318 0.371788 0  255 255 255 255
-40.7191 2.05224 -339.475 0.787144 -0.616769 0  255 255 255 255
-39.8114 -2.85354 -340.391 0.514335 0.857589 0  255 255 255 255
-40.1302 -2.63624 -269.628 0.610154 0.792283 0  255 255 255 255
-40.0707 2.68106 -269.612 0.592254 -0.805751 0  255 255 255 255
-41.4272 0.038 -264.546 0.999935 -0.01142 0  255 255 255 255
-38.8881 3.23272 -169.496 0.236855 -0.971545 0  255 255 255 255
-39.179 -3.14759 -168.81 0.32428 0.945961 0  255 255 255 255
-41.1372 -1.35912 -270.724 0.912774 0.408464 0  255 255 255 255
-41.0994 1.44064 -270.713 0.901411 -0.432964 0  255 255 255 255
-39.7133 -2.91011 -334.561 0.484865 0.874589 0  255 255 255 255
-39.5517 2.99402 -333.61 0.436287 -0.899808 0  255 255 255 255
-39.8032 2.85847 -200.524 0.511856 -0.859071 0  255 255 255 255
-39.7926 -2.86474 -200.676 0.508682 0.860955 0  255 255 255 255
-40.4717 -2.3338 -331.916 0.712778 0.701389 0  255 255 255 255
-40.1614 2.61192 -331.399 0.619532 -0.784972 0  255 255 255 255
-41.4258 0.102906 -277.496 0.999522 -0.030927 0  255 255 255 255
-39.3697 -3.07562 -297.631 0.381591 0.924331 0  255 255 255 255
-39.3912 3.06665 -297.097 0.388053 -0.921637 0  255 255 255 255
-39.8793 2.8117 -206.303 0.534745 -0.845013 0  255 255 255 255
-40.114 -2.64864 -206.705 0.605285 0.796009 0  255 255 255 255
-38.968 3.21219 -339.959 0.260859 -0.965377 0  255 255 255 255
-39.0789 -3.18015 -317.619 0.294195 0.955746 0  255 255 255 255
-39.3399 3.08775 -317.905 0.372638 -0.927977 0  255 255 255 255
-41.0746 -1.49105 -297.812 0.893977 0.448113 0  255 255 255 255
-41.0285 1.57977 -296.388 0.880107 -0.474776 0  255 255 255 255
-41.4274 -0.017147 -320.512 0.999987 0.005153 0  255 255 255 255
-41.1351 -1.36374 -302.879 0.912152 0.409853 0  255 255 255 255
-41.3156 0.855463 -302.77 0.966386 -0.257097 0  255 255 255 255
-40.5707 2.22876 -251.27 0.742524 -0.669819 0  255 255 255 255
-41.4206 0.212432 -166.914 0.99796 -0.063843 0  255 255 255 255
-41.2305 -1.12775 -233.319 0.940812 0.338929 0  255 255 255 255
-41.1504 1.32919 -233.209 0.916748 -0.399467 0  255 255 255 255
-38.3001 -3.32138 -239.965 0.060136 0.99819 0  255 255 255 255
-38.4965 3.30369 -239.852 0.11916 -0.992875 0  255 255 255 255
-36.2058 -2.73561 -325.583 -0.569278 0.822145 0  255 255 255 255
-36.3275 2.81597 -325.645 -0.532709 -0.846298 0  255 255 255 255
-36.519 -2.92782 -290.336 -0.475136 0.879913 0  255 255 255 255
-36.507 2.9213 -290.242 -0.478744 -0.877954 0  255 255 255 255
-41.1213 -1.39405 -284.56 0.908004 0.418961 0  255 255 255 255
-40.7059 2.06903 -284.685 0.783163 -0.621817 0  255 255 255 255
-39.2408 -3.12572 -276.199 0.342852 0.939389 0  255 255 255 255
-39.1349 3.16237 -276.125 0.311022 -0.950403 0  255 255 255 255
-36.9736 3.13095 -226.238 -0.338514 -0.940961 0  255 255 255 255
-37.0093 -3.14355 -226.248 -0.327798 0.944748 0  255 255 255 255
-38.7798 3.25722 -182.22 0.204304 -0.978907 0  255 255 255 255
-38.8138 -3.24994 -182.082 0.214515 0.976721 0  255 255 255 255
-37.1826 -3.19844 -299.255 -0.275706 0.961242 0  255 255 255 255
-37.2676 3.22159 -299.018 -0.250171 -0.968202 0  255 255 255 255
-40.9501 -1.7172 -262.503 0.856542 0.516077 0  255 255 255 255
-40.9099 1.78211 -262.499 0.84448 -0.535586 0  255 255 255 255
-41.083 -1.47428 -290.447 0.896486 0.443073 0  255 255 255 255
-41.0296 1.57763 -290.56 0.880454 -0.474132 0  255 255 255 255
-40.7832 -1.96775 -253.688 0.806395 0.591377 0  255 255 255 255
-40.7441 2.02001 -253.724 0.794638 -0.607084 0  255 255 255 255
-39.4975 -3.0197 -311.773 0.42 0.907524 0  255 255 255 255
-39.5851 2.97757 -311.877 0.446337 -0.894865 0  255 255 255 255
-39.9345 2.776 -147.628 0.551335 -0.834284 0  255 255 255 255
