ply
format ascii 1.0
comment VCGLIB generated
element vertex 676
property float x
property float y
property float z
property float nx
property float ny
property float nz
property uchar red
property uchar green
property uchar blue
property uchar alpha
element face 0
property list uchar int vertex_indices
end_header
-8.81342 15.6633 -23.973 0.488098 -0.86745 0.096386  255 255 255 255
-8.81342 -15.6633 -23.973 0.488098 0.86745 0.096386  255 255 255 255
2.96602 17.7166 -24.7701 -0.164679 -0.983659 -0.072767  255 255 255 255
2.96602 -17.7166 -24.7701 -0.164679 0.98366 -0.072764  255 255 255 255
-16.0819 9.12064 -26.6129 0.770619 -0.437046 -0.463828  255 255 255 255
-16.0819 -9.12064 -26.6129 0.770619 0.437046 -0.463828  255 255 255 255
-13.2968 -12.5138 -22.7499 0.680534 0.640461 0.355927  255 255 255 255
-13.2968 12.5138 -22.7499 0.680534 -0.640461 0.355927  255 255 255 255
-11.5788 -14.642 -21.9295 0.525987 0.665142 0.530022  255 255 255 255
-11.5788 14.642 -21.9295 0.525987 -0.665142 0.530022  255 255 255 255
2.57117 17.9525 -25.7348 -0.136206 -0.951021 -0.2775  255 255 255 255
2.57117 -17.9525 -25.7348 -0.136206 0.951022 -0.277499  255 255 255 255
13.48 12.0223 -25.4469 -0.728624 -0.649832 -0.216391  255 255 255 255
13.479 -12.0218 -25.4418 -0.728791 0.649999 -0.215324  255 255 255 255
-10.1893 -16.0219 -21.4782 0.418565 0.658159 0.625803  255 255 255 255
-10.1893 16.0219 -21.4782 0.418565 -0.658159 0.625803  255 255 255 255
17.991 0.980621 -25.2194 -0.984307 -0.053651 -0.168113  255 255 255 255
18.0453 -0.789309 -25.4482 -0.975313 0.042661 -0.216667  255 255 255 255
14.5666 10.6069 -25.2282 -0.796627 -0.580077 -0.169988  255 255 255 255
14.5646 -10.606 -25.2155 -0.796983 0.580369 -0.167301  255 255 255 255
-10.3461 14.6862 -24.7893 0.574211 -0.815093 -0.076849  255 255 255 255
-10.3461 -14.6862 -24.7893 0.574211 0.815093 -0.076849  255 255 255 255
4.7177 17.3974 -25.2648 -0.257553 -0.949776 -0.177743  255 255 255 255
4.7177 -17.3974 -25.2647 -0.257554 0.949777 -0.177737  255 255 255 255
-7.31049 16.4509 -25.1214 0.401661 -0.903862 -0.147316  255 255 255 255
-7.31049 -16.4509 -25.1214 0.401661 0.903862 -0.147316  255 255 255 255
15.9628 -10.6582 -21.2378 -0.612224 0.408776 0.67682  255 255 255 255
15.9565 10.6522 -21.2471 -0.61377 -0.40974 0.674832  255 255 255 255
17.9164 2.07414 -25.3205 -0.975352 -0.112914 -0.189574  255 255 255 255
5.67942 -18.3132 -21.2601 -0.219337 0.707247 0.672081  255 255 255 255
5.67942 18.3131 -21.2601 -0.219339 -0.707251 0.672076  255 255 255 255
0.581114 -19.2403 -21.1789 -0.021871 0.724136 0.68931  255 255 255 255
0.581114 19.2403 -21.1789 -0.021871 -0.724137 0.68931  255 255 255 255
15.207 9.70661 -25.3447 -0.826791 -0.527739 -0.1947  255 255 255 255
15.2034 -9.70483 -25.3244 -0.827491 0.528214 -0.190393  255 255 255 255
-6.94991 -17.9453 -21.1842 0.262021 0.676561 0.688194  255 255 255 255
-6.94991 17.9453 -21.1842 0.262021 -0.676561 0.688194  255 255 255 255
12.5763 -14.6155 -21.1452 -0.468044 0.543933 0.696471  255 255 255 255
12.5758 14.6147 -21.1462 -0.468182 -0.544088 0.696257  255 255 255 255
0.514621 18.0257 -25.3045 -0.028039 -0.982117 -0.18617  255 255 255 255
0.514621 -18.0257 -25.3045 -0.028039 0.982118 -0.186169  255 255 255 255
18.975 -3.33985 -21.1605 -0.709817 0.124937 0.693217  255 255 255 255
18.8493 2.95965 -21.3661 -0.751093 -0.117934 0.649578  255 255 255 255
-6.35072 16.8764 -25.2975 0.346138 -0.919824 -0.184693  255 255 255 255
-6.35072 -16.8764 -25.2975 0.346138 0.919824 -0.184693  255 255 255 255
11.9756 13.5334 -25.4862 -0.645739 -0.729735 -0.224741  255 255 255 255
11.9753 -13.5331 -25.4844 -0.645795 0.729806 -0.224348  255 255 255 255
16.4936 -9.66213 -21.3255 -0.649585 0.380533 0.658205  255 255 255 255
16.4834 9.65289 -21.341 -0.652116 -0.381888 0.654909  255 255 255 255
17.7733 3.18726 -25.4218 -0.962123 -0.172536 -0.211071  255 255 255 255
17.8388 -2.89723 -25.4919 -0.961543 0.156166 -0.225936  255 255 255 255
6.75026 -17.8596 -21.3516 -0.267869 0.708718 0.65266  255 255 255 255
6.75025 17.8595 -21.3517 -0.267872 -0.708726 0.65265  255 255 255 255
15.8037 8.75941 -25.4759 -0.8527 -0.472622 -0.222555  255 255 255 255
15.7976 -8.75569 -25.4444 -0.854024 0.473335 -0.215863  255 255 255 255
-0.32338 -19.0919 -21.3493 0.012824 0.757127 0.653142  255 255 255 255
-0.32338 19.0919 -21.3493 0.012824 -0.757127 0.653141  255 255 255 255
-6.09626 -18.138 -21.303 0.238512 0.709639 0.662967  255 255 255 255
-6.09626 18.138 -21.303 0.238512 -0.709639 0.662967  255 255 255 255
11.7093 -15.1286 -21.308 -0.458799 0.592776 0.661907  255 255 255 255
11.7089 15.1281 -21.3088 -0.458889 -0.592889 0.661743  255 255 255 255
-0.61098 18.0503 -25.4394 0.03304 -0.976097 -0.21481  255 255 255 255
-0.61098 -18.0503 -25.4394 0.03304 0.976097 -0.21481  255 255 255 255
-5.35401 17.2555 -25.4678 0.289026 -0.931503 -0.220829  255 255 255 255
-5.35401 -17.2555 -25.4678 0.289026 0.931503 -0.220829  255 255 255 255
18.6219 -4.27359 -21.3362 -0.735702 0.168838 0.655924  255 255 255 255
18.5362 4.15463 -21.4674 -0.759311 -0.170189 0.628078  255 255 255 255
11.0427 14.2414 -25.2389 -0.603606 -0.778453 -0.172252  255 255 255 255
11.0425 -14.2413 -25.2377 -0.603631 0.77849 -0.171996  255 255 255 255
17.0014 -8.65527 -21.369 -0.67801 0.345169 0.648969  255 255 255 255
16.9853 8.64106 -21.3936 -0.682046 -0.346983 0.643752  255 255 255 255
17.5742 4.28235 -25.5582 -0.943172 -0.229826 -0.240014  255 255 255 255
17.5673 -4.02274 -25.2443 -0.960003 0.219831 -0.173401  255 255 255 255
7.89038 -17.3233 -21.4191 -0.319068 0.700513 0.638339  255 255 255 255
7.89035 17.3233 -21.4192 -0.319075 -0.700529 0.638318  255 255 255 255
16.3313 7.83309 -25.6522 -0.870649 -0.417595 -0.25997  255 255 255 255
16.3218 -7.82498 -25.6063 -0.873042 0.418554 -0.250219  255 255 255 255
-1.5089 -18.8998 -21.5128 0.062539 0.783333 0.618448  255 255 255 255
-1.5089 18.8998 -21.5128 0.062539 -0.783333 0.618448  255 255 255 255
-5.08667 -18.4043 -21.3498 0.201747 0.729948 0.65305  255 255 255 255
-5.08667 18.4043 -21.3498 0.201747 -0.729948 0.65305  255 255 255 255
-1.67303 18.023 -25.6061 0.089491 -0.964054 -0.250184  255 255 255 255
-1.67303 -18.023 -25.6061 0.089491 0.964054 -0.250184  255 255 255 255
11.0773 -15.8476 -21.0906 -0.404566 0.578791 0.708045  255 255 255 255
11.077 15.8473 -21.091 -0.404617 -0.578862 0.707958  255 255 255 255
-4.50524 17.5583 -25.7045 0.239232 -0.932358 -0.271065  255 255 255 255
-4.50524 -17.5583 -25.7045 0.239232 0.932358 -0.271065  255 255 255 255
10.2303 14.9403 -25.6319 -0.546208 -0.797683 -0.255656  255 255 255 255
10.2302 -14.9402 -25.6313 -0.546226 0.797712 -0.255526  255 255 255 255
18.5768 -5.22203 -21.1294 -0.687671 0.193307 0.699815  255 255 255 255
18.5192 5.15053 -21.2075 -0.703497 -0.195656 0.683235  255 255 255 255
17.3933 5.18319 -25.7805 -0.917983 -0.273559 -0.28718  255 255 255 255
17.3737 -5.09283 -25.6224 -0.928241 0.2721 -0.253635  255 255 255 255
17.4565 -7.68833 -21.3727 -0.696889 0.306929 0.648182  255 255 255 255
17.4325 7.66647 -21.4093 -0.703046 -0.309186 0.640415  255 255 255 255
16.7439 7.06485 -25.8587 -0.8778 -0.370374 -0.303793  255 255 255 255
16.7302 -7.04898 -25.7984 -0.881667 0.371475 -0.290981  255 255 255 255
8.85994 -17.1325 -21.1386 -0.329002 0.636194 0.697865  255 255 255 255
8.85989 17.1324 -21.1387 -0.329013 -0.636215 0.69784  255 255 255 255
-2.63206 -18.9246 -21.3353 0.103958 0.747466 0.656116  255 255 255 255
-2.63206 18.9246 -21.3353 0.103958 -0.747466 0.656116  255 255 255 255
8.29569 16.0565 -25.4937 -0.447101 -0.865376 -0.22633  255 255 255 255
8.29566 -16.0565 -25.4935 -0.447105 0.865386 -0.226283  255 255 255 255
-4.12633 -18.6518 -21.3399 0.163196 0.737675 0.655136  255 255 255 255
-4.12633 18.6518 -21.3399 0.163196 -0.737675 0.655136  255 255 255 255
-2.55179 17.9763 -25.8048 0.134404 -0.94682 -0.292347  255 255 255 255
-2.55179 -17.9763 -25.8048 0.134404 0.94682 -0.292347  255 255 255 255
10.3267 -16.1664 -21.2496 -0.397528 0.622326 0.674301  255 255 255 255
10.3266 16.1661 -21.25 -0.397563 -0.622379 0.674232  255 255 255 255
18.1785 -5.92564 -21.3202 -0.714846 0.233018 0.659317  255 255 255 255
18.1316 5.87433 -21.3906 -0.727472 -0.235688 0.644388  255 255 255 255
17.8102 -6.77381 -21.3961 -0.715669 0.272193 0.643217  255 255 255 255
17.7754 6.73956 -21.4501 -0.724821 -0.274817 0.631751  255 255 255 255
9.52586 -16.6311 -21.2685 -0.368838 0.643949 0.67029  255 255 255 255
9.52577 16.6309 -21.2687 -0.368858 -0.643984 0.670245  255 255 255 255
-3.41878 -18.9179 -21.2051 0.129769 0.718082 0.683753  255 255 255 255
-3.41878 18.9179 -21.2051 0.129769 -0.718082 0.683753  255 255 255 255
7.059 16.675 -25.6332 -0.376853 -0.890214 -0.25593  255 255 255 255
7.05899 -16.675 -25.6331 -0.376855 0.89022 -0.255907  255 255 255 255
5.80898 17.0923 -25.4015 -0.31483 -0.926356 -0.206754  255 255 255 255
5.80897 -17.0923 -25.4014 -0.314831 0.926358 -0.206741  255 255 255 255
-11.0882 14.1196 -24.2779 0.617315 -0.786079 0.031668  255 255 255 255
-11.0882 -14.1196 -24.2779 0.617315 0.786079 0.031668  255 255 255 255
17.9192 -1.76849 -25.1491 -0.983416 0.097056 -0.15321  255 255 255 255
12.7571 12.7065 -25.1439 -0.700266 -0.69749 -0.152103  255 255 255 255
12.7565 -12.7062 -25.1403 -0.700341 0.69758 -0.151343  255 255 255 255
-8.27855 15.9821 -25.0998 0.455238 -0.878854 -0.142738  255 255 255 255
-8.27855 -15.9821 -25.0998 0.455238 0.878854 -0.142738  255 255 255 255
1.74699 17.9252 -25.1733 -0.095777 -0.982729 -0.158336  255 255 255 255
1.74699 -17.9252 -25.1733 -0.095777 0.982729 -0.158335  255 255 255 255
3.84203 17.6078 -25.2449 -0.20995 -0.96219 -0.173524  255 255 255 255
3.84203 -17.6078 -25.2449 -0.20995 0.962191 -0.17352  255 255 255 255
13.9553 11.3998 -25.2303 -0.763122 -0.623375 -0.170436  255 255 255 255
13.954 -11.3992 -25.2224 -0.763333 0.623574 -0.168757  255 255 255 255
18.0193 -0.011714 -25.2286 -0.985431 0.000641 -0.170073  255 255 255 255
-11.0283 -15.4144 -21.5213 0.458066 0.640248 0.61665  255 255 255 255
-11.0283 15.4144 -21.5213 0.458066 -0.640248 0.61665  255 255 255 255
18.9223 -1.25922 -21.5074 -0.78319 0.052119 0.619595  255 255 255 255
13.8583 -12.9576 -21.497 -0.572068 0.534889 0.621797  255 255 255 255
13.8566 12.9556 -21.5004 -0.572487 -0.535262 0.62109  255 255 255 255
-8.56777 -16.7752 -21.6769 0.369344 0.723154 0.583638  255 255 255 255
-8.56777 16.7752 -21.6769 0.369344 -0.723154 0.583638  255 255 255 255
2.5961 -18.7668 -21.5313 -0.108102 0.78145 0.614532  255 255 255 255
2.5961 18.7667 -21.5313 -0.108102 -0.781451 0.614531  255 255 255 255
19.3164 0.753579 -21.0948 -0.706517 -0.027563 0.707159  255 255 255 255
15.4436 -11.6445 -21.0843 -0.562771 0.42433 0.709389  255 0 0 255
15.4398 11.6407 -21.0896 -0.563691 -0.424989 0.708263  255 255 255 255
4.63803 -18.7562 -21.1047 -0.170234 0.688427 0.705046  255 255 255 255
4.63803 18.7562 -21.1048 -0.170234 -0.688429 0.705043  255 255 255 255
1.4774 -19.0247 -21.3641 -0.058836 0.757642 0.650014  255 255 255 255
1.4774 19.0247 -21.3641 -0.058836 -0.757642 0.650013  255 255 255 255
-7.66815 -17.4218 -21.4203 0.310179 0.704717 0.638093  255 255 255 255
-7.66815 17.4218 -21.4203 0.310179 -0.704717 0.638093  255 255 255 255
13.1481 -13.8688 -21.3309 -0.518642 0.547074 0.657054  255 255 255 255
13.1471 13.8676 -21.3327 -0.518877 -0.547311 0.656672  255 255 255 255
18.9478 -2.40631 -21.3432 -0.750085 0.095258 0.654445  255 255 255 255
19.0875 1.84291 -21.2572 -0.73649 -0.071108 0.672701  255 255 255 255
-3.48101 17.7288 -25.4692 0.187899 -0.956971 -0.221135  255 255 255 255
-3.48101 -17.7288 -25.4692 0.187899 0.956971 -0.221135  255 255 255 255
9.36232 15.4601 -25.498 -0.50445 -0.833002 -0.227238  255 255 255 255
9.36226 -15.46 -25.4976 -0.50446 0.83302 -0.227152  255 255 255 255
17.0145 6.13498 -25.5517 -0.913539 -0.329398 -0.238628  255 255 255 255
16.9985 -6.10533 -25.4439 -0.918967 0.330065 -0.21577  255 255 255 255
-11.5706 13.7367 -24.7306 0.642891 -0.763247 -0.064382  255 255 255 255
-11.5706 -13.7367 -24.7306 0.642891 0.763247 -0.064382  255 255 255 255
-11.8052 13.6895 -25.5096 0.635602 -0.737051 -0.229709  255 255 255 255
-11.8052 -13.6895 -25.5096 0.635602 0.737051 -0.229709  255 255 255 255
-12.4566 13.0702 -25.4153 0.674572 -0.7078 -0.209693  255 255 255 255
-12.4566 -13.0702 -25.4153 0.674572 0.7078 -0.209693  255 255 255 255
3.54412 -19.3559 -20.781 -0.1141 0.623145 0.773739  255 255 255 255
3.54412 19.3559 -20.781 -0.1141 -0.623146 0.773738  255 255 255 255
-9.64867 -16.8913 -20.9774 0.33789 0.591522 0.732074  255 255 255 255
-9.64867 16.8913 -20.9774 0.33789 -0.591522 0.732074  255 255 255 255
14.9823 -12.7835 -20.767 -0.479147 0.408828 0.77671  255 0 0 255
14.9805 12.7815 -20.7692 -0.47959 -0.409192 0.776245  255 255 255 255
19.6841 -0.414953 -20.7722 -0.631071 0.013303 0.775611  255 255 255 255
-18.449 -2.02388 -26.7443 0.865567 0.094954 -0.491709  255 255 255 255
-18.449 2.02388 -26.7443 0.865567 -0.094954 -0.491709  255 255 255 255
-14.8157 -10.2287 -23.7224 0.813673 0.561755 0.149561  255 255 255 255
-14.8157 10.2287 -23.7224 0.813673 -0.561755 0.149561  255 255 255 255
-18.0566 4.75846 -26.9345 0.818736 -0.215762 -0.532088  255 255 255 255
-18.0566 -4.75846 -26.9345 0.818736 0.215762 -0.532088  255 255 255 255
-17.0393 7.17275 -26.6114 0.816677 -0.343783 -0.463521  255 255 255 255
-17.0393 -7.17275 -26.6114 0.816677 0.343783 -0.463521  255 255 255 255
-15.4384 -10.49 -21.9326 0.701732 0.476806 0.529366  255 255 255 255
-15.4384 10.49 -21.9326 0.701732 -0.476806 0.529366  255 255 255 255
-19.3095 -6.09029 -20.3812 0.488922 0.154209 0.858589  255 255 255 255
-19.3095 6.09029 -20.3812 0.488922 -0.154209 0.858589  255 255 255 255
-18.262 4.02435 -26.9771 0.821249 -0.180977 -0.541108  255 255 255 255
-18.262 -4.02435 -26.9771 0.821249 0.180977 -0.541108  255 255 255 255
-17.7027 5.27005 -26.5787 0.852705 -0.253848 -0.456568  255 255 255 255
-17.7027 -5.27005 -26.5787 0.852705 0.253848 -0.456568  255 255 255 255
-17.3537 -5.42387 -22.97 0.907688 0.283696 0.309223  255 255 255 255
-17.3537 5.42387 -22.97 0.907688 -0.283696 0.309223  255 255 255 255
-17.7746 -3.16177 -23.4474 0.963028 0.171304 0.207924  255 255 255 255
-17.7746 3.16177 -23.4474 0.963028 -0.171304 0.207924  255 255 255 255
-18.2532 -2.81286 -22.2792 0.879689 0.135562 0.455818  255 255 255 255
-18.2532 2.81286 -22.2792 0.879689 -0.135562 0.455818  255 255 255 255
-17.7619 -2.65481 -24.143 0.987214 0.147555 0.060304  255 255 255 255
-17.7619 2.65481 -24.143 0.987214 -0.147555 0.060304  255 255 255 255
-15.6613 -11.705 -20.8876 0.528797 0.395215 0.751118  255 255 255 255
-15.6613 11.705 -20.8876 0.528797 -0.395215 0.751118  255 255 255 255
-17.69 -3.14951 -24.8332 0.980857 0.174631 -0.086158  255 255 255 255
-17.69 3.14951 -24.8332 0.980857 -0.174631 -0.086158  255 255 255 255
-18.6493 -2.42252 -21.7199 0.811679 0.105436 0.574509  255 255 255 255
-18.6493 2.42252 -21.7199 0.811679 -0.105436 0.574509  255 255 255 255
-17.3978 -8.29488 -21.1529 0.649165 0.309508 0.694831  255 255 255 255
-17.3978 8.29488 -21.1529 0.649165 -0.309508 0.694831  255 255 255 255
-17.895 -2.44554 -25.4424 0.967524 0.132223 -0.21544  255 255 255 255
-17.895 2.44554 -25.4424 0.967524 -0.132223 -0.21544  255 255 255 255
-15.2773 -9.95107 -22.8223 0.787832 0.513166 0.340561  255 255 255 255
-15.2773 9.95107 -22.8223 0.787832 -0.513166 0.340561  255 255 255 255
-15.938 8.31222 -23.945 0.882007 -0.459996 0.102314  255 255 255 255
-15.938 -8.31222 -23.945 0.882007 0.459996 0.102314  255 255 255 255
-16.8476 -7.9749 -21.9736 0.771677 0.365277 0.52066  255 255 255 255
-16.8476 7.9749 -21.9736 0.771677 -0.365277 0.52066  255 255 255 255
-16.2618 7.78083 -25.2742 0.887367 -0.424581 -0.17975  255 255 255 255
-16.2618 -7.78083 -25.2742 0.887367 0.424581 -0.17975  255 255 255 255
-15.9665 -10.8635 -21.1142 0.587962 0.400044 0.70304  255 255 255 255
-15.9665 10.8635 -21.1142 0.587962 -0.400044 0.70304  255 255 255 255
-16.409 -11.4081 -20.5497 0.466603 0.324398 0.822829  255 0 0 255
-16.409 11.4081 -20.5497 0.466603 -0.324398 0.822829  255 255 255 255
-14.1108 11.2244 -25.2914 0.769329 -0.611961 -0.183401  255 255 255 255
-14.1108 -11.2244 -25.2914 0.769329 0.611961 -0.183401  255 255 255 255
-16.9396 -10.279 -20.6733 0.516809 0.3136 0.796595  255 0 0 255
-16.9396 10.279 -20.6733 0.516809 -0.3136 0.796595  255 0 0 255
-15.4542 9.25613 -23.6563 0.846339 -0.506905 0.163577  255 255 255 255
-15.4542 -9.25613 -23.6563 0.846339 0.506905 0.163577  255 255 255 255
-13.0049 -14.5454 -20.9238 0.445768 0.498569 0.743451  255 255 255 255
-13.0049 14.5454 -20.9238 0.445768 -0.498569 0.743451  255 255 255 255
-14.4089 10.7082 -24.5484 0.802358 -0.596288 -0.02573  255 255 255 255
-14.4089 -10.7082 -24.5484 0.802358 0.596288 -0.02573  255 255 255 255
-13.6602 -12.6868 -21.9686 0.625099 0.580554 0.521735  255 255 255 255
-13.6602 12.6868 -21.9686 0.625099 -0.580554 0.521735  255 255 255 255
-15.8362 -12.3158 -20.498 0.435786 0.338911 0.833805  255 0 0 255
-15.8362 12.3158 -20.498 0.435786 -0.338911 0.833805  255 255 255 255
18.2083 -0.345359 -25.9735 -0.944459 0.017914 -0.328141  255 255 255 255
13.8897 11.7791 -25.9742 -0.720405 -0.610936 -0.32829  255 255 255 255
13.8883 -11.7782 -25.9695 -0.720658 0.611165 -0.327307  255 255 255 255
-9.38402 15.3932 -25.2775 0.511979 -0.83983 -0.18045  255 255 255 255
-9.38402 -15.3932 -25.2775 0.511979 0.83983 -0.18045  255 255 255 255
3.30489 17.8729 -25.8666 -0.173138 -0.93633 -0.305467  255 255 255 255
3.30489 -17.8729 -25.8666 -0.173138 0.93633 -0.305465  255 255 255 255
-17.2399 6.00611 -26.0964 0.883103 -0.307658 -0.354225  255 255 255 255
-17.2399 -6.00611 -26.0964 0.883103 0.307658 -0.354225  255 255 255 255
-15.9479 -9.45938 -22.1412 0.752106 0.446106 0.485105  255 255 255 255
-15.9479 9.45938 -22.1412 0.752106 -0.446106 0.485105  255 255 255 255
-18.1554 -1.70563 -26.0403 0.935461 0.087883 -0.342329  255 255 255 255
-18.1554 1.70563 -26.0403 0.935461 -0.087883 -0.342329  255 255 255 255
-13.004 12.8416 -26.1476 0.662419 -0.654144 -0.3651  255 255 255 255
-13.004 -12.8416 -26.1476 0.662419 0.654144 -0.3651  255 255 255 255
-18.0892 -7.31518 -20.9229 0.619832 0.250657 0.743626  255 255 255 255
-18.0892 7.31518 -20.9229 0.619832 -0.250657 0.743626  255 255 255 255
-13.9027 -11.6218 -23.1735 0.73959 0.618248 0.266039  255 255 255 255
-13.9027 11.6218 -23.1735 0.73959 -0.618248 0.266039  255 255 255 255
-12.0303 -15.0026 -21.1987 0.455704 0.568293 0.685111  255 255 255 255
-12.0303 15.0026 -21.1987 0.455704 -0.568293 0.685111  255 255 255 255
-17.0635 5.69936 -25.0358 0.940547 -0.314152 -0.12915  255 255 255 255
-17.0635 -5.69936 -25.0358 0.940547 0.314152 -0.12915  255 255 255 255
-14.9995 10.7619 -26.5598 0.72453 -0.519839 -0.452574  255 255 255 255
-14.9995 -10.7619 -26.5598 0.72453 0.519839 -0.452574  255 255 255 255
-13.7021 -13.8285 -20.964 0.477325 0.48173 0.734913  255 255 255 255
-13.7021 13.8285 -20.964 0.477325 -0.48173 0.734913  255 255 255 255
-16.1977 7.73971 -24.5327 0.90206 -0.431029 -0.022406  255 255 255 255
-16.1977 -7.73971 -24.5327 0.90206 0.431029 -0.022406  255 255 255 255
-14.4893 -13.6602 -20.6003 0.424574 0.400279 0.812104  255 255 255 255
-14.4893 13.6602 -20.6003 0.424574 -0.400279 0.812104  255 255 255 255
-14.2497 10.9886 -23.7855 0.784515 -0.604974 0.136174  255 255 255 255
-14.2497 -10.9886 -23.7855 0.784515 0.604974 0.136174  255 255 255 255
-15.8865 8.72743 -25.7003 0.843857 -0.463583 -0.270178  255 255 255 255
-15.8865 -8.72743 -25.7003 0.843857 0.463583 -0.270178  255 255 255 255
-14.7769 10.4067 -25.4968 0.796255 -0.560763 -0.226987  255 255 255 255
-14.7769 -10.4067 -25.4968 0.796255 0.560763 -0.226987  255 255 255 255
-15.5819 10.133 -26.7918 0.725141 -0.471564 -0.501795  255 255 255 255
-15.5819 -10.133 -26.7918 0.725141 0.471564 -0.501795  255 255 255 255
-16.4301 7.98538 -26.1268 0.838862 -0.407706 -0.360675  255 255 255 255
-16.4301 -7.98538 -26.1268 0.838862 0.407706 -0.360675  255 255 255 255
-15.1555 -11.4837 -21.4443 0.61703 0.467538 0.632995  255 255 255 255
-15.1555 11.4837 -21.4443 0.61703 -0.467538 0.632995  255 255 255 255
-16.6142 -8.91714 -21.6501 0.711846 0.382062 0.589326  255 255 255 255
-16.6142 8.91714 -21.6501 0.711846 -0.382062 0.589326  255 255 255 255
-12.5888 13.3212 -22.5783 0.631771 -0.668527 0.392348  255 255 255 255
-12.5888 -13.3212 -22.5783 0.631771 0.668527 0.392348  255 255 255 255
-17.9677 -1.22598 -25.1692 0.985232 0.067225 -0.157474  255 255 255 255
-17.9677 1.22598 -25.1692 0.985232 -0.067225 -0.157474  255 255 255 255
-17.0507 -7.00104 -22.3523 0.830556 0.341028 0.440314  255 255 255 255
-17.0507 7.00104 -22.3523 0.830556 -0.341028 0.440314  255 255 255 255
-16.3133 -8.63501 -22.3008 0.788724 0.41749 0.45124  255 255 255 255
-16.3133 8.63501 -22.3008 0.788724 -0.41749 0.45124  255 255 255 255
-14.3837 -12.1542 -21.6842 0.621083 0.524815 0.582087  255 255 255 255
-14.3837 12.1542 -21.6842 0.621083 -0.524815 0.582087  255 255 255 255
4.14081 17.7996 -26.145 -0.210992 -0.906968 -0.364543  255 255 255 255
4.14081 -17.7996 -26.145 -0.210993 0.906969 -0.36454  255 255 255 255
14.4085 11.2426 -26.1469 -0.734023 -0.572741 -0.364936  255 255 255 255
14.4065 -11.2414 -26.1411 -0.734394 0.573046 -0.363707  255 255 255 255
18.2701 0.394679 -26.1435 -0.931097 -0.020114 -0.364217  255 255 255 255
-7.92435 16.4304 -26.0572 0.407596 -0.845113 -0.345905  255 255 255 255
-7.92435 -16.4304 -26.0572 0.407596 0.845113 -0.345905  255 255 255 255
2.07298 18.1985 -26.2468 -0.1044 -0.916515 -0.386137  255 255 255 255
2.07298 -18.1984 -26.2468 -0.1044 0.916515 -0.386136  255 255 255 255
-10.5387 14.6055 -23.6774 0.577682 -0.800604 0.15911  255 255 255 255
-10.5387 -14.6055 -23.6774 0.577682 0.800604 0.15911  255 255 255 255
1.77196 18.3591 -22.3273 -0.086005 -0.891084 0.445616  255 255 255 255
1.77196 -18.3591 -22.3273 -0.086004 0.891083 0.445617  255 255 255 255
-7.65593 16.7244 -22.4329 0.377121 -0.823823 0.423197  255 255 255 255
-7.65593 -16.7244 -22.4329 0.377121 0.823823 0.423197  255 255 255 255
12.9357 13.1815 -22.2796 -0.623461 -0.635307 0.455722  255 255 255 255
12.9367 -13.1829 -22.2762 -0.623189 0.635048 0.456453  255 255 255 255
18.3521 -2.0116 -22.2922 -0.886174 0.097135 0.453057  255 255 255 255
-12.6906 12.6957 -24.3841 0.706937 -0.707218 0.009147  255 255 255 255
-12.6906 -12.6957 -24.3841 0.706937 0.707218 0.009147  255 255 255 255
-9.4422 15.532 -22.9846 0.494524 -0.813472 0.30612  255 255 255 255
-9.4422 -15.532 -22.9846 0.494524 0.813472 0.30612  255 255 255 255
-9.74329 15.1041 -23.9585 0.539389 -0.836164 0.099447  255 255 255 255
-9.74329 -15.1041 -23.9585 0.539389 0.836164 0.099447  255 255 255 255
-10.1585 15.4408 -22.2519 0.487556 -0.741079 0.461618  255 255 255 255
-10.1585 -15.4408 -22.2519 0.487556 0.741079 0.461618  255 255 255 255
-11.095 14.2199 -25.321 0.603987 -0.774095 -0.189675  255 255 255 255
-11.095 -14.2199 -25.321 0.603987 0.774095 -0.189675  255 255 255 255
19.6947 -1.74729 -20.7058 -0.611089 0.054215 0.789703  255 255 255 255
14.1442 -13.8248 -20.7009 -0.43777 0.427886 0.790741  255 255 255 255
14.1432 13.8237 -20.7021 -0.437996 -0.428101 0.790499  255 0 0 255
-8.6112 -17.7014 -20.7752 0.27647 0.568317 0.774971  255 255 255 255
-8.6112 17.7014 -20.7752 0.27647 -0.568317 0.774971  255 0 0 255
2.23767 -19.6334 -20.7148 -0.069748 0.611969 0.7878  255 255 255 255
2.23767 19.6334 -20.7148 -0.069748 -0.611969 0.7878  255 0 0 255
-10.4555 15.0002 -26.1693 0.531311 -0.762254 -0.3697  255 255 255 255
-10.4555 -15.0002 -26.1693 0.531311 0.762254 -0.3697  255 255 255 255
-3.11173 18.1745 -26.5162 0.151269 -0.883511 -0.443312  255 255 255 255
-3.11173 -18.1745 -26.5162 0.151269 0.883511 -0.443312  255 255 255 255
9.01317 16.0578 -26.4657 -0.441297 -0.78621 -0.432586  255 255 255 255
9.01313 -16.0577 -26.4655 -0.441304 0.786224 -0.432554  255 255 255 255
-3.18718 -19.5568 -20.673 0.097219 0.596544 0.79667  255 255 255 255
-3.18718 19.5568 -20.673 0.097219 -0.596544 0.79667  255 255 255 255
17.1879 6.71919 -26.5474 -0.831769 -0.32516 -0.449924  255 255 255 255
17.1732 -6.70087 -26.5065 -0.835994 0.326199 -0.441258  255 255 255 255
9.58318 -17.3883 -20.6434 -0.287702 0.522023 0.802945  255 255 255 255
9.58313 17.3882 -20.6435 -0.287712 -0.522041 0.802929  255 255 255 255
17.5423 5.70556 -26.5319 -0.850837 -0.276731 -0.446649  255 255 255 255
17.5231 -5.66399 -26.4686 -0.857609 0.277205 -0.433203  255 255 255 255
18.338 -7.39034 -20.7065 -0.569194 0.229389 0.789556  255 255 255 255
18.3184 7.37276 -20.7258 -0.574162 -0.231088 0.785453  255 255 255 255
9.99396 15.4699 -26.4717 -0.488906 -0.75679 -0.433866  255 255 255 255
9.99388 -15.4698 -26.4714 -0.48892 0.756812 -0.433812  255 255 255 255
18.9423 -5.89848 -20.6544 -0.572082 0.178141 0.800617  255 255 255 255
18.9096 5.86046 -20.6866 -0.580954 -0.18005 0.793772  255 255 255 255
-4.16245 17.9525 -26.4954 0.202951 -0.875321 -0.438889  255 255 255 255
-4.16245 -17.9525 -26.4954 0.202951 0.875321 -0.438889  255 255 255 255
-2.07136 18.3291 -26.5298 0.100497 -0.889278 -0.446189  255 255 255 255
-2.07136 -18.3291 -26.5298 0.100497 0.889278 -0.446189  255 255 255 255
10.9375 -16.5934 -20.6289 -0.325742 0.494189 0.806021  255 0 0 255
10.9374 16.5932 -20.6291 -0.325768 -0.494227 0.805986  255 255 255 255
7.97677 16.6226 -26.513 -0.387951 -0.80844 -0.442628  255 255 255 255
7.97675 -16.6225 -26.5129 -0.387955 0.808447 -0.44261  255 255 255 255
-4.69015 -19.2315 -20.688 0.144193 0.591251 0.793493  255 255 255 255
-4.69015 19.2315 -20.688 0.144193 -0.591251 0.793493  255 255 255 255
16.7802 7.68859 -26.5537 -0.811283 -0.371726 -0.451265  255 255 255 255
16.7699 -7.67918 -26.5273 -0.813919 0.372705 -0.445676  255 255 255 255
-2.17481 -19.663 -20.6974 0.067189 0.607471 0.791495  255 255 255 255
-2.17481 19.663 -20.6974 0.067189 -0.607471 0.791495  255 255 255 255
8.68796 -17.8425 -20.65 -0.261766 0.537591 0.801545  255 255 255 255
8.68794 17.8425 -20.6501 -0.261772 -0.537602 0.801536  255 255 255 255
17.8382 4.67444 -26.5191 -0.866791 -0.22714 -0.443938  255 255 255 255
17.8162 -4.58129 -26.4264 -0.877015 0.225518 -0.424247  255 255 255 255
17.9431 -8.36998 -20.6848 -0.550728 0.2569 0.794167  255 255 255 255
17.9301 8.35882 -20.6975 -0.553968 -0.258254 0.79147  255 0 0 255
10.9001 14.8191 -26.4272 -0.536503 -0.729399 -0.424431  255 255 255 255
10.8999 -14.819 -26.4268 -0.536528 0.729435 -0.424336  255 255 255 255
-5.19322 17.673 -26.4778 0.253835 -0.863825 -0.43517  255 255 255 255
-5.19322 -17.673 -26.4778 0.253835 0.863825 -0.43517  255 255 255 255
19.2379 -4.96428 -20.6331 -0.574285 0.148192 0.805131  255 0 0 255
19.1961 4.90114 -20.6752 -0.586221 -0.149674 0.796205  255 0 0 255
-0.99956 18.3865 -26.4641 0.04895 -0.900421 -0.432256  255 255 255 255
-0.99956 -18.3865 -26.4641 0.04895 0.900421 -0.432256  255 255 255 255
7.10456 17.1051 -26.676 -0.33708 -0.811564 -0.477222  255 255 255 255
7.10455 -17.1051 -26.676 -0.337082 0.811568 -0.477213  255 255 255 255
11.753 -16.0441 -20.6183 -0.347955 0.474993 0.808276  255 0 0 255
11.7529 16.0438 -20.6185 -0.347997 -0.47505 0.808223  255 0 0 255
-5.69704 -18.9885 -20.6655 0.173087 0.576907 0.79826  255 255 255 255
-5.69704 18.9885 -20.6655 0.173087 -0.576907 0.79826  255 0 0 255
16.2743 8.63446 -26.4834 -0.794831 -0.421705 -0.436359  255 255 255 255
16.267 -8.6291 -26.465 -0.79653 0.422532 -0.432442  255 255 255 255
-1.04891 -19.757 -20.6959 0.032381 0.609919 0.791802  255 255 255 255
-1.04891 19.757 -20.6959 0.032381 -0.609919 0.791802  255 0 0 255
7.65092 -18.274 -20.6759 -0.233734 0.558266 0.796058  255 255 255 255
7.6509 18.274 -20.6759 -0.233737 -0.558273 0.796052  255 0 0 255
18.0518 3.60175 -26.4516 -0.885565 -0.17669 -0.429599  255 255 255 255
18.0519 -3.46377 -26.395 -0.892351 0.171223 -0.417602  255 255 255 255
11.7882 14.1023 -26.3931 -0.582868 -0.69729 -0.417196  255 255 255 255
11.7879 -14.1021 -26.3924 -0.582914 0.697348 -0.417033  255 255 255 255
17.4571 -9.38225 -20.6701 -0.531687 0.285753 0.797279  255 0 0 255
17.4486 9.37498 -20.6784 -0.533764 -0.286787 0.795518  255 0 0 255
-6.1987 17.3042 -26.3944 0.306443 -0.855461 -0.417469  255 255 255 255
-6.1987 -17.3042 -26.3944 0.306443 0.855461 -0.417469  255 255 255 255
0.117432 18.381 -26.3955 -0.005805 -0.908571 -0.417689  255 255 255 255
0.117432 -18.381 -26.3955 -0.005805 0.908571 -0.417689  255 255 255 255
19.47 -3.9397 -20.6357 -0.582044 0.117775 0.804583  255 0 0 255
19.4245 3.80635 -20.6889 -0.597483 -0.117081 0.793288  255 255 255 255
6.19266 17.3496 -26.4807 -0.302563 -0.847672 -0.435785  255 255 255 255
6.19265 -17.3496 -26.4807 -0.302564 0.847675 -0.435777  255 255 255 255
12.5803 -15.3896 -20.6264 -0.374146 0.457698 0.806553  255 0 0 255
12.58 15.3892 -20.6268 -0.374217 -0.457782 0.806472  255 255 255 255
15.6917 9.58677 -26.4107 -0.774064 -0.472911 -0.420928  255 255 255 255
15.6869 -9.58361 -26.3983 -0.775111 0.47354 -0.418285  255 255 255 255
-6.7065 -18.6861 -20.6442 0.201428 0.56123 0.802775  255 0 0 255
-6.7065 18.6861 -20.6442 0.201428 -0.56123 0.802775  255 255 255 255
4.60745 -19.4823 -20.526 -0.129096 0.545873 0.827863  255 255 255 255
4.60745 19.4823 -20.526 -0.129096 -0.545874 0.827862  255 0 0 255
0.054812 -19.8427 -20.6519 -0.001653 0.598463 0.801149  255 0 0 255
0.054812 19.8427 -20.6519 -0.001653 -0.598463 0.801149  255 0 0 255
18.211 2.48495 -26.3918 -0.900602 -0.12289 -0.416911  255 255 255 255
-10.7791 -16.4042 -20.8217 0.353591 0.538112 0.76512  255 255 255 255
-10.7791 16.4042 -20.8217 0.353591 -0.538112 0.76512  255 255 255 255
6.57017 -18.7254 -20.6506 -0.198016 0.564359 0.801429  255 0 0 255
6.57017 18.7254 -20.6506 -0.198018 -0.564363 0.801426  255 0 0 255
15.8907 -12.1947 -20.5186 -0.443168 0.340093 0.829421  255 0 0 255
15.8887 12.1928 -20.5205 -0.44363 -0.340434 0.829034  255 255 255 255
16.9218 -10.389 -20.6417 -0.507548 0.311604 0.803304  255 0 0 255
16.9165 10.3843 -20.6469 -0.508834 -0.31235 0.802201  255 0 0 255
20.0154 0.615692 -20.5225 -0.559571 -0.017213 0.828604  255 0 0 255
19.6394 -2.88217 -20.6467 -0.590664 0.086683 0.802248  255 0 0 255
19.6597 2.6697 -20.6539 -0.593593 -0.080608 0.800718  255 0 0 255
18.2239 -2.31549 -26.3714 -0.903651 0.114816 -0.412591  255 255 255 255
13.3814 -14.6723 -20.6406 -0.401114 0.439809 0.80354  255 255 255 255
13.3809 14.6716 -20.6412 -0.401237 -0.439939 0.803407  255 0 0 255
5.11192 17.6376 -26.3559 -0.253989 -0.876334 -0.409302  255 255 255 255
5.11192 -17.6376 -26.3559 -0.253989 0.876336 -0.409297  255 255 255 255
-7.65904 -18.2751 -20.6727 0.233587 0.55736 0.796735  255 0 0 255
-7.65904 18.2751 -20.6727 0.233587 -0.55736 0.796735  255 255 255 255
12.6506 13.3192 -26.3693 -0.627468 -0.660629 -0.412133  255 255 255 255
12.6501 -13.3188 -26.3679 -0.627554 0.660725 -0.411847  255 255 255 255
15.0549 10.4949 -26.33 -0.750493 -0.523177 -0.403789  255 255 255 255
15.0518 -10.493 -26.3218 -0.751113 0.52362 -0.402059  255 255 255 255
-7.17132 16.8732 -26.2887 0.359337 -0.845475 -0.39503  255 255 255 255
-7.17132 -16.8732 -26.2887 0.359337 0.845475 -0.39503  255 255 255 255
1.11749 -19.8056 -20.6561 -0.033782 0.598724 0.800243  255 0 0 255
1.11749 19.8056 -20.6561 -0.033782 -0.598724 0.800242  255 255 255 255
1.22567 18.3105 -26.3291 -0.061107 -0.912889 -0.403608  255 255 255 255
1.22567 -18.3105 -26.3291 -0.061107 0.912889 -0.403607  255 255 255 255
5.51588 -19.1338 -20.6004 -0.161647 0.560733 0.812065  255 255 255 255
5.51588 19.1338 -20.6004 -0.161648 -0.560735 0.812063  255 0 0 255
18.2961 1.3789 -26.3211 -0.91309 -0.068816 -0.40191  255 255 255 255
16.3704 -11.3583 -20.592 -0.477404 0.331238 0.813859  255 0 0 255
16.3671 11.3552 -20.5951 -0.478177 -0.331751 0.813196  255 255 255 255
19.8539 1.56615 -20.5986 -0.581226 -0.045849 0.812449  255 0 0 255
-13.9541 -12.0397 -22.3561 0.68009 0.586788 0.439497  255 255 255 255
-13.9541 12.0397 -22.3561 0.68009 -0.586788 0.439497  255 255 255 255
-16.6652 8.25632 -26.8114 0.772911 -0.382917 -0.505947  255 255 255 255
-16.6652 -8.25632 -26.8114 0.772911 0.382917 -0.505947  255 255 255 255
6.52213 16.7247 -24.3406 -0.363259 -0.931507 0.01837  255 255 255 255
6.52213 -16.7247 -24.3405 -0.363259 0.931507 0.018394  255 255 255 255
7.69417 16.2186 -24.3599 -0.428574 -0.903394 0.014264  255 255 255 255
7.69417 -16.2186 -24.3597 -0.428574 0.903394 0.014313  255 255 255 255
-2.25788 18.4218 -22.11 0.105932 -0.864287 0.491718  255 255 255 255
-2.25788 -18.4218 -22.11 0.105932 0.864287 0.491718  255 255 255 255
8.83358 15.627 -24.3766 -0.492068 -0.870491 0.010729  255 255 255 255
8.83357 -15.627 -24.3762 -0.492067 0.87049 0.010823  255 255 255 255
17.1323 7.05211 -22.1689 -0.811626 -0.334087 0.479217  255 255 255 255
17.1614 -7.08057 -22.1013 -0.803961 0.331705 0.493577  255 255 255 255
8.66969 16.5741 -21.8702 -0.389335 -0.744306 0.542611  255 255 255 255
8.66975 -16.5743 -21.87 -0.38932 0.744279 0.542659  255 255 255 255
-3.27303 18.2963 -22.0628 0.152325 -0.851501 0.50174  255 255 255 255
-3.27303 -18.2963 -22.0628 0.152325 0.851501 0.501741  255 255 255 255
9.6159 15.8232 -22.1893 -0.45703 -0.752057 0.474904  255 255 255 255
9.61602 -15.8235 -22.1888 -0.457001 0.75201 0.475006  255 255 255 255
17.3826 6.0189 -22.4291 -0.85581 -0.296332 0.424001  255 255 255 255
17.423 -6.06525 -22.3191 -0.844638 0.294034 0.44736  255 255 255 255
-3.90036 -19.2968 -20.7734 0.125118 0.619012 0.775352  255 255 255 255
-3.90036 19.2968 -20.7734 0.125118 -0.619012 0.775352  255 255 255 255
10.1963 -16.874 -20.7505 -0.323499 0.535363 0.780214  255 255 255 255
10.1962 16.8738 -20.7507 -0.323518 -0.535395 0.780185  255 255 255 255
18.5185 -6.57669 -20.8025 -0.602179 0.213858 0.769185  255 255 255 255
18.4888 6.54689 -20.8344 -0.609966 -0.215988 0.762424  255 255 255 255
-12.3034 13.6457 -26.3777 0.609573 -0.676079 -0.41393  255 255 255 255
-12.3034 -13.6457 -26.3777 0.609573 0.676079 -0.41393  255 255 255 255
-17.4904 -7.17326 -21.585 0.737981 0.302664 0.603141  255 255 255 255
-17.4904 7.17326 -21.585 0.737981 -0.302664 0.603141  255 255 255 255
17.9617 0.409737 -24.0421 -0.996396 -0.022729 0.081716  255 255 255 255
14.1792 11.0335 -24.0433 -0.786587 -0.612084 0.081452  255 255 255 255
14.1796 -11.0347 -24.031 -0.786391 0.611981 0.084068  255 255 255 255
4.13114 17.4786 -24.1282 -0.229554 -0.971226 0.063438  255 255 255 255
4.13114 -17.4786 -24.1282 -0.229554 0.971226 0.063444  255 255 255 255
18.6209 1.01653 -21.9591 -0.850614 -0.046436 0.523737  255 255 255 255
15.0737 10.9874 -21.9519 -0.687641 -0.501232 0.525277  255 255 255 255
15.0785 -10.9925 -21.9408 -0.68643 0.500418 0.527633  255 255 255 255
4.79854 18.007 -21.9808 -0.220078 -0.825865 0.519146  255 255 255 255
4.79854 -18.007 -21.9807 -0.220077 0.825862 0.519152  255 255 255 255
17.8807 1.65828 -24.1743 -0.994293 -0.092212 0.053656  255 255 255 255
14.9154 9.9988 -24.187 -0.82955 -0.556102 0.050967  255 255 255 255
14.9158 -10.0004 -24.1654 -0.829313 0.556018 0.055542  255 255 255 255
0.873326 17.9412 -24.094 -0.048498 -0.996317 0.070708  255 255 255 255
0.873327 -17.9412 -24.094 -0.048498 0.996317 0.070709  255 255 255 255
-6.62536 16.6942 -24.1181 0.368085 -0.927476 0.065591  255 255 255 255
-6.62536 -16.6942 -24.1181 0.368085 0.927476 0.065591  255 255 255 255
11.8291 13.5091 -24.1994 -0.658008 -0.751457 0.048344  255 255 255 255
11.8291 -13.5093 -24.1968 -0.657985 0.751443 0.048889  255 255 255 255
5.36899 17.1334 -24.2257 -0.298752 -0.953372 0.04276  255 255 255 255
5.36899 -17.1334 -24.2256 -0.298751 0.953372 0.042773  255 255 255 255
17.7099 -2.95961 -24.2133 -0.985305 0.164661 0.04539  255 255 255 255
-2.44482 17.8008 -24.8295 0.13557 -0.987082 -0.085378  255 255 255 255
-2.44482 -17.8008 -24.8295 0.13557 0.987082 -0.085378  255 255 255 255
17.7336 2.7947 -24.2958 -0.987425 -0.155612 0.027874  255 255 255 255
16.5519 7.01276 -24.917 -0.915779 -0.388001 -0.103943  255 255 255 255
16.5464 -7.00522 -24.8339 -0.917435 0.388412 -0.086312  255 255 255 255
15.5307 9.00302 -24.3358 -0.864985 -0.501424 0.019391  255 255 255 255
15.5307 -9.00465 -24.3004 -0.864795 0.501405 0.026891  255 255 255 255
17.1949 5.17389 -24.661 -0.95641 -0.28778 -0.049626  255 255 255 255
17.1935 -5.15845 -24.4447 -0.957814 0.287366 -0.003716  255 255 255 255
9.99075 14.9135 -24.4395 -0.556565 -0.8308 -0.002613  255 255 255 255
9.99071 -14.9135 -24.4386 -0.556563 0.830802 -0.002435  255 255 255 255
-0.248948 17.9508 -24.2944 0.013861 -0.999507 0.028163  255 255 255 255
-0.248947 -17.9508 -24.2944 0.013861 0.999507 0.028164  255 255 255 255
-4.39715 17.4049 -24.5308 0.244883 -0.969303 -0.021985  255 255 255 255
-4.39715 -17.4049 -24.5308 0.244883 0.969303 -0.021984  255 255 255 255
-5.59335 17.0589 -24.2974 0.311447 -0.949864 0.027547  255 255 255 255
-5.59335 -17.0589 -24.2974 0.311447 0.949864 0.027547  255 255 255 255
-1.38368 17.8974 -24.4681 0.077079 -0.996987 -0.008676  255 255 255 255
-1.38368 -17.8974 -24.468 0.077079 0.996987 -0.008676  255 255 255 255
10.9085 14.284 -23.9692 -0.604068 -0.790986 0.097179  255 255 255 255
10.9085 -14.2841 -23.9677 -0.604045 0.790963 0.097499  255 255 255 255
18.4221 2.11944 -22.1387 -0.868439 -0.099913 0.485625  255 255 255 255
17.5121 3.94395 -24.4086 -0.975558 -0.219709 0.003946  255 255 255 255
17.4924 -4.11909 -23.9917 -0.969211 0.228229 0.092419  255 255 255 255
16.0876 7.96565 -24.5233 -0.895975 -0.443636 -0.020394  255 255 255 255
16.0864 -7.96609 -24.4665 -0.896108 0.443758 -0.008343  255 255 255 255
15.6281 9.99612 -22.1245 -0.734995 -0.470121 0.48864  255 255 255 255
15.6359 -10.0037 -22.1057 -0.733042 0.468994 0.49264  255 255 255 255
5.86858 17.5882 -22.1426 -0.276828 -0.829659 0.484802  255 255 255 255
5.86859 -17.5883 -22.1426 -0.276826 0.829653 0.484813  255 255 255 255
0.582306 18.5807 -22.0575 -0.027075 -0.863938 0.502869  255 255 255 255
0.582306 -18.5807 -22.0575 -0.027075 0.863938 0.50287  255 255 255 255
-6.67213 17.3459 -22.0659 0.310687 -0.807712 0.501073  255 255 255 255
-6.67213 -17.3459 -22.0659 0.310687 0.807712 0.501073  255 255 255 255
12.1484 14.1154 -22.0008 -0.559202 -0.649742 0.514906  255 255 255 255
12.1491 -14.1163 -21.9989 -0.559045 0.649569 0.515294  255 255 255 255
18.1897 3.21043 -22.275 -0.876071 -0.154624 0.456717  255 255 255 255
18.3298 -3.21936 -22.0225 -0.847038 0.14877 0.510288  255 255 255 255
16.167 8.97454 -22.2362 -0.774075 -0.429699 0.464937  255 255 255 255
16.1794 -8.9861 -22.2052 -0.770925 0.428174 0.471531  255 255 255 255
6.92726 17.1392 -22.2454 -0.332145 -0.82178 0.462988  255 255 255 255
6.92728 -17.1392 -22.2453 -0.332141 0.821769 0.46301  255 255 255 255
-0.612026 18.4593 -22.2777 0.029489 -0.889421 0.456136  255 255 255 255
-0.612026 -18.4593 -22.2777 0.029489 0.889421 0.456136  255 255 255 255
-5.52745 17.6774 -22.1791 0.262286 -0.83882 0.477061  255 255 255 255
-5.52745 -17.6774 -22.1791 0.262286 0.83882 0.477061  255 255 255 255
17.9462 5.00531 -21.9879 -0.82415 -0.229861 0.517629  255 255 255 255
18.0094 -5.08226 -21.8578 -0.806769 0.227671 0.545243  255 255 255 255
11.2617 14.695 -22.1929 -0.53556 -0.698837 0.474133  255 255 255 255
11.262 -14.6956 -22.1917 -0.535473 0.698729 0.474392  255 255 255 255
10.7135 15.391 -21.7975 -0.474076 -0.681056 0.558046  255 255 255 255
10.7137 -15.3914 -21.7968 -0.474017 0.680975 0.558194  255 255 255 255
17.9298 4.12726 -22.4217 -0.881863 -0.202997 0.425569  255 255 255 255
18.0073 -4.21119 -22.2319 -0.861618 0.201498 0.465846  255 255 255 255
-4.43997 17.9707 -22.1984 0.211332 -0.855359 0.472968  255 255 255 255
-4.43997 -17.9707 -22.1984 0.211332 0.855359 0.472968  255 255 255 255
-1.54492 18.3064 -22.4806 0.076584 -0.907474 0.413068  255 255 255 255
-1.54492 -18.3064 -22.4806 0.076584 0.907474 0.413068  255 255 255 255
16.6776 7.92385 -22.2877 -0.804781 -0.382367 0.454007  255 255 255 255
16.6974 -7.94194 -22.2382 -0.799708 0.380372 0.464526  255 255 255 255
7.81143 16.7002 -22.3427 -0.379983 -0.812372 0.44234  255 255 255 255
7.81146 -16.7002 -22.3425 -0.379975 0.812354 0.442379  255 255 255 255
18.5023 -0.2141 -26.6419 -0.882614 0.010213 -0.469988  255 255 255 255
14.2011 11.8627 -26.6425 -0.677369 -0.565831 -0.470112  255 255 255 255
14.2 -11.8619 -26.6401 -0.677575 0.56601 -0.469602  255 255 255 255
-9.61341 15.7307 -26.5095 0.467786 -0.765454 -0.44188  255 255 255 255
-9.61341 -15.7307 -26.5095 0.467786 0.765454 -0.44188  255 255 255 255
3.56113 18.1682 -26.6612 -0.169359 -0.864038 -0.474084  255 255 255 255
3.56112 -18.1682 -26.6612 -0.169359 0.864039 -0.474083  255 255 255 255
-13.1726 -12.9882 -22.221 0.62922 0.62041 0.468161  255 255 255 255
-13.1726 12.9882 -22.221 0.62922 -0.62041 0.468161  255 255 255 255
-17.7417 -3.5956 -25.6133 0.94852 0.192231 -0.25171  255 255 255 255
-17.7417 3.5956 -25.6133 0.94852 -0.192231 -0.25171  255 255 255 255
-14.6208 -10.7706 -23.0393 0.769414 0.566796 0.294524  255 255 255 255
-14.6208 10.7706 -23.0393 0.769414 -0.566796 0.294524  255 255 255 255
-17.4514 -4.30952 -24.9116 0.965693 0.238472 -0.1028  255 255 255 255
-17.4514 4.30952 -24.9116 0.965693 -0.238472 -0.1028  255 255 255 255
2.79441 18.2421 -26.5481 -0.135215 -0.882693 -0.450078  255 255 255 255
2.79441 -18.2421 -26.5481 -0.135215 0.882693 -0.450077  255 255 255 255
-8.75915 16.1126 -26.3017 0.438194 -0.806066 -0.397799  255 255 255 255
-8.75915 -16.1126 -26.3017 0.438194 0.806066 -0.397799  255 255 255 255
13.4958 12.4478 -26.3478 -0.671244 -0.619118 -0.407584  255 255 255 255
13.495 -12.4471 -26.3455 -0.671403 0.619272 -0.407089  255 255 255 255
18.3267 -1.10992 -26.3488 -0.911404 0.055197 -0.407793  255 255 255 255
-11.7644 -15.9257 -20.6845 0.361029 0.488732 0.794229  255 0 0 255
-11.7644 15.9257 -20.6845 0.361029 -0.488732 0.794229  255 255 255 255
-15.3948 9.35038 -25.1844 0.843591 -0.512375 -0.160702  255 255 255 255
-15.3948 -9.35038 -25.1844 0.843591 0.512375 -0.160702  255 255 255 255
-11.4887 14.3328 -26.3682 0.569919 -0.71101 -0.411894  255 255 255 255
-11.4887 -14.3328 -26.3682 0.569919 0.71101 -0.411894  255 255 255 255
2.05953 17.9004 -23.6306 -0.112656 -0.979151 0.16903  255 255 255 255
2.05953 -17.9004 -23.6306 -0.112656 0.979151 0.169032  255 255 255 255
-7.70011 16.2636 -23.787 0.423952 -0.895439 0.135845  255 255 255 255
-7.70011 -16.2636 -23.787 0.423952 0.895439 0.135845  255 255 255 255
12.8604 12.6378 -23.5626 -0.701147 -0.689008 0.183469  255 255 255 255
12.8609 -12.6386 -23.5577 -0.700996 0.688884 0.184509  255 255 255 255
17.9537 -1.64472 -23.5721 -0.979301 0.089713 0.181444  255 255 255 255
-13.2167 12.2471 -23.6296 0.722918 -0.669884 0.16925  255 255 255 255
-13.2167 -12.2471 -23.6296 0.722918 0.669884 0.16925  255 255 255 255
-12.716 12.8269 -23.4102 0.687442 -0.693436 0.215801  255 255 255 255
-12.716 -12.8269 -23.4102 0.687442 0.693436 0.215801  255 255 255 255
-16.9734 -9.31151 -21.0664 0.614563 0.337145 0.713194  255 255 255 255
-16.9734 9.31151 -21.0664 0.614563 -0.337145 0.713194  255 255 255 255
-11.7228 14.0482 -22.6542 0.593624 -0.711376 0.376237  255 255 255 255
-11.7228 -14.0482 -22.6542 0.593624 0.711376 0.376237  255 255 255 255
-17.5178 6.22556 -26.7991 0.814199 -0.289355 -0.503342  255 255 255 255
-17.5178 -6.22556 -26.7991 0.814199 0.289355 -0.503342  255 255 255 255
-10.4753 -17.2537 -20.4191 0.272938 0.449549 0.850536  255 0 0 255
-10.4753 17.2537 -20.4191 0.272938 -0.449549 0.850536  255 0 0 255
16.8414 6.21238 -24.4396 -0.938202 -0.346079 -0.002629  255 255 255 255
16.844 -6.20977 -24.3081 -0.937969 0.345796 0.025267  255 255 255 255
-3.27796 17.6513 -24.2771 0.182493 -0.982691 0.031853  255 255 255 255
-3.27796 -17.6513 -24.2771 0.182493 0.982691 0.031853  255 255 255 255
-18.1879 -0.775561 -25.9528 0.945281 0.040308 -0.323759  255 255 255 255
-18.1879 0.775561 -25.9528 0.945281 -0.040308 -0.323759  255 255 255 255
-15.5141 9.02981 -24.4292 0.864266 -0.503035 -0.000424  255 255 255 255
-15.5141 -9.02981 -24.4292 0.864266 0.503035 -0.000424  255 255 255 255
-16.5774 6.91005 -24.7233 0.921197 -0.383987 -0.062844  255 255 255 255
-16.5774 -6.91005 -24.7233 0.921197 0.383987 -0.062844  255 255 255 255
-12.0641 13.3085 -24.7634 0.669909 -0.739007 -0.071352  255 255 255 255
-12.0641 -13.3085 -24.7634 0.669909 0.739007 -0.071352  255 255 255 255
-18.0231 -2.5116 -22.9227 0.938597 0.130798 0.319262  255 255 255 255
-18.0231 2.5116 -22.9227 0.938597 -0.130798 0.319262  255 255 255 255
-17.8892 -2.23581 -23.5747 0.975911 0.12197 0.180891  255 255 255 255
-17.8892 2.23581 -23.5747 0.975911 -0.12197 0.180891  255 255 255 255
-18.3119 -1.85228 -22.4076 0.898926 0.090928 0.428561  255 255 255 255
-18.3119 1.85228 -22.4076 0.898926 -0.090928 0.428561  255 255 255 255
-16.8728 -6.66106 -23.1047 0.892762 0.352446 0.280639  255 255 255 255
-16.8728 6.66106 -23.1047 0.892762 -0.352446 0.280639  255 255 255 255
-17.8276 -2.19 -24.7484 0.99023 0.121643 -0.068171  255 255 255 255
-17.8276 2.19 -24.7484 0.99023 -0.121643 -0.068171  255 255 255 255
-15.2993 -13.0963 -20.4477 0.406882 0.348294 0.844475  255 0 0 255
-15.2993 13.0963 -20.4477 0.406882 -0.348294 0.844475  255 255 255 255
-17.9424 -4.72965 -22.1178 0.842895 0.222189 0.490061  255 255 255 255
-17.9424 4.72965 -22.1178 0.842895 -0.222189 0.490061  255 255 255 255
-17.8978 -1.48361 -24.1435 0.994774 0.08246 0.060206  255 255 255 255
-17.8978 1.48361 -24.1435 0.994774 -0.08246 0.060206  255 255 255 255
-14.2841 11.4349 -26.201 0.723243 -0.57898 -0.376433  255 255 255 255
-14.2841 -11.4349 -26.201 0.723243 0.57898 -0.376433  255 255 255 255
-17.5696 -3.72936 -24.1151 0.976059 0.207181 0.066223  255 255 255 255
-17.5696 3.72936 -24.1151 0.976059 -0.207181 0.066223  255 255 255 255
-18.7259 -1.13758 -21.786 0.826643 0.050218 0.560482  255 255 255 255
-18.7259 1.13758 -21.786 0.826643 -0.050218 0.560482  255 255 255 255
-18.4143 -3.65037 -21.7679 0.809801 0.160531 0.564315  255 255 255 255
-18.4143 3.65037 -21.7679 0.809801 -0.160531 0.564315  255 255 255 255
-15.8631 -8.96083 -22.8595 0.821097 0.463827 0.332663  255 255 255 255
-15.8631 8.96083 -22.8595 0.821097 -0.463827 0.332663  255 255 255 255
-19.2201 -1.94856 -21.1073 0.706081 0.071583 0.704504  255 255 255 255
-19.2201 1.94856 -21.1073 0.706081 -0.071583 0.704504  255 255 255 255
-16.8966 -6.13136 -23.9516 0.935224 0.339369 0.100919  255 255 255 255
-16.8966 6.13136 -23.9516 0.935224 -0.339369 0.100919  255 255 255 255
-18.3719 -5.3713 -21.2965 0.717378 0.209737 0.664364  255 255 255 255
-18.3719 5.3713 -21.2965 0.717378 -0.209737 0.664364  255 255 255 255
-13.8201 -14.4807 -20.5277 0.387653 0.406182 0.827491  255 255 255 255
-13.8201 14.4807 -20.5277 0.387653 -0.406182 0.827491  255 255 255 255
-13.0454 12.4307 -25.2301 0.71337 -0.67976 -0.170381  255 255 255 255
-13.0454 -12.4307 -25.2301 0.71337 0.67976 -0.170381  255 255 255 255
-14.9759 -10.6185 -22.5098 0.745173 0.52836 0.406882  255 255 255 255
-14.9759 10.6185 -22.5098 0.745173 -0.52836 0.406882  255 255 255 255
-17.2108 -6.27974 -22.5968 0.86566 0.315855 0.388418  255 255 255 255
-17.2108 6.27974 -22.5968 0.86566 -0.315855 0.388418  255 255 255 255
-19.0544 -3.15777 -21.1117 0.701066 0.116184 0.703568  255 255 255 255
-19.0544 3.15777 -21.1117 0.701066 -0.116184 0.703568  255 255 255 255
-15.8962 -8.60488 -23.3484 0.856066 0.463402 0.228932  255 255 255 255
-15.8962 8.60488 -23.3484 0.856066 -0.463402 0.228932  255 255 255 255
-16.4513 7.26644 -23.8625 0.908151 -0.401125 0.119834  255 255 255 255
-16.4513 -7.26644 -23.8625 0.908151 0.401125 0.119834  255 255 255 255
-13.7347 12.4404 -26.693 0.649863 -0.588623 -0.480834  255 255 255 255
-13.7347 -12.4404 -26.693 0.649863 0.588623 -0.480834  255 255 255 255
-12.5764 -15.4726 -20.5819 0.364597 0.448559 0.816005  255 255 255 255
-12.5764 15.4726 -20.5819 0.364597 -0.448559 0.816005  255 0 0 255
-18.0502 -1.37842 -23.2394 0.964906 0.073686 0.252045  255 255 255 255
-18.0502 1.37842 -23.2394 0.964906 -0.073686 0.252045  255 255 255 255
-17.9338 -3.65047 -22.6428 0.906936 0.184609 0.378665  255 255 255 255
-17.9338 3.65047 -22.6428 0.906936 -0.184609 0.378665  255 255 255 255
-17.582 -4.22415 -23.3211 0.945168 0.227081 0.234716  255 255 255 255
-17.582 4.22415 -23.3211 0.945168 -0.227081 0.234716  255 255 255 255
