ply
format ascii 1.0
comment VCGLIB generated
element vertex 1099
property float x
property float y
property float z
property float nx
property float ny
property float nz
property uchar red
property uchar green
property uchar blue
property uchar alpha
element face 0
property list uchar int vertex_indices
end_header
81.1949 -9 115.182 0 -1 0  255 255 255 255
8.23579 -9 29.5441 0 -1 0  255 255 255 255
86.5212 -9 73.8959 0 -1 0  255 255 255 255
45.7186 -9 -23.4563 0 -1 0  255 255 255 255
-19.9828 -9 45.9536 0 -1 0  255 255 255 255
62.9379 -9 90.4064 0 -1 0  255 255 255 255
-39.2383 -9 54.4231 0 -1 0  255 255 255 255
26.1507 -9 27.4966 0 -1 0  255 255 255 255
42.4225 -9 42.0814 0 -1 0  255 255 255 255
44.8256 -9 42.9301 0 -1 0  255 255 255 255
21.9144 -9 83.1931 0 -1 0  255 255 255 255
62.3824 -9 33.7404 0 -1 0  255 255 255 255
-16.3501 -9 87.7249 0 -1 0  255 255 255 255
55.6731 -9 11.1249 0 -1 0  255 255 255 255
40.5677 -9 -45.9289 0 -1 0  255 255 255 255
71.9282 -9 147.173 0 -1 0  255 255 255 255
30.7271 -9 96.1396 0 -1 0  255 255 255 255
28.7014 -9 -24.4938 0 -1 0  255 255 255 255
6.60434 -9 42.5642 0 -1 0  255 255 255 255
40.4484 -9 -34.7179 0 -1 0  255 255 255 255
19.0636 -9 -19.1803 0 -1 0  255 255 255 255
79.724 -9 140.367 0 -1 0  255 255 255 255
-8.93664 -9 -45.0868 0 -1 0  255 255 255 255
-10.469 -9 -39.3433 0 -1 0  255 255 255 255
4.79088 -9 63.4818 0 -1 0  255 255 255 255
48.1409 -9 20.6156 0 -1 0  255 255 255 255
36.9214 -9 121.934 0 -1 0  255 255 255 255
-36.0033 -9 -9.73496 0 -1 0  255 255 255 255
-13.2673 -9 22.5834 0 -1 0  255 255 255 255
-12.365 -9 76.936 0 -1 0  255 255 255 255
3.83049 -9 124.569 0 -1 0  255 255 255 255
-31.1499 -9 38.9561 0 -1 0  255 255 255 255
-0.266551 -9 -44.6936 0 -1 0  255 255 255 255
-38.8196 -9 144.398 0 -1 0  255 255 255 255
17.3052 -9 137.949 0 -1 0  255 255 255 255
41.3134 -9 45.3049 0 -1 0  255 255 255 255
37.3433 -9 -32.7983 0 -1 0  255 255 255 255
-38.8227 -9 3.97284 0 -1 0  255 255 255 255
86.6097 -9 132.483 0 -1 0  255 255 255 255
19.7472 -9 107.053 0 -1 0  255 255 255 255
23.0213 -9 29.9611 0 -1 0  255 255 255 255
11.9809 -9 -27.4153 0 -1 0  255 255 255 255
33.3862 -9 -33.186 0 -1 0  255 255 255 255
36.1068 -9 -9.72393 0 -1 0  255 255 255 255
60.3102 -9 -42.8127 0 -1 0  255 255 255 255
-20.0682 -9 -10.6806 0 -1 0  255 255 255 255
66.565 -9 45.8745 0 -1 0  255 255 255 255
73.0569 -9 85.4785 0 -1 0  255 255 255 255
18.8632 -9 -25.9721 0 -1 0  255 255 255 255
20.2599 -9 103.236 0 -1 0  255 255 255 255
0.619419 -9 127.52 0 -1 0  255 255 255 255
55.8943 -9 57.532 0 -1 0  255 255 255 255
30.4523 -9 -42.2574 0 -1 0  255 255 255 255
20.6595 -9 81.0511 0 -1 0  255 255 255 255
49.6953 -9 16.1459 0 -1 0  255 255 255 255
77.839 -9 90.1264 0 -1 0  255 255 255 255
73.2392 -9 131.565 0 -1 0  255 255 255 255
-16.243 -9 98.0765 0 -1 0  255 255 255 255
-17.1901 -9 128.399 0 -1 0  255 255 255 255
79.5988 -9 12.0221 0 -1 0  255 255 255 255
4.63284 -9 -15.537 0 -1 0  255 255 255 255
-13.1995 -9 -25.0088 0 -1 0  255 255 255 255
60.7187 -9 -25.0088 0 -1 0  255 255 255 255
79.4952 -9 147.227 0 -1 0  255 255 255 255
-14.1663 -9 100.825 0 -1 0  255 255 255 255
21.7431 -9 46.8778 0 -1 0  255 255 255 255
6.64821 -9 126.917 0 -1 0  255 255 255 255
0.247709 -9 47.2567 0 -1 0  255 255 255 255
52.3664 -9 33.2591 0 -1 0  255 255 255 255
33.9569 -9 124.383 0 -1 0  255 255 255 255
36.6679 -9 1.81981 0 -1 0  255 255 255 255
-28.4818 -9 141.544 0 -1 0  255 255 255 255
51.0966 -9 67.6385 0 -1 0  255 255 255 255
48.9728 -9 68.4608 0 -1 0  255 255 255 255
-38.945 -9 74.1842 0 -1 0  255 255 255 255
29.238 -9 124.324 0 -1 0  255 255 255 255
15.3145 -9 131.543 0 -1 0  255 255 255 255
51.7765 -9 65.6517 0 -1 0  255 255 255 255
-33.9124 -9 115.103 0 -1 0  255 255 255 255
14.2985 -9 105.157 0 -1 0  255 255 255 255
67.2122 -9 -3.70514 0 -1 0  255 255 255 255
75.9971 -9 141.535 0 -1 0  255 255 255 255
-16.935 -9 8.30427 0 -1 0  255 255 255 255
-21.8194 -9 -49.3733 0 -1 0  255 255 255 255
6.55268 -9 131.052 0 -1 0  255 255 255 255
-6.33323 -9 59.5662 0 -1 0  255 255 255 255
59.8657 -9 59.1823 0 -1 0  255 255 255 255
54.5212 -9 7.37854 0 -1 0  255 255 255 255
8.3386 -9 147.128 0 -1 0  255 255 255 255
-20.8673 -9 127.338 0 -1 0  255 255 255 255
-9.23896 -9 50.1328 0 -1 0  255 255 255 255
-7.33305 -9 129.689 0 -1 0  255 255 255 255
-30.5404 -9 90.4847 0 -1 0  255 255 255 255
54.3743 -9 16.979 0 -1 0  255 255 255 255
30.3785 -9 15.6016 0 -1 0  255 255 255 255
51.3673 -9 23.3648 0 -1 0  255 255 255 255
75.054 -9 -2.46011 0 -1 0  255 255 255 255
8.96715 -9 35.4263 0 -1 0  255 255 255 255
-23.5308 -9 7.80199 0 -1 0  255 255 255 255
-4.01927 -9 -49.0832 0 -1 0  255 255 255 255
-31.976 -9 147.242 0 -1 0  255 255 255 255
77.998 -9 81.0373 0 -1 0  255 255 255 255
-25.7176 -9 25.7156 0 -1 0  255 255 255 255
51.8444 -9 10.0876 0 -1 0  255 255 255 255
39.2718 -9 21.3403 0 -1 0  255 255 255 255
22.2842 -9 -0.716349 0 -1 0  255 255 255 255
14.9188 -9 33.274 0 -1 0  255 255 255 255
64.1471 -9 125.548 0 -1 0  255 255 255 255
54.0893 -9 44.5494 0 -1 0  255 255 255 255
3.54405 -9 133.546 0 -1 0  255 255 255 255
-35.8574 -9 35.6148 0 -1 0  255 255 255 255
81.2257 -9 24.5507 0 -1 0  255 255 255 255
56.726 -9 129.269 0 -1 0  255 255 255 255
52.4385 -9 -9.71291 0 -1 0  255 255 255 255
69.4121 -9 -49.3955 0 -1 0  255 255 255 255
57.4173 -9 83.733 0 -1 0  255 255 255 255
-12.3359 -9 92.5517 0 -1 0  255 255 255 255
6.09973 -9 57.5511 0 -1 0  255 255 255 255
86.3117 -9 144.298 0 -1 0  255 255 255 255
-0.697587 -9 95.8379 0 -1 0  255 255 255 255
72.896 -9 -32.3387 0 -1 0  255 255 255 255
-25.3767 -9 -32.3387 0 -1 0  255 255 255 255
72.1526 -9 122.768 0 -1 0  255 255 255 255
51.8085 -9 119.106 0 -1 0  255 255 255 255
-6.63291 -9 20.237 0 -1 0  255 255 255 255
84.0608 -9 13.2326 0 -1 0  255 255 255 255
-25.0435 -9 94.444 0 -1 0  255 255 255 255
55.298 -9 3.16508 0 -1 0  255 255 255 255
12.7093 -9 103.675 0 -1 0  255 255 255 255
14.061 -9 49.3113 0 -1 0  255 255 255 255
79.8608 -9 49.7894 0 -1 0  255 255 255 255
-27.9556 -9 138.228 0 -1 0  255 255 255 255
62.5206 -9 -19.4859 0 -1 0  255 255 255 255
-15.0014 -9 -19.4859 0 -1 0  255 255 255 255
38.523 -9 107.468 0 -1 0  255 255 255 255
-31.6013 -9 35.3665 0 -1 0  255 255 255 255
20.6585 -9 -11.5965 0 -1 0  255 255 255 255
-10.8528 -9 116.897 0 -1 0  255 255 255 255
-25.1803 -9 -5.75781 0 -1 0  255 255 255 255
56.4379 -9 123.091 0 -1 0  255 255 255 255
-5.28382 -9 112.38 0 -1 0  255 255 255 255
-10.133 -9 102.843 0 -1 0  255 255 255 255
-8.43344 -9 46.1115 0 -1 0  255 255 255 255
4.88724 -9 -9.47038 0 -1 0  255 255 255 255
41.8985 -9 -32.4484 0 -1 0  255 255 255 255
9.83135 -9 -16.1043 0 -1 0  255 255 255 255
44.7079 -9 -25.2904 0 -1 0  255 255 255 255
-36.0222 -9 1.12084 0 -1 0  255 255 255 255
-10.5686 -9 95.9083 0 -1 0  255 255 255 255
-10.0836 -9 13.2714 0 -1 0  255 255 255 255
1.74314 -9 8.34697 0 -1 0  255 255 255 255
-32.9725 -9 135.589 0 -1 0  255 255 255 255
54.9889 -9 13.037 0 -1 0  255 255 255 255
32.2643 -9 56.9486 0 -1 0  255 255 255 255
45.6759 -9 -7.7865 0 -1 0  255 255 255 255
38.3713 -9 72.9621 0 -1 0  255 255 255 255
5.93603 -9 -32.3309 0 -1 0  255 255 255 255
-2.74049 -9 130.469 0 -1 0  255 255 255 255
-19.7482 -9 32.8205 0 -1 0  255 255 255 255
-13.8654 -9 94.2727 0 -1 0  255 255 255 255
55.7798 -9 27.7668 0 -1 0  255 255 255 255
-4.68112 -9 16.5705 0 -1 0  255 255 255 255
-4.11389 -9 23.5316 0 -1 0  255 255 255 255
2.70843 -9 143.838 0 -1 0  255 255 255 255
-29.1557 -9 35.4737 0 -1 0  255 255 255 255
41.9988 -9 35.2466 0 -1 0  255 255 255 255
47.7674 -9 -12.9249 0 -1 0  255 255 255 255
28.7328 -9 92.6059 0 -1 0  255 255 255 255
26.0883 -9 38.5468 0 -1 0  255 255 255 255
-31.3731 -9 68.3465 0 -1 0  255 255 255 255
42.0367 -9 136.313 0 -1 0  255 255 255 255
81.2397 -9 -14.6982 0 -1 0  255 255 255 255
81.8217 -9 -18.3278 0 -1 0  255 255 255 255
56.7425 -9 6.70493 0 -1 0  255 255 255 255
20.8988 -9 139.695 0 -1 0  255 255 255 255
1.02921 -9 40.4579 0 -1 0  255 255 255 255
-26.6897 -9 -1.23001 0 -1 0  255 255 255 255
31.9762 -9 43.5913 0 -1 0  255 255 255 255
-27.6201 -9 124.203 0 -1 0  255 255 255 255
43.8331 -9 49.0223 0 -1 0  255 255 255 255
-32.9542 -9 72.1601 0 -1 0  255 255 255 255
65.9253 -9 24.3842 0 -1 0  255 255 255 255
41.7026 -9 -15.5848 0 -1 0  255 255 255 255
16.4807 -9 -22.2029 0 -1 0  255 255 255 255
63.1954 -9 94.7773 0 -1 0  255 255 255 255
48.5745 -9 34.4914 0 -1 0  255 255 255 255
45.7211 -9 131.922 0 -1 0  255 255 255 255
-10.8506 -9 17.0654 0 -1 0  255 255 255 255
23.0943 -9 58.7933 0 -1 0  255 255 255 255
20.9453 -9 60.1816 0 -1 0  255 255 255 255
25.5361 -9 65.0471 0 -1 0  255 255 255 255
-25.5447 -9 56.5675 0 -1 0  255 255 255 255
2.79088 -9 -8.38918 0 -1 0  255 255 255 255
-10.8223 -9 -10.1926 0 -1 0  255 255 255 255
-8.23387 -9 -9.75647 0 -1 0  255 255 255 255
73.5805 -9 7.60493 0 -1 0  255 255 255 255
39.3156 -9 53.5309 0 -1 0  255 255 255 255
17.4432 -9 65.9305 0 -1 0  255 255 255 255
49.8823 -9 130.297 0 -1 0  255 255 255 255
81.6804 -9 127.916 0 -1 0  255 255 255 255
28.7891 -9 53.5865 0 -1 0  255 255 255 255
51.3716 -9 71.5877 0 -1 0  255 255 255 255
73.6375 -9 -28.8519 0 -1 0  255 255 255 255
-26.1182 -9 -28.8519 0 -1 0  255 255 255 255
2.49641 -9 -34.8943 0 -1 0  255 255 255 255
-0.646676 -9 17.704 0 -1 0  255 255 255 255
-18.2194 -9 38.4135 0 -1 0  255 255 255 255
-7.53398 -9 -1.13088 0 -1 0  255 255 255 255
54.4719 -9 129.635 0 -1 0  255 255 255 255
2.71151 -9 -46.154 0 -1 0  255 255 255 255
50.114 -9 -40.6653 0 -1 0  255 255 255 255
-17.3736 -9 -24.8844 0 -1 0  255 255 255 255
64.8928 -9 -24.8844 0 -1 0  255 255 255 255
5.1413 -9 108.688 0 -1 0  255 255 255 255
23.0064 -9 130.252 0 -1 0  255 255 255 255
11.4521 -9 120.382 0 -1 0  255 255 255 255
71.0937 -9 16.0061 0 -1 0  255 255 255 255
53.8778 -9 144.124 0 -1 0  255 255 255 255
17.0872 -9 93.6138 0 -1 0  255 255 255 255
-31.9316 -9 -14.6218 0 -1 0  255 255 255 255
68.117 -9 0.341392 0 -1 0  255 255 255 255
34.425 -9 72.909 0 -1 0  255 255 255 255
10.2571 -9 44.2125 0 -1 0  255 255 255 255
-21.1909 -9 122.545 0 -1 0  255 255 255 255
13.0997 -9 -23.7725 0 -1 0  255 255 255 255
19.2469 -9 34.4216 0 -1 0  255 255 255 255
71.5686 -9 -11.4565 0 -1 0  255 255 255 255
27.7697 -9 -29.0338 0 -1 0  255 255 255 255
38.2535 -9 57.0711 0 -1 0  255 255 255 255
34.6804 -9 102.419 0 -1 0  255 255 255 255
49.5976 -9 44.3827 0 -1 0  255 255 255 255
-16.6096 -9 45.2414 0 -1 0  255 255 255 255
65.1044 -9 91.6602 0 -1 0  255 255 255 255
-34.0965 -9 127.773 0 -1 0  255 255 255 255
-30.5091 -9 7.94025 0 -1 0  255 255 255 255
4.90849 -9 69.3471 0 -1 0  255 255 255 255
76.8197 -9 38.606 0 -1 0  255 255 255 255
49.8137 -9 109.261 0 -1 0  255 255 255 255
65.6248 -9 104.522 0 -1 0  255 255 255 255
84.2481 -9 88.3833 0 -1 0  255 255 255 255
-39.0198 -9 0.237827 0 -1 0  255 255 255 255
17.4766 -9 6.17578 0 -1 0  255 255 255 255
19.649 -9 116.121 0 -1 0  255 255 255 255
8.46407 -9 -4.42408 0 -1 0  255 255 255 255
23.8461 -9 134.052 0 -1 0  255 255 255 255
-23.3529 -9 -12.0827 0 -1 0  255 255 255 255
19.5751 -9 46.1671 0 -1 0  255 255 255 255
-39.1143 -9 38.8618 0 -1 0  255 255 255 255
39.9395 -9 143.301 0 -1 0  255 255 255 255
24.4846 -9 80.45 0 -1 0  255 255 255 255
-18.3232 -9 57.0802 0 -1 0  255 255 255 255
33.8047 -9 49.7065 0 -1 0  255 255 255 255
60.4779 -9 7.28063 0 -1 0  255 255 255 255
45.9912 -9 8.15537 0 -1 0  255 255 255 255
25.4373 -9 9.66414 0 -1 0  255 255 255 255
81.3217 -9 42.6322 0 -1 0  255 255 255 255
57.704 -9 -27.3046 0 -1 0  255 255 255 255
-10.1857 -9 -27.298 0 -1 0  255 255 255 255
-6.09888 -9 99.3731 0 -1 0  255 255 255 255
22.7913 -9 135.938 0 -1 0  255 255 255 255
-38.9117 -9 114.195 0 -1 0  255 255 255 255
-19.1249 -9 42.3819 0 -1 0  255 255 255 255
44.2591 -9 65.2073 0 -1 0  255 255 255 255
51.7987 -9 55.8048 0 -1 0  255 255 255 255
44.4227 -9 -46.1049 0 -1 0  255 255 255 255
66.0172 -9 124.591 0 -1 0  255 255 255 255
-36.0876 -9 51.3933 0 -1 0  255 255 255 255
86.4908 -9 46.8009 0 -1 0  255 255 255 255
73.7547 -9 82.0884 0 -1 0  255 255 255 255
-21.1162 -9 64.0555 0 -1 0  255 255 255 255
33.678 -9 85.2894 0 -1 0  255 255 255 255
-2.55321 -9 -10.0283 0 -1 0  255 255 255 255
42.3233 -9 -28.8257 0 -1 0  255 255 255 255
6.8988 -9 -45.7172 0 -1 0  255 255 255 255
-24.0559 -9 112.813 0 -1 0  255 255 255 255
-4.45029 -9 12.8922 0 -1 0  255 255 255 255
26.4296 -9 119.566 0 -1 0  255 255 255 255
-36.6722 -9 137.601 0 -1 0  255 255 255 255
39.8691 -9 55.7825 0 -1 0  255 255 255 255
-11.1017 -9 28.9382 0 -1 0  255 255 255 255
16.701 -9 89.7971 0 -1 0  255 255 255 255
-30.9436 -9 -2.22263 0 -1 0  255 255 255 255
8.20907 -9 -49.1881 0 -1 0  255 255 255 255
61.8275 -9 38.0753 0 -1 0  255 255 255 255
79.9208 -9 89.6462 0 -1 0  255 255 255 255
-13.2388 -9 -21.3326 0 -1 0  255 255 255 255
60.7584 -9 -21.3343 0 -1 0  255 255 255 255
86.489 -9 101.656 0 -1 0  255 255 255 255
12.2131 -9 -13.6011 0 -1 0  255 255 255 255
39.3016 -9 10.6563 0 -1 0  255 255 255 255
51.2615 -9 113.009 0 -1 0  255 255 255 255
51.175 -9 115.305 0 -1 0  255 255 255 255
51.8738 -9 122.999 0 -1 0  255 255 255 255
67.5854 -9 23.0424 0 -1 0  255 255 255 255
2.98742 -9 93.2602 0 -1 0  255 255 255 255
-9.45787 -9 123.43 0 -1 0  255 255 255 255
36.0586 -9 -25.2029 0 -1 0  255 255 255 255
35.5444 -9 0.352947 0 -1 0  255 255 255 255
39.9666 -9 94.7085 0 -1 0  255 255 255 255
67.8117 -9 6.67398 0 -1 0  255 255 255 255
-31.6192 -9 75.8978 0 -1 0  255 255 255 255
59.5097 -9 147.124 0 -1 0  255 255 255 255
37.4106 -9 97.2065 0 -1 0  255 255 255 255
15.485 -9 73.1235 0 -1 0  255 255 255 255
67.0239 -9 -43.7368 0 -1 0  255 255 255 255
9.74155 -9 -31.7988 0 -1 0  255 255 255 255
38.7996 -9 -1.39284 0 -1 0  255 255 255 255
-30.1358 -9 -37.3735 0 -1 0  255 255 255 255
77.6551 -9 -37.3735 0 -1 0  255 255 255 255
51.0213 -9 147.192 0 -1 0  255 255 255 255
50.6771 -9 31.0312 0 -1 0  255 255 255 255
29.7991 -9 132.137 0 -1 0  255 255 255 255
14.352 -9 90.2175 0 -1 0  255 255 255 255
37.0803 -9 67.0878 0 -1 0  255 255 255 255
17.0647 -9 -16.3876 0 -1 0  255 255 255 255
61.2519 -9 117.373 0 -1 0  255 255 255 255
54.9671 -9 19.3542 0 -1 0  255 255 255 255
35.4021 -9 -36.5094 0 -1 0  255 255 255 255
9.75249 -9 46.6594 0 -1 0  255 255 255 255
-36.7385 -9 88.3874 0 -1 0  255 255 255 255
53.572 -9 80.3422 0 -1 0  255 255 255 255
76.8518 -9 87.4769 0 -1 0  255 255 255 255
86.7589 -9 -9.30642 0 -1 0  255 255 255 255
58.1792 -9 -6.04501 0 -1 0  255 255 255 255
16.2685 -9 -12.5128 0 -1 0  255 255 255 255
53.6317 -9 -35.377 0 -1 0  255 255 255 255
-32.1548 -9 56.6828 0 -1 0  255 255 255 255
-11.2462 -9 -6.81488 0 -1 0  255 255 255 255
-12.1341 -9 -17.0963 0 -1 0  255 255 255 255
59.6307 -9 -17.2079 0 -1 0  255 255 255 255
0.571195 -9 140.188 0 -1 0  255 255 255 255
-15.182 -9 -1.5781 0 -1 0  255 255 255 255
37.6577 -9 143.735 0 -1 0  255 255 255 255
57.8799 -9 28.8075 0 -1 0  255 255 255 255
-18.7228 -9 134.376 0 -1 0  255 255 255 255
-17.9265 -9 136.179 0 -1 0  255 255 255 255
55.2947 -9 88.0753 0 -1 0  255 255 255 255
43.0223 -9 -5.22632 0 -1 0  255 255 255 255
71.732 -9 78.8073 0 -1 0  255 255 255 255
-2.30766 -9 54.6887 0 -1 0  255 255 255 255
-16.8672 -9 31.238 0 -1 0  255 255 255 255
79.3698 -9 -8.15787 0 -1 0  255 255 255 255
9.72604 -9 108.582 0 -1 0  255 255 255 255
60.1187 -9 18.2618 0 -1 0  255 255 255 255
59.3587 -9 3.09874 0 -1 0  255 255 255 255
-2.6604 -9 31.221 0 -1 0  255 255 255 255
-16.7823 -9 1.66882 0 -1 0  255 255 255 255
-35.4362 -9 131.263 0 -1 0  255 255 255 255
79.6966 -9 132.507 0 -1 0  255 255 255 255
26.5986 -9 130.002 0 -1 0  255 255 255 255
32.7788 -9 -26.5023 0 -1 0  255 255 255 255
79.7503 -9 14.321 0 -1 0  255 255 255 255
22.0495 -9 -2.73729 0 -1 0  255 255 255 255
-5.81785 -9 92.4037 0 -1 0  255 255 255 255
40.4603 -9 -2.39428 0 -1 0  255 255 255 255
62.6134 -9 121.111 0 -1 0  255 255 255 255
31.6572 -9 -1.62025 0 -1 0  255 255 255 255
29.6057 -9 -1.64381 0 -1 0  255 255 255 255
-32.0298 -9 132.342 0 -1 0  255 255 255 255
36.1242 -9 -5.90551 0 -1 0  255 255 255 255
-6.26317 -9 2.9453 0 -1 0  255 255 255 255
-4.76589 -9 36.3116 0 -1 0  255 255 255 255
-10.2894 -9 54.6141 0 -1 0  255 255 255 255
58.942 -9 98.2664 0 -1 0  255 255 255 255
68.9041 -9 61.6282 0 -1 0  255 255 255 255
-4.11473 -9 95.6992 0 -1 0  255 255 255 255
1.06354 -9 -9.77328 0 -1 0  255 255 255 255
77.952 -9 15.6773 0 -1 0  255 255 255 255
10.6098 -9 127.393 0 -1 0  255 255 255 255
-1.49202 -9 22.3959 0 -1 0  255 255 255 255
28.4551 -9 120.972 0 -1 0  255 255 255 255
9.10903 -9 59.757 0 -1 0  255 255 255 255
1.80488 -9 69.9353 0 -1 0  255 255 255 255
26.9693 -9 -26.4191 0 -1 0  255 255 255 255
17.7504 -9 83.2482 0 -1 0  255 255 255 255
-21.4426 -9 67.7125 0 -1 0  255 255 255 255
62.8124 -9 138.435 0 -1 0  255 255 255 255
74.8643 -9 35.2233 0 -1 0  255 255 255 255
46.6717 -9 119.317 0 -1 0  255 255 255 255
-36.2077 -9 134.321 0 -1 0  255 255 255 255
7.94012 -9 73.5698 0 -1 0  255 255 255 255
58.8651 -9 52.7061 0 -1 0  255 255 255 255
63.0296 -9 -49.0731 0 -1 0  255 255 255 255
-9.18171 -9 70.1166 0 -1 0  255 255 255 255
69.5545 -9 109.391 0 -1 0  255 255 255 255
3.66743 -9 45.5851 0 -1 0  255 255 255 255
-18.152 -9 99.6285 0 -1 0  255 255 255 255
-17.5438 -9 96.315 0 -1 0  255 255 255 255
45.2654 -9 -30.9544 0 -1 0  255 255 255 255
26.506 -9 56.9432 0 -1 0  255 255 255 255
-38.9579 -9 101.663 0 -1 0  255 255 255 255
55.1986 -9 114.024 0 -1 0  255 255 255 255
73.3172 -9 66.0236 0 -1 0  255 255 255 255
-26.0441 -9 42.4366 0 -1 0  255 255 255 255
68.6225 -9 2.65049 0 -1 0  255 255 255 255
10.0028 -9 12.2109 0 -1 0  255 255 255 255
-24.2761 -9 114.874 0 -1 0  255 255 255 255
54.6392 -9 98.9406 0 -1 0  255 255 255 255
49.002 -9 116.38 0 -1 0  255 255 255 255
47.7497 -9 47.5322 0 -1 0  255 255 255 255
40.2424 -9 103.074 0 -1 0  255 255 255 255
34.2246 -9 40.3206 0 -1 0  255 255 255 255
25.0296 -9 85.3206 0 -1 0  255 255 255 255
48.8044 -9 146.98 0 -1 0  255 255 255 255
32.4174 -9 77.6912 0 -1 0  255 255 255 255
-9.61154 -9 129.785 0 -1 0  255 255 255 255
10.3971 -9 49.3422 0 -1 0  255 255 255 255
50.9233 -9 105.141 0 -1 0  255 255 255 255
-31.7298 -9 48.3224 0 -1 0  255 255 255 255
28.2843 -9 86.0317 0 -1 0  255 255 255 255
35.5662 -9 -33.8992 0 -1 0  255 255 255 255
32.4845 -9 -15.4288 0 -1 0  255 255 255 255
66.4505 -9 134.284 0 -1 0  255 255 255 255
65.2202 -9 136.182 0 -1 0  255 255 255 255
65.6761 -9 -38.882 0 -1 0  255 255 255 255
-18.1906 -9 -38.8141 0 -1 0  255 255 255 255
58.7362 -9 25.303 0 -1 0  255 255 255 255
-28.0218 -9 74.1986 0 -1 0  255 255 255 255
55.7246 -9 133.073 0 -1 0  255 255 255 255
-21.8853 -9 105.308 0 -1 0  255 255 255 255
41.8828 -9 -36.3541 0 -1 0  255 255 255 255
46.5262 -9 -9.69897 0 -1 0  255 255 255 255
75.1484 -9 -12.6878 0 -1 0  255 255 255 255
33.6776 -9 109.096 0 -1 0  255 255 255 255
82.9685 -9 131.385 0 -1 0  255 255 255 255
16.2626 -9 49.0341 0 -1 0  255 255 255 255
40.07 -9 90.9723 0 -1 0  255 255 255 255
-14.0595 -9 55.2756 0 -1 0  255 255 255 255
83.7231 -9 134.286 0 -1 0  255 255 255 255
43.5739 -9 143.813 0 -1 0  255 255 255 255
6.22802 -9 62.3702 0 -1 0  255 255 255 255
-34.6741 -9 96.9893 0 -1 0  255 255 255 255
34.0279 -9 144.773 0 -1 0  255 255 255 255
23.0563 -9 3.35045 0 -1 0  255 255 255 255
-33.7847 -9 17.7527 0 -1 0  255 255 255 255
17.5047 -9 126.641 0 -1 0  255 255 255 255
63.0777 -9 47.0921 0 -1 0  255 255 255 255
1.81904 -9 18.2176 0 -1 0  255 255 255 255
71.5507 -9 138.373 0 -1 0  255 255 255 255
60.2898 -9 130.32 0 -1 0  255 255 255 255
47.8981 -9 121.75 0 -1 0  255 255 255 255
29.1038 -9 8.92315 0 -1 0  255 255 255 255
48.1163 -9 9.34979 0 -1 0  255 255 255 255
-10.3686 -9 93.6497 0 -1 0  255 255 255 255
73.7522 -9 143.955 0 -1 0  255 255 255 255
8.86037 -9 117.726 0 -1 0  255 255 255 255
37.1685 -9 129.975 0 -1 0  255 255 255 255
-21.8859 -9 35.8753 0 -1 0  255 255 255 255
27.9302 -9 82.6518 0 -1 0  255 255 255 255
4.66707 -9 79.9624 0 -1 0  255 255 255 255
40.6995 -9 96.8324 0 -1 0  255 255 255 255
-23.6791 -9 26.2503 0 -1 0  255 255 255 255
6.081 -9 25.375 0 -1 0  255 255 255 255
-17.6736 -9 117.937 0 -1 0  255 255 255 255
74.5776 -9 128.056 0 -1 0  255 255 255 255
3.57806 -9 120.618 0 -1 0  255 255 255 255
-36.9182 -9 -2.70225 0 -1 0  255 255 255 255
7.36849 -9 76.1704 0 -1 0  255 255 255 255
-6.84603 -9 -46.1948 0 -1 0  255 255 255 255
48.1356 -9 129.521 0 -1 0  255 255 255 255
23.1581 -9 -33.3713 0 -1 0  255 255 255 255
78.0154 -9 144.079 0 -1 0  255 255 255 255
16.2701 -9 -49.3153 0 -1 0  255 255 255 255
7.32195 -9 -36.6186 0 -1 0  255 255 255 255
-19.44 -9 -36.9698 0 -1 0  255 255 255 255
66.9593 -9 -36.9698 0 -1 0  255 255 255 255
-15.4437 -9 138.501 0 -1 0  255 255 255 255
75.1762 -9 124.611 0 -1 0  255 255 255 255
22.0087 -9 143.034 0 -1 0  255 255 255 255
11.2272 -9 81.5859 0 -1 0  255 255 255 255
-6.7363 -9 5.20882 0 -1 0  255 255 255 255
75.1832 -9 -26.978 0 -1 0  255 255 255 255
-27.664 -9 -26.978 0 -1 0  255 255 255 255
-7.98616 -9 103.73 0 -1 0  255 255 255 255
-1.84674 -9 49.0568 0 -1 0  255 255 255 255
74.6397 -9 44.6501 0 -1 0  255 255 255 255
82.0956 -9 118.482 0 -1 0  255 255 255 255
-24.5413 -9 138.334 0 -1 0  255 255 255 255
84.252 -9 37.6001 0 -1 0  255 255 255 255
43.9649 -9 -35.7974 0 -1 0  255 255 255 255
64.4223 -9 106.459 0 -1 0  255 255 255 255
2.12923 -9 79.6596 0 -1 0  255 255 255 255
49.8929 -9 -43.5363 0 -1 0  255 255 255 255
-38.856 -9 44.9251 0 -1 0  255 255 255 255
49.5407 -9 103.338 0 -1 0  255 255 255 255
-3.10308 -9 -26.8815 0 -1 0  255 255 255 255
-27.7229 -9 -12.7983 0 -1 0  255 255 255 255
7.74064 -9 -38.6061 0 -1 0  255 255 255 255
49.0124 -9 -26.0928 0 -1 0  255 255 255 255
-36.1483 -9 56.9462 0 -1 0  255 255 255 255
71.386 -9 75.7016 0 -1 0  255 255 255 255
15.3084 -9 121.153 0 -1 0  255 255 255 255
17.4823 -9 27.6267 0 -1 0  255 255 255 255
18.931 -9 99.3809 0 -1 0  255 255 255 255
51.3504 -9 19.6699 0 -1 0  255 255 255 255
81.2558 -9 79.4213 0 -1 0  255 255 255 255
50.7051 -9 -17.3892 0 -1 0  255 255 255 255
38.9616 -9 147.313 0 -1 0  255 255 255 255
0.454302 -9 104.9 0 -1 0  255 255 255 255
11.5929 -9 19.4093 0 -1 0  255 255 255 255
62.2694 -9 133.744 0 -1 0  255 255 255 255
39.521 -9 35.7362 0 -1 0  255 255 255 255
-11.2259 -9 0.308092 0 -1 0  255 255 255 255
-22.3467 -9 87.4947 0 -1 0  255 255 255 255
18.6042 -9 81.0173 0 -1 0  255 255 255 255
5.82493 -9 -39.7682 0 -1 0  255 255 255 255
70.1167 -9 31.6564 0 -1 0  255 255 255 255
-19.965 -9 -27.2292 0 -1 0  255 255 255 255
67.4843 -9 -27.2292 0 -1 0  255 255 255 255
-10.7508 -9 32.8023 0 -1 0  255 255 255 255
23.3583 -9 -14.6769 0 -1 0  255 255 255 255
82.1288 -9 96.9887 0 -1 0  255 255 255 255
76.1283 -9 76.4235 0 -1 0  255 255 255 255
59.3723 -9 -7.73208 0 -1 0  255 255 255 255
-4.71248 -9 105.916 0 -1 0  255 255 255 255
-6.78959 -9 120.964 0 -1 0  255 255 255 255
68.7139 -9 142.141 0 -1 0  255 255 255 255
18.4843 -9 49.2562 0 -1 0  255 255 255 255
-16.3976 -9 -34.9819 0 -1 0  255 255 255 255
63.9116 -9 -34.9874 0 -1 0  255 255 255 255
12.0076 -9 85.0411 0 -1 0  255 255 255 255
40.8242 -9 100.407 0 -1 0  255 255 255 255
52.302 -9 -3.4539 0 -1 0  255 255 255 255
-25.5415 -9 10.8772 0 -1 0  255 255 255 255
72.0666 -9 -3.93408 0 -1 0  255 255 255 255
2.54694 -9 123.098 0 -1 0  255 255 255 255
-25.8775 -9 82.1673 0 -1 0  255 255 255 255
45.2394 -9 -19.452 0 -1 0  255 255 255 255
51.6127 -9 -49.5142 0 -1 0  255 255 255 255
-13.8258 -9 144.005 0 -1 0  255 255 255 255
54.0341 -9 9.49674 0 -1 0  255 255 255 255
2.45078 -9 111.002 0 -1 0  255 255 255 255
0.926846 -9 112.525 0 -1 0  255 255 255 255
48.9986 -9 99.8523 0 -1 0  255 255 255 255
15.4488 -9 -33.3599 0 -1 0  255 255 255 255
-36.7148 -9 6.83925 0 -1 0  255 255 255 255
48.4932 -9 37.6322 0 -1 0  255 255 255 255
22.435 -9 -34.8659 0 -1 0  255 255 255 255
-4.79714 -9 20.1939 0 -1 0  255 255 255 255
11.76 -9 142.161 0 -1 0  255 255 255 255
-32.4201 -9 89.7561 0 -1 0  255 255 255 255
67.5485 -9 14.4594 0 -1 0  255 255 255 255
-18.2455 -9 3.7068 0 -1 0  255 255 255 255
-21.2102 -9 142.139 0 -1 0  255 255 255 255
-30.4694 -9 144.138 0 -1 0  255 255 255 255
-19.4839 -9 -40.6593 0 -1 0  255 255 255 255
66.7418 -9 -41.0916 0 -1 0  255 255 255 255
61.7018 -9 60.5299 0 -1 0  255 255 255 255
39.1875 -9 -23.4254 0 -1 0  255 255 255 255
74.8657 -9 -39.8435 0 -1 0  255 255 255 255
-27.3465 -9 -39.8435 0 -1 0  255 255 255 255
39.8779 -9 61.9381 0 -1 0  255 255 255 255
-26.5256 -9 -46.3934 0 -1 0  255 255 255 255
74.0453 -9 -46.3935 0 -1 0  255 255 255 255
-23.769 -9 129.341 0 -1 0  255 255 255 255
61.3599 -9 144.109 0 -1 0  255 255 255 255
19.1927 -9 29.3159 0 -1 0  255 255 255 255
59.8944 -9 68.5363 0 -1 0  255 255 255 255
-32.0433 -9 118.72 0 -1 0  255 255 255 255
-30.0706 -9 119.571 0 -1 0  255 255 255 255
28.4532 -9 0.606611 0 -1 0  255 255 255 255
-7.08002 -9 -41.625 0 -1 0  255 255 255 255
81.3975 -9 68.7643 0 -1 0  255 255 255 255
20.7021 -9 88.3151 0 -1 0  255 255 255 255
50.0059 -9 40.4891 0 -1 0  255 255 255 255
-5.81852 -9 71.7653 0 -1 0  255 255 255 255
43.3927 -9 22.7355 0 -1 0  255 255 255 255
60.7424 -9 100.943 0 -1 0  255 255 255 255
-36.122 -9 120.457 0 -1 0  255 255 255 255
62.3445 -9 124.073 0 -1 0  255 255 255 255
48.7082 -9 140.637 0 -1 0  255 255 255 255
-6.273 -9 76.9028 0 -1 0  255 255 255 255
81.7102 -9 48.7022 0 -1 0  255 255 255 255
-26.2752 -9 144.109 0 -1 0  255 255 255 255
69.2297 -9 111.357 0 -1 0  255 255 255 255
26.1962 -9 -18.2453 0 -1 0  255 255 255 255
60.0922 -9 34.1766 0 -1 0  255 255 255 255
64.3121 -9 54.3535 0 -1 0  255 255 255 255
75.1091 -9 70.1702 0 -1 0  255 255 255 255
29.8505 -9 64.7092 0 -1 0  255 255 255 255
-34.4844 -9 -8.21089 0 -1 0  255 255 255 255
69.9219 -9 -0.921366 0 -1 0  255 255 255 255
63.61 -9 108.716 0 -1 0  255 255 255 255
44.8218 -9 -38.6882 0 -1 0  255 255 255 255
23.2026 -9 105.446 0 -1 0  255 255 255 255
-19.5554 -9 104.172 0 -1 0  255 255 255 255
37.0497 -9 -4.28279 0 -1 0  255 255 255 255
-25.599 -9 29.3198 0 -1 0  255 255 255 255
57.0323 -9 91.2206 0 -1 0  255 255 255 255
31.1685 -9 -39.8184 0 -1 0  255 255 255 255
35.4185 -9 -22.863 0 -1 0  255 255 255 255
-4.51666 -9 67.9013 0 -1 0  255 255 255 255
15.603 -9 86.2815 0 -1 0  255 255 255 255
27.5984 -9 -22.6503 0 -1 0  255 255 255 255
16.8253 -9 -9.75666 0 -1 0  255 255 255 255
25.1074 -9 69.2505 0 -1 0  255 255 255 255
13.3005 -9 78.764 0 -1 0  255 255 255 255
33.884 -9 51.4683 0 -1 0  255 255 255 255
0.146056 -9 101.326 0 -1 0  255 255 255 255
21.777 -9 70.8534 0 -1 0  255 255 255 255
38.461 -9 -10.2074 0 -1 0  255 255 255 255
-22.9087 -9 4.19279 0 -1 0  255 255 255 255
76.4966 -9 79.596 0 -1 0  255 255 255 255
-24.8524 -9 22.1422 0 -1 0  255 255 255 255
39.108 -9 -19.4479 0 -1 0  255 255 255 255
-36.4353 -9 147.063 0 -1 0  255 255 255 255
-36.0526 -9 60.8635 0 -1 0  255 255 255 255
-11.7812 -9 143.189 0 -1 0  255 255 255 255
-3.24485 -9 -2.33525 0 -1 0  255 255 255 255
6.5582 -9 144.413 0 -1 0  255 255 255 255
-15.4948 -9 46.7947 0 -1 0  255 255 255 255
2.63897 -9 35.5577 0 -1 0  255 255 255 255
72.0313 -9 -25.7927 0 -1 0  255 255 255 255
-24.512 -9 -25.7927 0 -1 0  255 255 255 255
-10.2374 -9 -3.08778 0 -1 0  255 255 255 255
-15.0231 -9 8.66379 0 -1 0  255 255 255 255
84.3688 -9 64.6341 0 -1 0  255 255 255 255
-16.6565 -9 26.8463 0 -1 0  255 255 255 255
22.0365 -9 112.35 0 -1 0  255 255 255 255
83.9368 -9 147.059 0 -1 0  255 255 255 255
46.2751 -9 55.307 0 -1 0  255 255 255 255
-2.83137 -9 -42.2979 0 -1 0  255 255 255 255
-12.3804 -9 124.28 0 -1 0  255 255 255 255
86.4165 -9 -0.739813 0 -1 0  255 255 255 255
-21.4686 -9 -40.2582 0 -1 0  255 255 255 255
68.9879 -9 -40.2582 0 -1 0  255 255 255 255
69.5267 -9 75.3717 0 -1 0  255 255 255 255
-8.16395 -9 133.127 0 -1 0  255 255 255 255
-24.0416 -9 45.4029 0 -1 0  255 255 255 255
-33.3359 -9 121.714 0 -1 0  255 255 255 255
86.4005 -9 -23.0928 0 -1 0  255 255 255 255
-38.8813 -9 -23.0928 0 -1 0  255 255 255 255
62.7622 -9 63.946 0 -1 0  255 255 255 255
31.7189 -9 118.122 0 -1 0  255 255 255 255
-17.404 -9 72.5124 0 -1 0  255 255 255 255
9.41108 -9 22.7942 0 -1 0  255 255 255 255
6.02211 -9 21.746 0 -1 0  255 255 255 255
73.791 -9 106.792 0 -1 0  255 255 255 255
-0.334415 -9 12.1602 0 -1 0  255 255 255 255
-14.7393 -9 -44.4011 0 -1 0  255 255 255 255
33.1049 -9 -36.6651 0 -1 0  255 255 255 255
84.2902 -9 137.409 0 -1 0  255 255 255 255
30.1779 -9 2.68625 0 -1 0  255 255 255 255
63.8726 -9 5.70559 0 -1 0  255 255 255 255
-23.3614 -9 32.99 0 -1 0  255 255 255 255
41.3853 -9 -19.6197 0 -1 0  255 255 255 255
74.1216 -9 115.359 0 -1 0  255 255 255 255
8.48613 -9 -17.5381 0 -1 0  255 255 255 255
2.86 -9 42.021 0 -1 0  255 255 255 255
57.2532 -9 4.74313 0 -1 0  255 255 255 255
-32.8621 -9 62.4546 0 -1 0  255 255 255 255
-1.81644 -9 118.246 0 -1 0  255 255 255 255
86.2468 -9 -28.9676 0 -1 0  255 255 255 255
-38.7275 -9 -28.9676 0 -1 0  255 255 255 255
71.2036 -9 40.0469 0 -1 0  255 255 255 255
-0.592197 -9 5.06278 0 -1 0  255 255 255 255
55.8187 -9 -9.05457 0 -1 0  255 255 255 255
23.4043 -9 -49.3836 0 -1 0  255 255 255 255
38.1857 -9 63.6512 0 -1 0  255 255 255 255
-13.8163 -9 119.52 0 -1 0  255 255 255 255
78.5556 -9 18.0264 0 -1 0  255 255 255 255
48.7129 -9 -3.46714 0 -1 0  255 255 255 255
-23.9549 -9 78.6273 0 -1 0  255 255 255 255
32.0863 -9 -4.84366 0 -1 0  255 255 255 255
26.4978 -9 67.1846 0 -1 0  255 255 255 255
-31.1476 -9 6.33549 0 -1 0  255 255 255 255
80.545 -9 37.4244 0 -1 0  255 255 255 255
19.1586 -9 62.4722 0 -1 0  255 255 255 255
-20.8169 -9 -8.86378 0 -1 0  255 255 255 255
50.9072 -9 137.92 0 -1 0  255 255 255 255
48.5681 -9 14.5298 0 -1 0  255 255 255 255
49.3249 -9 12.6169 0 -1 0  255 255 255 255
45.9299 -9 34.3027 0 -1 0  255 255 255 255
40.622 -9 66.16 0 -1 0  255 255 255 255
53.6004 -9 61.6908 0 -1 0  255 255 255 255
8.08185 -9 62.2321 0 -1 0  255 255 255 255
26.5669 -9 3.70054 0 -1 0  255 255 255 255
79.6321 -9 143.388 0 -1 0  255 255 255 255
41.3156 -9 -23.4119 0 -1 0  255 255 255 255
86.8707 -9 66.6429 0 -1 0  255 255 255 255
60.7802 -9 53.7753 0 -1 0  255 255 255 255
-12.2409 -9 100.244 0 -1 0  255 255 255 255
13.3403 -9 59.8508 0 -1 0  255 255 255 255
39.3411 -9 18.6268 0 -1 0  255 255 255 255
56.5028 -9 46.7888 0 -1 0  255 255 255 255
64.4247 -9 102.778 0 -1 0  255 255 255 255
5.11833 -9 41.222 0 -1 0  255 255 255 255
68.9297 -9 63.6428 0 -1 0  255 255 255 255
23.0053 -9 -26.0081 0 -1 0  255 255 255 255
67.9775 -9 -8.57701 0 -1 0  255 255 255 255
-27.2475 -9 58.4371 0 -1 0  255 255 255 255
69.9527 -9 87.5536 0 -1 0  255 255 255 255
86.8745 -9 109.681 0 -1 0  255 255 255 255
-18.7595 -9 116.175 0 -1 0  255 255 255 255
37.8399 -9 99.7695 0 -1 0  255 255 255 255
13.2904 -9 -6.76938 0 -1 0  255 255 255 255
32.4182 -9 -43.4631 0 -1 0  255 255 255 255
86.5182 -9 16.6351 0 -1 0  255 255 255 255
41.3296 -9 -27.0938 0 -1 0  255 255 255 255
10.1154 -9 124.808 0 -1 0  255 255 255 255
70.3471 -9 8.46994 0 -1 0  255 255 255 255
1.59953 -9 66.1631 0 -1 0  255 255 255 255
-18.3698 -9 112.308 0 -1 0  255 255 255 255
38.652 -9 84.4261 0 -1 0  255 255 255 255
46.137 -9 17.2701 0 -1 0  255 255 255 255
4.60587 -9 112.143 0 -1 0  255 255 255 255
-12.674 -9 -43.8837 0 -1 0  255 255 255 255
-36.821 -9 64.3434 0 -1 0  255 255 255 255
35.6877 -9 133.879 0 -1 0  255 255 255 255
-14.2321 -9 -23.1842 0 -1 0  255 255 255 255
61.7514 -9 -23.1844 0 -1 0  255 255 255 255
-14.7102 -9 27.565 0 -1 0  255 255 255 255
-4.47638 -9 26.9736 0 -1 0  255 255 255 255
-8.34231 -9 106.082 0 -1 0  255 255 255 255
-5.97354 -9 -10.2454 0 -1 0  255 255 255 255
3.39954 -9 6.43488 0 -1 0  255 255 255 255
86.5555 -9 -17.4582 0 -1 0  255 255 255 255
64.4981 -9 -11.4532 0 -1 0  255 255 255 255
7.58754 -9 101.569 0 -1 0  255 255 255 255
-23.0796 -9 103.503 0 -1 0  255 255 255 255
-1.07387 -9 84.155 0 -1 0  255 255 255 255
31.5894 -9 123.52 0 -1 0  255 255 255 255
42.5711 -9 -9.74755 0 -1 0  255 255 255 255
0.869997 -9 109.052 0 -1 0  255 255 255 255
37.1735 -9 117.735 0 -1 0  255 255 255 255
37.6354 -9 69.1382 0 -1 0  255 255 255 255
-39.3658 -9 -11.8381 0 -1 0  255 255 255 255
-7.67908 -9 29.4996 0 -1 0  255 255 255 255
69.3122 -9 53.3914 0 -1 0  255 255 255 255
-39.3667 -9 66.6429 0 -1 0  255 255 255 255
17.9065 -9 -41.3651 0 -1 0  255 255 255 255
38.9986 -9 135.106 0 -1 0  255 255 255 255
82.5826 -9 74.0989 0 -1 0  255 255 255 255
57.7627 -9 56.0405 0 -1 0  255 255 255 255
-20.3455 -9 101.698 0 -1 0  255 255 255 255
43.8542 -9 36.2999 0 -1 0  255 255 255 255
32.6235 -9 106.983 0 -1 0  255 255 255 255
19.0567 -9 84.813 0 -1 0  255 255 255 255
50.4187 -9 125.888 0 -1 0  255 255 255 255
75.4838 -9 66.504 0 -1 0  255 255 255 255
16.3076 -9 -35.2435 0 -1 0  255 255 255 255
71.5563 -9 72.2563 0 -1 0  255 255 255 255
34.9442 -9 14.0755 0 -1 0  255 255 255 255
5.6632 -9 71.5673 0 -1 0  255 255 255 255
-32.4059 -9 143.222 0 -1 0  255 255 255 255
60.4072 -9 110.867 0 -1 0  255 255 255 255
58.1831 -9 110.91 0 -1 0  255 255 255 255
77.7234 -9 11.3348 0 -1 0  255 255 255 255
-15.6853 -9 114.348 0 -1 0  255 255 255 255
46.396 -9 63.4742 0 -1 0  255 255 255 255
-36.2147 -9 -29.5248 0 -1 0  255 255 255 255
83.7339 -9 -29.5248 0 -1 0  255 255 255 255
15.5662 -9 108.43 0 -1 0  255 255 255 255
67.595 -9 130.756 0 -1 0  255 255 255 255
46.9588 -9 -42.0642 0 -1 0  255 255 255 255
72.8364 -9 125.26 0 -1 0  255 255 255 255
86.5469 -9 55.9242 0 -1 0  255 255 255 255
70.803 -9 130.006 0 -1 0  255 255 255 255
-8.99102 -9 135.187 0 -1 0  255 255 255 255
-15.9943 -9 105.977 0 -1 0  255 255 255 255
-2.11843 -9 88.4501 0 -1 0  255 255 255 255
24.9757 -9 11.8295 0 -1 0  255 255 255 255
48.2301 -9 41.0632 0 -1 0  255 255 255 255
21.2079 -9 54.0663 0 -1 0  255 255 255 255
-36.2829 -9 43.8295 0 -1 0  255 255 255 255
-30.8174 -9 -25.1147 0 -1 0  255 255 255 255
78.3366 -9 -25.1147 0 -1 0  255 255 255 255
-39.3801 -9 109.681 0 -1 0  255 255 255 255
-3.28797 -9 134.687 0 -1 0  255 255 255 255
69.7423 -9 100.108 0 -1 0  255 255 255 255
75.2611 -9 22.735 0 -1 0  255 255 255 255
-25.3602 -9 34.323 0 -1 0  255 255 255 255
58.3549 -9 72.2411 0 -1 0  255 255 255 255
-20.2823 -9 131.279 0 -1 0  255 255 255 255
79.5665 -9 -10.7784 0 -1 0  255 255 255 255
66.1329 -9 112.143 0 -1 0  255 255 255 255
-6.63937 -9 55.061 0 -1 0  255 255 255 255
-5.45443 -9 122.914 0 -1 0  255 255 255 255
6.01374 -9 94.5995 0 -1 0  255 255 255 255
74.0603 -9 75.4407 0 -1 0  255 255 255 255
-34.3035 -9 -18.4881 0 -1 0  255 255 255 255
69.1042 -9 29.5659 0 -1 0  255 255 255 255
11.0958 -9 91.5059 0 -1 0  255 255 255 255
-39.1694 -9 122.898 0 -1 0  255 255 255 255
40.6108 -9 141.567 0 -1 0  255 255 255 255
-34.0679 -9 -27.0621 0 -1 0  255 255 255 255
81.5872 -9 -27.0621 0 -1 0  255 255 255 255
86.5439 -9 82.4476 0 -1 0  255 255 255 255
66.8089 -9 26.5594 0 -1 0  255 255 255 255
-34.786 -9 -2.49827 0 -1 0  255 255 255 255
17.2325 -9 59.8873 0 -1 0  255 255 255 255
-4.66593 -9 -4.11926 0 -1 0  255 255 255 255
-0.709376 -9 1.59808 0 -1 0  255 255 255 255
4.30984 -9 54.5772 0 -1 0  255 255 255 255
66.3871 -9 -7.27582 0 -1 0  255 255 255 255
66.4376 -9 32.284 0 -1 0  255 255 255 255
10.8899 -9 106.681 0 -1 0  255 255 255 255
71.3858 -9 101.197 0 -1 0  255 255 255 255
0.708901 -9 44.7143 0 -1 0  255 255 255 255
28.3192 -9 12.5087 0 -1 0  255 255 255 255
-30.2401 -9 42.5172 0 -1 0  255 255 255 255
43.2292 -9 -49.2071 0 -1 0  255 255 255 255
43.9471 -9 124.822 0 -1 0  255 255 255 255
17.0124 -9 123.026 0 -1 0  255 255 255 255
-4.91082 -9 8.83877 0 -1 0  255 255 255 255
17.819 -9 40.8677 0 -1 0  255 255 255 255
46.0144 -9 53.1393 0 -1 0  255 255 255 255
58.9567 -9 -49.4984 0 -1 0  255 255 255 255
49.39 -9 -7.13284 0 -1 0  255 255 255 255
71.0424 -9 134.665 0 -1 0  255 255 255 255
64.3071 -9 119.203 0 -1 0  255 255 255 255
22.3589 -9 74.4634 0 -1 0  255 255 255 255
-0.923336 -9 121.541 0 -1 0  255 255 255 255
62.601 -9 11.7657 0 -1 0  255 255 255 255
37.3052 -9 12.0154 0 -1 0  255 255 255 255
26.5634 -9 -40.9315 0 -1 0  255 255 255 255
68.3794 -9 91.2243 0 -1 0  255 255 255 255
48.7554 -9 -9.13597 0 -1 0  255 255 255 255
11.2162 -9 -7.12645 0 -1 0  255 255 255 255
63.2969 -9 78.1931 0 -1 0  255 255 255 255
-16.1543 -9 77.4964 0 -1 0  255 255 255 255
-17.0962 -9 -13.092 0 -1 0  255 255 255 255
57.8208 -9 -23.3476 0 -1 0  255 255 255 255
-10.2499 -9 -23.255 0 -1 0  255 255 255 255
56.6382 -9 1.0875 0 -1 0  255 255 255 255
17.651 -9 -29.3002 0 -1 0  255 255 255 255
57.656 -9 113.682 0 -1 0  255 255 255 255
86.7296 -9 11.3795 0 -1 0  255 255 255 255
72.1061 -9 112.385 0 -1 0  255 255 255 255
9.12296 -9 82.2578 0 -1 0  255 255 255 255
-10.5746 -9 86.4588 0 -1 0  255 255 255 255
-4.83637 -9 116.245 0 -1 0  255 255 255 255
73.7575 -9 16.3943 0 -1 0  255 255 255 255
-24.8012 -9 143.052 0 -1 0  255 255 255 255
27.3205 -9 100.846 0 -1 0  255 255 255 255
5.56136 -9 102.162 0 -1 0  255 255 255 255
67.1042 -9 94.5396 0 -1 0  255 255 255 255
-39.0341 -9 82.462 0 -1 0  255 255 255 255
72.9644 -9 127.427 0 -1 0  255 255 255 255
-34.1072 -9 -14.5023 0 -1 0  255 255 255 255
45.1102 -9 -4.17251 0 -1 0  255 255 255 255
72.1931 -9 143.274 0 -1 0  255 255 255 255
-3.02179 -9 83.2211 0 -1 0  255 255 255 255
-13.4227 -9 26.1716 0 -1 0  255 255 255 255
40.4102 -9 71.076 0 -1 0  255 255 255 255
11.5692 -9 22.8103 0 -1 0  255 255 255 255
-26.8754 -9 2.29364 0 -1 0  255 255 255 255
-34.9429 -9 74.0909 0 -1 0  255 255 255 255
28.8504 -9 -44.0377 0 -1 0  255 255 255 255
83.6151 -9 19.7195 0 -1 0  255 255 255 255
71.6663 -9 -7.95263 0 -1 0  255 255 255 255
10.8416 -9 26.3001 0 -1 0  255 255 255 255
8.36502 -9 103.608 0 -1 0  255 255 255 255
59.1157 -9 -1.06837 0 -1 0  255 255 255 255
-36.426 -9 -49.2775 0 -1 0  255 255 255 255
83.9452 -9 -49.2775 0 -1 0  255 255 255 255
13.1919 -9 92.0042 0 -1 0  255 255 255 255
79.716 -9 109.16 0 -1 0  255 255 255 255
78.6999 -9 86.2815 0 -1 0  255 255 255 255
39.063 -9 133.04 0 -1 0  255 255 255 255
-1.74042 -9 104.192 0 -1 0  255 255 255 255
15.7949 -9 83.8937 0 -1 0  255 255 255 255
34.596 -9 22.9293 0 -1 0  255 255 255 255
80.2614 -9 87.3916 0 -1 0  255 255 255 255
59.0059 -9 40.4445 0 -1 0  255 255 255 255
32.5005 -9 37.3308 0 -1 0  255 255 255 255
-36.2537 -9 90.6359 0 -1 0  255 255 255 255
30.0852 -9 -13.0345 0 -1 0  255 255 255 255
46.4397 -9 14.5857 0 -1 0  255 255 255 255
-3.43489 -9 -35.8763 0 -1 0  255 255 255 255
5.27142 -9 117.755 0 -1 0  255 255 255 255
0.475201 -9 -34.8481 0 -1 0  255 255 255 255
-0.460426 -9 129.727 0 -1 0  255 255 255 255
0.974325 -9 131.128 0 -1 0  255 255 255 255
-9.71897 -9 77.7511 0 -1 0  255 255 255 255
33.8277 -9 138.317 0 -1 0  255 255 255 255
18.7781 -9 -0.334656 0 -1 0  255 255 255 255
21.0735 -9 -47.0862 0 -1 0  255 255 255 255
-39.4138 -9 26.1366 0 -1 0  255 255 255 255
-7.64014 -9 66.8801 0 -1 0  255 255 255 255
82.4295 -9 28.5695 0 -1 0  255 255 255 255
45.8051 -9 20.9765 0 -1 0  255 255 255 255
-32.9598 -9 0.422401 0 -1 0  255 255 255 255
83.7722 -9 90.6528 0 -1 0  255 255 255 255
71.4236 -9 -18.5539 0 -1 0  255 255 255 255
-23.9307 -9 -18.5174 0 -1 0  255 255 255 255
9.42828 -9 7.56717 0 -1 0  255 255 255 255
28.934 -9 44.198 0 -1 0  255 255 255 255
-21.5848 -9 -20.7399 0 -1 0  255 255 255 255
69.1038 -9 -20.7401 0 -1 0  255 255 255 255
67.3493 -9 -21.7551 0 -1 0  255 255 255 255
-19.8301 -9 -21.7551 0 -1 0  255 255 255 255
27.5615 -9 126.27 0 -1 0  255 255 255 255
83.9503 -9 -23.2626 0 -1 0  255 255 255 255
-36.4246 -9 -23.2778 0 -1 0  255 255 255 255
16.159 -9 37.9757 0 -1 0  255 255 255 255
4.8385 -9 29.8812 0 -1 0  255 255 255 255
32.3986 -9 140.618 0 -1 0  255 255 255 255
86.4657 -9 88.3454 0 -1 0  255 255 255 255
24.9562 -9 103.984 0 -1 0  255 255 255 255
86.3614 -9 7.84146 0 -1 0  255 255 255 255
13.9608 -9 41.4628 0 -1 0  255 255 255 255
-37.0216 -9 -5.66911 0 -1 0  255 255 255 255
-38.9438 -9 88.3096 0 -1 0  255 255 255 255
-11.7132 -9 34.5835 0 -1 0  255 255 255 255
76.035 -9 -10.964 0 -1 0  255 255 255 255
69.911 -9 56.9396 0 -1 0  255 255 255 255
-29.9926 -9 26.1029 0 -1 0  255 255 255 255
18.7054 -9 7.78007 0 -1 0  255 255 255 255
-4.34347 -9 37.8702 0 -1 0  255 255 255 255
-16.9299 -9 63.1631 0 -1 0  255 255 255 255
61.0302 -9 66.7167 0 -1 0  255 255 255 255
78.9406 -9 66.0319 0 -1 0  255 255 255 255
-35.5683 -9 54.8826 0 -1 0  255 255 255 255
-32.6939 -9 87.435 0 -1 0  255 255 255 255
68.2357 -9 -46.4631 0 -1 0  255 255 255 255
-20.6569 -9 -46.5601 0 -1 0  255 255 255 255
-15.7827 -9 68.1434 0 -1 0  255 255 255 255
13.101 -9 1.58342 0 -1 0  255 255 255 255
-8.41483 -9 -13.421 0 -1 0  255 255 255 255
-4.10817 -9 147.5 0 -1 0  255 255 255 255
52.4799 -9 13.7901 0 -1 0  255 255 255 255
-26.239 -9 54.8644 0 -1 0  255 255 255 255
50.4864 -9 -36.6423 0 -1 0  255 255 255 255
-9.14351 -9 -42.7179 0 -1 0  255 255 255 255
50.5906 -9 141.62 0 -1 0  255 255 255 255
8.58063 -9 -29.7123 0 -1 0  255 255 255 255
3.14175 -9 12.5137 0 -1 0  255 255 255 255
-28.1548 -9 41.356 0 -1 0  255 255 255 255
81.9726 -9 59.9443 0 -1 0  255 255 255 255
12.5265 -9 13.7154 0 -1 0  255 255 255 255
-24.796 -9 -21.5026 0 -1 0  255 255 255 255
72.3151 -9 -21.5027 0 -1 0  255 255 255 255
-16.4568 -9 -2.86753 0 -1 0  255 255 255 255
-22.3359 -9 98.8518 0 -1 0  255 255 255 255
-39.4291 -9 16.01 0 -1 0  255 255 255 255
-8.43681 -9 87.9062 0 -1 0  255 255 255 255
33.8884 -9 -5.43982 0 -1 0  255 255 255 255
-39.2818 -9 117.463 0 -1 0  255 255 255 255
59.763 -9 88.969 0 -1 0  255 255 255 255
73.8773 -9 88.8369 0 -1 0  255 255 255 255
43.8167 -9 130.248 0 -1 0  255 255 255 255
-2.35331 -9 94.7524 0 -1 0  255 255 255 255
45.1411 -9 111.794 0 -1 0  255 255 255 255
-16.3776 -9 -23.0914 0 -1 0  255 255 255 255
63.8969 -9 -23.0914 0 -1 0  255 255 255 255
43.7069 -9 105.262 0 -1 0  255 255 255 255
-29.6808 -9 -33.8067 0 -1 0  255 255 255 255
77.2 -9 -33.8067 0 -1 0  255 255 255 255
-32.4443 -9 108.785 0 -1 0  255 255 255 255
64.4843 -9 1.56256 0 -1 0  255 255 255 255
27.0263 -9 23.6049 0 -1 0  255 255 255 255
29.0854 -9 -16.2904 0 -1 0  255 255 255 255
24.6123 -9 26.2484 0 -1 0  255 255 255 255
-39.35 -9 41.1545 0 -1 0  255 255 255 255
50.5271 -9 6.61547 0 -1 0  255 255 255 255
-21.3338 -9 137.419 0 -1 0  255 255 255 255
80.5633 -9 31.6515 0 -1 0  255 255 255 255
22.9311 -9 62.9269 0 -1 0  255 255 255 255
25.5918 -9 33.1791 0 -1 0  255 255 255 255
83.5835 -9 10.9049 0 -1 0  255 255 255 255
25.753 -9 76.234 0 -1 0  255 255 255 255
84.1259 -9 -0.458956 0 -1 0  255 255 255 255
60.9126 -9 140.093 0 -1 0  255 255 255 255
9.32379 -9 -35.3764 0 -1 0  255 255 255 255
10.5129 -9 -43.7124 0 -1 0  255 255 255 255
78.8082 -9 -2.25111 0 -1 0  255 255 255 255
51.0351 -9 27.4272 0 -1 0  255 255 255 255
73.7259 -9 121.28 0 -1 0  255 255 255 255
-7.84209 -9 51.8269 0 -1 0  255 255 255 255
1.4207 -9 102.97 0 -1 0  255 255 255 255
-1.5255 -9 51.0673 0 -1 0  255 255 255 255
15.3124 -9 141.534 0 -1 0  255 255 255 255
5.13862 -9 135.702 0 -1 0  255 255 255 255
12.9567 -9 88.3336 0 -1 0  255 255 255 255
11.6106 -9 118.781 0 -1 0  255 255 255 255
5.09102 -9 -47.0246 0 -1 0  255 255 255 255
12.8762 -9 -43.14 0 -1 0  255 255 255 255
31.3247 -9 -49.6144 0 -1 0  255 255 255 255
26.0862 -9 -7.64232 0 -1 0  255 255 255 255
-8.34176 -9 53.7832 0 -1 0  255 255 255 255
86.8512 -9 59.0904 0 -1 0  255 255 255 255
30.5372 -9 97.9031 0 -1 0  255 255 255 255
-0.380082 -9 24.3168 0 -1 0  255 255 255 255
-0.328268 -9 91.311 0 -1 0  255 255 255 255
13.4339 -9 10.3066 0 -1 0  255 255 255 255
-39.1891 -9 31.0042 0 -1 0  255 255 255 255
50.5919 -9 -23.0044 0 -1 0  255 255 255 255
49.1664 -9 112.392 0 -1 0  255 255 255 255
29.9051 -9 30.2955 0 -1 0  255 255 255 255
-27.2022 -9 128.343 0 -1 0  255 255 255 255
-12.9557 -9 0.881711 0 -1 0  255 255 255 255
11.7536 -9 -49.2752 0 -1 0  255 255 255 255
13.5247 -9 -36.6784 0 -1 0  255 255 255 255
6.2237 -9 -26.606 0 -1 0  255 255 255 255
13.1601 -9 -16.7229 0 -1 0  255 255 255 255
-33.8726 -9 -38.6482 0 -1 0  255 255 255 255
81.3919 -9 -38.6482 0 -1 0  255 255 255 255
77.5535 -9 52.6288 0 -1 0  255 255 255 255
59.5336 -9 -4.08051 0 -1 0  255 255 255 255
-31.3314 -9 24.0286 0 -1 0  255 255 255 255
51.6288 -9 43.5906 0 -1 0  255 255 255 255
-2.92311 -9 140.232 0 -1 0  255 255 255 255
65.9326 -9 99.9769 0 -1 0  255 255 255 255
5.61939 -9 -4.18785 0 -1 0  255 255 255 255
6.5362 -9 48.0375 0 -1 0  255 255 255 255
36.8043 -9 8.27983 0 -1 0  255 255 255 255
29.7966 -9 86.5848 0 -1 0  255 255 255 255
38.7039 -9 -44.7921 0 -1 0  255 255 255 255
-22.6736 -9 -35.4782 0 -1 0  255 255 255 255
70.1929 -9 -35.4782 0 -1 0  255 255 255 255
44.0271 -9 147.532 0 -1 0  255 255 255 255
57.1083 -9 -42.6628 0 -1 0  255 255 255 255
64.4571 -9 39.9136 0 -1 0  255 255 255 255
12.6619 -9 82.8572 0 -1 0  255 255 255 255
16.48 -9 104.943 0 -1 0  255 255 255 255
-8.50069 -9 63.1411 0 -1 0  255 255 255 255
-33.6327 -9 42.5895 0 -1 0  255 255 255 255
19.7241 -9 125.591 0 -1 0  255 255 255 255
35.5636 -9 138.928 0 -1 0  255 255 255 255
-0.202729 -9 119.512 0 -1 0  255 255 255 255
42.1018 -9 48.6797 0 -1 0  255 255 255 255
63.1754 -9 -41.5395 0 -1 0  255 255 255 255
7.25221 -9 12.6497 0 -1 0  255 255 255 255
26.3088 -9 50.9016 0 -1 0  255 255 255 255
24.2284 -9 51.3709 0 -1 0  255 255 255 255
-15.4997 -9 -42.4059 0 -1 0  255 255 255 255
35.4012 -9 35.2282 0 -1 0  255 255 255 255
48.0329 -9 17.9159 0 -1 0  255 255 255 255
86.7791 -9 36.004 0 -1 0  255 255 255 255
29.3792 -9 76.2328 0 -1 0  255 255 255 255
84.3058 -9 34.2547 0 -1 0  255 255 255 255
86.6494 -9 123.031 0 -1 0  255 255 255 255
86.9787 -9 21.0733 0 -1 0  255 255 255 255
14.0646 -9 12.5494 0 -1 0  255 255 255 255
63.8066 -9 27.671 0 -1 0  255 255 255 255
-1.2428 -9 -46.4638 0 -1 0  255 255 255 255
-32.7726 -9 45.4637 0 -1 0  255 255 255 255
50.5084 -9 143.74 0 -1 0  255 255 255 255
48.3756 -9 144.34 0 -1 0  255 255 255 255
23.7479 -9 147.424 0 -1 0  255 255 255 255
-8.7343 -9 -38.7274 0 -1 0  255 255 255 255
81.6011 -9 -4.70213 0 -1 0  255 255 255 255
-3.27918 -9 121.505 0 -1 0  255 255 255 255
-34.6414 -9 117.92 0 -1 0  255 255 255 255
48.3642 -9 25.0704 0 -1 0  255 255 255 255
39.8779 -9 86.0556 0 -1 0  255 255 255 255
13.3332 -9 70.0143 0 -1 0  255 255 255 255
-2.74646 -9 99.638 0 -1 0  255 255 255 255
50.2964 -9 121.963 0 -1 0  255 255 255 255
12.2507 -9 24.8078 0 -1 0  255 255 255 255
34.7042 -9 64.0051 0 -1 0  255 255 255 255
20.1572 -9 135.368 0 -1 0  255 255 255 255
-15.0507 -9 112.182 0 -1 0  255 255 255 255
20.8237 -9 56.1396 0 -1 0  255 255 255 255
83.3447 -9 30.2516 0 -1 0  255 255 255 255
6.53778 -9 -30.1383 0 -1 0  255 255 255 255
71.8794 -9 41.9241 0 -1 0  255 255 255 255
86.7626 -9 51.4425 0 -1 0  255 255 255 255
48.3214 -9 89.5573 0 -1 0  255 255 255 255
-1.62811 -9 97.8311 0 -1 0  255 255 255 255
75.1655 -9 -6.5565 0 -1 0  255 255 255 255
-17.7506 -9 114.274 0 -1 0  255 255 255 255
40.672 -9 105.724 0 -1 0  255 255 255 255
-33.2989 -9 9.38202 0 -1 0  255 255 255 255
-21.9764 -9 75.4701 0 -1 0  255 255 255 255
13.8742 -9 3.62683 0 -1 0  255 255 255 255
-25.4259 -9 123.1 0 -1 0  255 255 255 255
37.8531 -9 136.47 0 -1 0  255 255 255 255
61.5561 -9 74.4033 0 -1 0  255 255 255 255
-4.27593 -9 -25.1157 0 -1 0  255 255 255 255
21.5614 -9 28.5608 0 -1 0  255 255 255 255
34.8281 -9 141.854 0 -1 0  255 255 255 255
7.47413 -9 -1.19167 0 -1 0  255 255 255 255
36.5659 -9 46.4794 0 -1 0  255 255 255 255
81.9036 -9 140.15 0 -1 0  255 255 255 255
8.11169 -9 79.8976 0 -1 0  255 255 255 255
28.0849 -9 122.69 0 -1 0  255 255 255 255
16.0614 -9 -42.1188 0 -1 0  255 255 255 255
-1.1489 -9 110.496 0 -1 0  255 255 255 255
26.8276 -9 -49.2656 0 -1 0  255 255 255 255
26.9136 -9 97.4679 0 -1 0  255 255 255 255
37.3311 -9 -40.7232 0 -1 0  255 255 255 255
2.03106 -9 137.163 0 -1 0  255 255 255 255
61.2766 -9 -11.2667 0 -1 0  255 255 255 255
16.7168 -9 76.9693 0 -1 0  255 255 255 255
83.6352 -9 -25.7179 0 -1 0  255 255 255 255
-36.1159 -9 -25.7179 0 -1 0  255 255 255 255
-6.74126 -9 42.812 0 -1 0  255 255 255 255
30.7635 -9 8.26797 0 -1 0  255 255 255 255
30.8986 -9 6.16582 0 -1 0  255 255 255 255
86.8049 -9 43.6154 0 -1 0  255 255 255 255
13.2409 -9 -10.0516 0 -1 0  255 255 255 255
46.0038 -9 84.7426 0 -1 0  255 255 255 255
46.9412 -9 67.526 0 -1 0  255 255 255 255
63.4819 -9 114.652 0 -1 0  255 255 255 255
41.6341 -9 144.606 0 -1 0  255 255 255 255
40.4954 -9 38.8806 0 -1 0  255 255 255 255
67.3876 -9 98.1684 0 -1 0  255 255 255 255
