ply
format ascii 1.0
comment VCGLIB generated
element vertex 761
property float x
property float y
property float z
property float nx
property float ny
property float nz
property uchar red
property uchar green
property uchar blue
property uchar alpha
element face 0
property list uchar int vertex_indices
end_header
14.8223 2.30205 15.7307 0.988153 0.15347 0  255 255 255 255
14.7576 2.68578 15.8755 0.98384 0.179052 0  255 255 255 255
14.6732 3.11409 15.7993 0.978213 0.207606 0  255 255 255 255
14.5445 3.66863 15.8771 0.96963 0.244576 0  255 255 255 255
14.4446 4.04387 15.8963 0.962975 0.269591 0  255 255 255 255
14.2975 4.53655 15.9015 0.953169 0.302437 0  255 255 255 255
14.1748 4.90654 15.8986 0.944989 0.327102 0  255 255 255 255
13.9936 5.40167 15.8866 0.932909 0.360111 0  255 255 255 255
13.8384 5.78782 15.8647 0.92256 0.385855 0  255 255 255 255
13.6635 6.18943 15.8257 0.910899 0.412629 0  255 255 255 255
13.4541 6.63219 15.7064 0.896943 0.442146 0  255 255 255 255
13.2456 7.03941 15.7598 0.883042 0.469294 0  255 255 255 255
13.0283 7.43398 15.6925 0.868552 0.495599 0  255 255 255 255
12.7757 7.8602 15.6532 0.85171 0.524013 0  255 255 255 255
12.5058 8.28278 15.647 0.833721 0.552185 0  255 255 255 255
12.2284 8.68715 15.6465 0.815226 0.579143 0  255 255 255 255
11.9423 9.07641 15.647 0.796154 0.605094 0  255 255 255 255
11.6466 9.45292 15.6471 0.776437 0.630195 0  255 255 255 255
11.3403 9.81825 15.646 0.756019 0.65455 0  255 255 255 255
11.0229 10.1733 15.6439 0.734859 0.67822 0  255 255 255 255
10.6943 10.5182 15.6415 0.71295 0.701215 0  255 255 255 255
10.3547 10.8526 15.6393 0.690316 0.723508 0  255 255 255 255
10.0048 11.1761 15.6375 0.666985 0.745071 0  255 255 255 255
9.64478 11.4882 15.6361 0.642985 0.765878 0  255 255 255 255
9.27515 11.7886 15.6352 0.618344 0.785908 0  255 255 255 255
8.89626 12.0771 15.6345 0.593084 0.805141 0  255 255 255 255
8.50846 12.3534 15.634 0.567231 0.823559 0  255 255 255 255
8.11215 12.6172 15.6337 0.54081 0.841145 0  255 255 255 255
7.70769 12.8682 15.6335 0.513846 0.857882 0  255 255 255 255
7.2955 13.1063 15.6334 0.486366 0.873755 0  255 255 255 255
6.87597 13.3312 15.6333 0.458398 0.888747 0  255 255 255 255
6.44952 13.5427 15.6333 0.429968 0.902844 0  255 255 255 255
6.01659 13.7405 15.6332 0.401106 0.916032 0  255 255 255 255
5.5776 13.9245 15.6332 0.37184 0.928297 0  255 255 255 255
5.133 14.0944 15.6332 0.3422 0.939627 0  255 255 255 255
4.68323 14.2502 15.6332 0.312215 0.950011 0  255 255 255 255
4.22874 14.3916 15.6332 0.281916 0.959439 0  255 255 255 255
3.76999 14.5185 15.6332 0.251333 0.967901 0  255 255 255 255
3.30745 14.6308 15.6332 0.220497 0.975388 0  255 255 255 255
2.84158 14.7284 15.6332 0.189439 0.981893 0  255 255 255 255
2.37285 14.8111 15.6332 0.15819 0.987409 0  255 255 255 255
1.90173 14.879 15.6332 0.126782 0.991931 0  255 255 255 255
1.42869 14.9318 15.6332 0.095246 0.995454 0  255 255 255 255
0.954219 14.9696 15.6332 0.063615 0.997975 0  255 255 255 255
0.478784 14.9924 15.6332 0.031919 0.99949 0  255 255 255 255
0.002866 15 15.6332 0.000191 1 0  255 255 255 255
-0.473054 14.9925 15.6332 -0.031537 0.999503 0  255 255 255 255
-0.948498 14.97 15.6332 -0.063233 0.997999 0  255 255 255 255
-1.42299 14.9324 15.6332 -0.094866 0.99549 0  255 255 255 255
-1.89604 14.8797 15.6332 -0.126403 0.991979 0  255 255 255 255
-2.36719 14.812 15.6332 -0.157813 0.987469 0  255 255 255 255
-2.83595 14.7295 15.6332 -0.189064 0.981965 0  255 255 255 255
-3.30186 14.6321 15.6332 -0.220124 0.975472 0  255 255 255 255
-3.76445 14.5199 15.6332 -0.250963 0.967997 0  255 255 255 255
-4.22324 14.3932 15.6332 -0.281549 0.959547 0  255 255 255 255
-4.67778 14.252 15.6332 -0.311852 0.950131 0  255 255 255 255
-5.12761 14.0964 15.6332 -0.341841 0.939758 0  255 255 255 255
-5.57228 13.9266 15.6332 -0.371485 0.928439 0  255 255 255 255
-6.01133 13.7428 15.6332 -0.400755 0.916185 0  255 255 255 255
-6.44434 13.5451 15.6332 -0.429622 0.903009 0  255 255 255 255
-6.87085 13.3338 15.6332 -0.458057 0.888923 0  255 255 255 255
-7.29045 13.1091 15.6332 -0.48603 0.873942 0  255 255 255 255
-7.7027 12.8712 15.6332 -0.513513 0.858082 0  255 255 255 255
-8.1072 12.6204 15.6332 -0.54048 0.841357 0  255 255 255 255
-8.50354 12.3568 15.6332 -0.566902 0.823785 0  255 255 255 255
-8.89131 12.0808 15.6332 -0.592754 0.805384 0  255 255 255 255
-9.27013 11.7926 15.6332 -0.618009 0.786171 0  255 255 255 255
-9.63962 11.4925 15.6332 -0.642641 0.766167 0  255 255 255 255
-9.9994 11.1809 15.6332 -0.666627 0.745392 0  255 255 255 255
-10.3491 10.858 15.6332 -0.689941 0.723866 0  255 255 255 255
-10.6884 10.5242 15.6332 -0.71256 0.701611 0  255 255 255 255
-11.0169 10.1797 15.6332 -0.734462 0.67865 0  255 255 255 255
-11.3344 9.82508 15.6332 -0.755624 0.655005 0  255 255 255 255
-11.6404 9.46051 15.6332 -0.776026 0.630701 0  255 255 255 255
-11.9347 9.08643 15.6332 -0.795646 0.605762 0  255 255 255 255
-12.217 8.70319 15.6332 -0.814465 0.580213 0  255 255 255 255
-12.487 8.31119 15.6332 -0.832464 0.554079 0  255 255 255 255
-12.7444 7.91082 15.6332 -0.849625 0.527388 0  255 255 255 255
-12.9889 7.50248 15.6332 -0.86593 0.500165 0  255 255 255 255
-13.2204 7.08659 15.6332 -0.881363 0.472439 0  255 255 255 255
-13.4386 6.66357 15.6332 -0.895909 0.444238 0  255 255 255 255
-13.6433 6.23383 15.6332 -0.909553 0.415589 0  255 255 255 255
-13.8342 5.79782 15.6332 -0.92228 0.386521 0  255 255 255 255
-14.0112 5.35597 15.6332 -0.93408 0.357065 0  255 255 255 255
-14.1741 4.90873 15.6332 -0.944938 0.327249 0  255 255 255 255
-14.3227 4.45654 15.6332 -0.954845 0.297103 0  255 255 255 255
-14.4569 3.99987 15.6332 -0.963791 0.266658 0  255 255 255 255
-14.5765 3.53917 15.6332 -0.971767 0.235945 0  255 255 255 255
-14.6814 3.0749 15.6332 -0.978763 0.204994 0  255 255 255 255
-14.7716 2.60754 15.6332 -0.984775 0.173836 0  255 255 255 255
-14.8469 2.13756 15.6332 -0.989794 0.142504 0  255 255 255 255
-14.9073 1.66542 15.6332 -0.993817 0.111028 0  255 255 255 255
-14.9526 1.19161 15.6332 -0.99684 0.07944 0  255 255 255 255
-14.9829 0.716592 15.6332 -0.998858 0.047773 0  255 255 255 255
-14.9981 0.240855 15.6332 -0.999871 0.016057 0  255 255 255 255
-14.9982 -0.235124 15.6332 -0.999877 -0.015675 0  255 255 255 255
-14.9831 -0.710866 15.6332 -0.998876 -0.047391 0  255 255 255 255
-14.953 -1.18589 15.6332 -0.99687 -0.079059 0  255 255 255 255
-14.9079 -1.65972 15.6332 -0.99386 -0.110648 0  255 255 255 255
-14.8477 -2.13189 15.6332 -0.989849 -0.142126 0  255 255 255 255
-14.7726 -2.6019 15.6332 -0.984841 -0.17346 0  255 255 255 255
-14.6826 -3.06929 15.6332 -0.978842 -0.20462 0  255 255 255 255
-14.5778 -3.5336 15.6332 -0.971857 -0.235573 0  255 255 255 255
-14.4584 -3.99434 15.6332 -0.963893 -0.26629 0  255 255 255 255
-14.3244 -4.45107 15.6332 -0.954959 -0.296738 0  255 255 255 255
-14.1759 -4.90331 15.6332 -0.945063 -0.326887 0  255 255 255 255
-14.0132 -5.35062 15.6332 -0.934216 -0.356708 0  255 255 255 255
-13.8364 -5.79253 15.6332 -0.922428 -0.386169 0  255 255 255 255
-13.6457 -6.22862 15.6332 -0.909711 -0.415241 0  255 255 255 255
-13.4412 -6.65843 15.6332 -0.896079 -0.443895 0  255 255 255 255
-13.2232 -7.08154 15.6332 -0.881544 -0.472103 0  255 255 255 255
-12.9918 -7.49752 15.6332 -0.866121 -0.499835 0  255 255 255 255
-12.7474 -7.90595 15.6332 -0.849826 -0.527063 0  255 255 255 255
-12.4901 -8.30641 15.6332 -0.832676 -0.553761 0  255 255 255 255
-12.2203 -8.69852 15.6332 -0.814687 -0.579901 0  255 255 255 255
-11.9382 -9.08186 15.6332 -0.795878 -0.605458 0  255 255 255 255
-11.644 -9.45607 15.6332 -0.776267 -0.630404 0  255 255 255 255
-11.3381 -9.82075 15.6332 -0.755875 -0.654716 0  255 255 255 255
-11.0208 -10.1755 15.6332 -0.734721 -0.678369 0  255 255 255 255
-10.6924 -10.5201 15.6332 -0.712828 -0.701339 0  255 255 255 255
-10.3533 -10.854 15.6332 -0.690217 -0.723602 0  255 255 255 255
-10.0037 -11.1771 15.6332 -0.666911 -0.745137 0  255 255 255 255
-9.64401 -11.4888 15.6332 -0.642934 -0.765922 0  255 255 255 255
-9.27464 -11.789 15.6332 -0.618309 -0.785935 0  255 255 255 255
-8.89593 -12.0774 15.6332 -0.593062 -0.805157 0  255 255 255 255
-8.50826 -12.3535 15.6332 -0.567217 -0.823568 0  255 255 255 255
-8.11202 -12.6173 15.6332 -0.540802 -0.84115 0  255 255 255 255
-7.70762 -12.8683 15.6332 -0.513841 -0.857885 0  255 255 255 255
-7.29546 -13.1063 15.6332 -0.486364 -0.873756 0  255 255 255 255
-6.87595 -13.3312 15.6332 -0.458396 -0.888748 0  255 255 255 255
-6.44951 -13.5427 15.6332 -0.429967 -0.902844 0  255 255 255 255
-6.01658 -13.7405 15.6332 -0.401106 -0.916032 0  255 255 255 255
-5.5776 -13.9245 15.6332 -0.37184 -0.928297 0  255 255 255 255
-5.133 -14.0944 15.6332 -0.3422 -0.939627 0  255 255 255 255
-4.68323 -14.2502 15.6332 -0.312215 -0.950011 0  255 255 255 255
-4.22874 -14.3916 15.6332 -0.281916 -0.959439 0  255 255 255 255
-3.76999 -14.5185 15.6332 -0.251333 -0.967901 0  255 255 255 255
-3.30745 -14.6308 15.6332 -0.220497 -0.975388 0  255 255 255 255
-2.84158 -14.7284 15.6332 -0.189439 -0.981893 0  255 255 255 255
-2.37285 -14.8111 15.6332 -0.15819 -0.987409 0  255 255 255 255
-1.90173 -14.879 15.6332 -0.126782 -0.991931 0  255 255 255 255
-1.42869 -14.9318 15.6332 -0.095246 -0.995454 0  255 255 255 255
-0.954219 -14.9696 15.6332 -0.063615 -0.997975 0  255 255 255 255
-0.478784 -14.9924 15.6332 -0.031919 -0.99949 0  255 255 255 255
-0.002866 -15 15.6332 -0.000191 -1 0  255 255 255 255
0.473054 -14.9925 15.6332 0.031537 -0.999503 0  255 255 255 255
0.948498 -14.97 15.6332 0.063233 -0.997999 0  255 255 255 255
1.42299 -14.9324 15.6332 0.094866 -0.99549 0  255 255 255 255
1.89604 -14.8797 15.6332 0.126403 -0.991979 0  255 255 255 255
2.36719 -14.812 15.6332 0.157813 -0.987469 0  255 255 255 255
2.83595 -14.7295 15.6332 0.189064 -0.981965 0  255 255 255 255
3.30186 -14.6321 15.6332 0.220124 -0.975472 0  255 255 255 255
3.76445 -14.5199 15.6332 0.250963 -0.967997 0  255 255 255 255
4.22324 -14.3932 15.6332 0.281549 -0.959547 0  255 255 255 255
4.67778 -14.252 15.6332 0.311852 -0.950131 0  255 255 255 255
5.12761 -14.0964 15.6332 0.341841 -0.939758 0  255 255 255 255
5.57228 -13.9266 15.6332 0.371485 -0.928439 0  255 255 255 255
6.01133 -13.7428 15.6332 0.400755 -0.916185 0  255 255 255 255
6.44433 -13.5451 15.6332 0.429622 -0.903009 0  255 255 255 255
6.87085 -13.3338 15.6332 0.458057 -0.888923 0  255 255 255 255
7.29045 -13.1091 15.6332 0.48603 -0.873942 0  255 255 255 255
7.7027 -12.8712 15.6332 0.513513 -0.858082 0  255 255 255 255
8.1072 -12.6204 15.6332 0.54048 -0.841357 0  255 255 255 255
8.50353 -12.3568 15.6332 0.566902 -0.823785 0  255 255 255 255
8.8913 -12.0808 15.6332 0.592753 -0.805384 0  255 255 255 255
9.27011 -11.7926 15.6332 0.618008 -0.786172 0  255 255 255 255
9.63959 -11.4925 15.6331 0.642639 -0.766169 0  255 255 255 255
9.99936 -11.1809 15.6331 0.666624 -0.745394 0  255 255 255 255
10.3491 -10.858 15.633 0.689938 -0.723868 0  255 255 255 255
10.6884 -10.5242 15.6328 0.712559 -0.701613 0  255 255 255 255
11.017 -10.1797 15.6325 0.734464 -0.678647 0  255 255 255 255
11.3345 -9.82491 15.6322 0.755634 -0.654994 0  255 255 255 255
11.6407 -9.46016 15.6318 0.776045 -0.630678 0  255 255 255 255
11.9351 -9.08586 15.6315 0.795675 -0.605724 0  255 255 255 255
12.2175 -8.70246 15.6314 0.8145 -0.580164 0  255 255 255 255
12.4875 -8.31038 15.6312 0.8325 -0.554026 0  255 255 255 255
12.7449 -7.90997 15.6311 0.84966 -0.527331 0  255 255 255 255
12.9895 -7.50145 15.6307 0.86597 -0.500097 0  255 255 255 255
13.2213 -7.08496 15.63 0.881421 -0.472331 0  255 255 255 255
13.4401 -6.66053 15.629 0.896009 -0.444035 0  255 255 255 255
13.6459 -6.22809 15.6281 0.909728 -0.415206 0  255 255 255 255
13.8386 -5.78737 15.6272 0.922572 -0.385825 0  255 255 255 255
14.0181 -5.33791 15.6269 0.934539 -0.355861 0  255 255 255 255
14.1843 -4.87899 15.6274 0.945623 -0.325266 0  255 255 255 255
14.3372 -4.40962 15.629 0.955813 -0.293975 0  255 255 255 255
14.4763 -3.92883 15.6319 0.965089 -0.261922 0  255 255 255 255
14.6002 -3.44011 15.6366 0.973346 -0.229341 0  255 255 255 255
14.6963 -3.0033 15.6526 0.979751 -0.20022 0  255 255 255 255
14.7685 -2.62526 15.7802 0.984565 -0.175017 0  255 255 255 255
14.8368 -2.20636 15.6485 0.989123 -0.147091 0  255 255 255 255
14.8871 -1.83655 15.7196 0.992476 -0.122436 0  255 255 255 255
14.8267 -2.27333 6.24246 0.988449 -0.151556 0  255 255 255 255
14.7603 -2.6706 6.05374 0.984023 -0.17804 0  255 255 255 255
14.6795 -3.08421 6.13667 0.978633 -0.205614 0  255 255 255 255
14.5517 -3.63967 6.10199 0.970115 -0.242644 0  255 255 255 255
14.4506 -4.02257 6.09559 0.963371 -0.268171 0  255 255 255 255
14.301 -4.52553 6.0953 0.953402 -0.301702 0  255 255 255 255
14.177 -4.90017 6.09914 0.945136 -0.326678 0  255 255 255 255
13.9947 -5.39896 6.11116 0.932979 -0.359931 0  255 255 255 255
13.839 -5.78642 6.13303 0.922599 -0.385761 0  255 255 255 255
13.6638 -6.18877 6.17195 0.910919 -0.412585 0  255 255 255 255
13.4542 -6.63206 6.29114 0.896947 -0.442137 0  255 255 255 255
13.2454 -7.03987 6.2378 0.883026 -0.469325 0  255 255 255 255
13.0276 -7.43512 6.30517 0.868508 -0.495674 0  255 255 255 255
12.7743 -7.86234 6.34477 0.851622 -0.524156 0  255 255 255 255
12.5035 -8.28628 6.35155 0.833567 -0.552419 0  255 255 255 255
12.2247 -8.69238 6.35271 0.814978 -0.579492 0  255 255 255 255
11.9367 -9.08374 6.35241 0.795782 -0.605583 0  255 255 255 255
11.6388 -9.46246 6.35161 0.77592 -0.630831 0  255 255 255 255
11.3305 -9.82958 6.35071 0.755364 -0.655305 0  255 255 255 255
11.0115 -10.1856 6.34988 0.734103 -0.679038 0  255 255 255 255
10.6821 -10.5306 6.34921 0.712139 -0.702039 0  255 255 255 255
10.3422 -10.8646 6.34871 0.689479 -0.724306 0  255 255 255 255
9.99206 -11.1874 6.34835 0.666137 -0.745829 0  255 255 255 255
9.63197 -11.4989 6.34811 0.642132 -0.766594 0  255 255 255 255
9.26225 -11.7988 6.34796 0.617483 -0.786584 0  255 255 255 255
8.88322 -12.0867 6.34786 0.592214 -0.80578 0  255 255 255 255
8.49526 -12.3625 6.34781 0.56635 -0.824165 0  255 255 255 255
8.09874 -12.6258 6.34777 0.539916 -0.841719 0  255 255 255 255
7.69408 -12.8764 6.34775 0.512938 -0.858425 0  255 255 255 255
7.28166 -13.114 6.34774 0.485444 -0.874268 0  255 255 255 255
6.86192 -13.3384 6.34774 0.457461 -0.88923 0  255 255 255 255
6.43526 -13.5494 6.34773 0.429018 -0.903296 0  255 255 255 255
6.00213 -13.7468 6.34773 0.400142 -0.916453 0  255 255 255 255
5.56295 -13.9303 6.34773 0.370863 -0.928687 0  255 255 255 255
5.11817 -14.0998 6.34773 0.341211 -0.939987 0  255 255 255 255
4.66823 -14.2551 6.34773 0.311216 -0.950339 0  255 255 255 255
4.2136 -14.396 6.34773 0.280907 -0.959735 0  255 255 255 255
3.75472 -14.5225 6.34773 0.250315 -0.968165 0  255 255 255 255
3.29206 -14.6343 6.34773 0.219471 -0.975619 0  255 255 255 255
2.82609 -14.7314 6.34773 0.188406 -0.982091 0  255 255 255 255
2.35727 -14.8136 6.34773 0.157151 -0.987575 0  255 255 255 255
1.88608 -14.881 6.34773 0.125739 -0.992063 0  255 255 255 255
1.41299 -14.9333 6.34773 0.094199 -0.995553 0  255 255 255 255
0.938473 -14.9706 6.34773 0.062565 -0.998041 0  255 255 255 255
0.463014 -14.9929 6.34773 0.030868 -0.999523 0  255 255 255 255
-0.012911 -15 6.34773 -0.000861 -1 0  255 255 255 255
-0.488823 -14.992 6.34773 -0.032588 -0.999469 0  255 255 255 255
-0.964243 -14.969 6.34773 -0.064283 -0.997932 0  255 255 255 255
-1.43869 -14.9308 6.34773 -0.095913 -0.99539 0  255 255 255 255
-1.91169 -14.8777 6.34773 -0.127446 -0.991845 0  255 255 255 255
-2.38277 -14.8095 6.34773 -0.158851 -0.987303 0  255 255 255 255
-2.85144 -14.7265 6.34773 -0.190096 -0.981765 0  255 255 255 255
-3.31725 -14.6286 6.34773 -0.22115 -0.97524 0  255 255 255 255
-3.77972 -14.516 6.34773 -0.251981 -0.967732 0  255 255 255 255
-4.23838 -14.3888 6.34773 -0.282558 -0.95925 0  255 255 255 255
-4.69277 -14.247 6.34773 -0.312851 -0.949802 0  255 255 255 255
-5.14243 -14.091 6.34773 -0.342829 -0.939398 0  255 255 255 255
-5.58692 -13.9207 6.34773 -0.372461 -0.928048 0  255 255 255 255
-6.02578 -13.7364 6.34773 -0.401719 -0.915763 0  255 255 255 255
-6.45858 -13.5383 6.34773 -0.430572 -0.902556 0  255 255 255 255
-6.88487 -13.3266 6.34773 -0.458991 -0.888441 0  255 255 255 255
-7.30423 -13.1015 6.34773 -0.486949 -0.873431 0  255 255 255 255
-7.71624 -12.8631 6.34773 -0.514416 -0.857541 0  255 255 255 255
-8.12047 -12.6118 6.34773 -0.541365 -0.840788 0  255 255 255 255
-8.51653 -12.3478 6.34773 -0.567769 -0.823188 0  255 255 255 255
-8.90401 -12.0714 6.34773 -0.593601 -0.80476 0  255 255 255 255
-9.28253 -11.7828 6.34773 -0.618835 -0.785521 0  255 255 255 255
-9.6517 -11.4824 6.34773 -0.643447 -0.765491 0  255 255 255 255
-10.0112 -11.1704 6.34773 -0.66741 -0.74469 0  255 255 255 255
-10.3605 -10.8471 6.34773 -0.690702 -0.72314 0  255 255 255 255
-10.6995 -10.5129 6.34773 -0.713298 -0.700861 0  255 255 255 255
-11.0276 -10.1682 6.34773 -0.735175 -0.677877 0  255 255 255 255
-11.3447 -9.81315 6.34773 -0.756313 -0.65421 0  255 255 255 255
-11.6503 -9.44827 6.34773 -0.776689 -0.629884 0  255 255 255 255
-11.9442 -9.07387 6.34773 -0.796283 -0.604925 0  255 255 255 255
-12.2261 -8.69033 6.34773 -0.815075 -0.579356 0  255 255 255 255
-12.4957 -8.29805 6.34773 -0.833046 -0.553203 0  255 255 255 255
-12.7527 -7.89741 6.34773 -0.850179 -0.526494 0  255 255 255 255
-12.9968 -7.48882 6.34773 -0.866455 -0.499254 0  255 255 255 255
-13.2279 -7.07268 6.34773 -0.88186 -0.471512 0  255 255 255 255
-13.4456 -6.64943 6.34773 -0.896376 -0.443295 0  255 255 255 255
-13.6498 -6.21948 6.34773 -0.909989 -0.414632 0  255 255 255 255
-13.8403 -5.78327 6.34773 -0.922686 -0.385551 0  255 255 255 255
-14.0168 -5.34123 6.34773 -0.934455 -0.356082 0  255 255 255 255
-14.1792 -4.89382 6.34773 -0.945282 -0.326254 0  255 255 255 255
-14.3274 -4.44147 6.34773 -0.955157 -0.296098 0  255 255 255 255
-14.4611 -3.98466 6.34773 -0.964071 -0.265644 0  255 255 255 255
-14.5802 -3.52384 6.34773 -0.972014 -0.234922 0  255 255 255 255
-14.6847 -3.05946 6.34773 -0.978978 -0.203964 0  255 255 255 255
-14.7744 -2.59201 6.34773 -0.984957 -0.1728 0  255 255 255 255
-14.8492 -2.12194 6.34773 -0.989944 -0.141463 0  255 255 255 255
-14.909 -1.64974 6.34773 -0.993933 -0.109983 0  255 255 255 255
-14.9538 -1.17588 6.34773 -0.996923 -0.078392 0  255 255 255 255
-14.9836 -0.700832 6.34773 -0.998908 -0.046722 0  255 255 255 255
-14.9983 -0.22508 6.34773 -0.999887 -0.015005 0  255 255 255 255
-14.9979 0.250899 6.34773 -0.99986 0.016727 0  255 255 255 255
-14.9824 0.726625 6.34773 -0.998826 0.048442 0  255 255 255 255
-14.9518 1.20162 6.34773 -0.996786 0.080108 0  255 255 255 255
-14.9061 1.6754 6.34773 -0.993743 0.111694 0  255 255 255 255
-14.8455 2.1475 6.34773 -0.989699 0.143167 0  255 255 255 255
-14.7699 2.61744 6.34773 -0.984658 0.174496 0  255 255 255 255
-14.6794 3.08474 6.34773 -0.978626 0.205649 0  255 255 255 255
-14.5741 3.54893 6.34773 -0.971608 0.236595 0  255 255 255 255
-14.4542 4.00955 6.34773 -0.963612 0.267303 0  255 255 255 255
-14.3197 4.46613 6.34773 -0.954646 0.297742 0  255 255 255 255
-14.1708 4.91822 6.34773 -0.944719 0.327881 0  255 255 255 255
-14.0076 5.36535 6.34773 -0.93384 0.35769 0  255 255 255 255
-13.8303 5.80708 6.34773 -0.922021 0.387139 0  255 255 255 255
-13.6391 6.24297 6.34773 -0.909274 0.416198 0  255 255 255 255
-13.4342 6.67256 6.34773 -0.895611 0.444838 0  255 255 255 255
-13.2157 7.09544 6.34773 -0.881047 0.47303 0  255 255 255 255
-12.9839 7.51118 6.34773 -0.865595 0.500745 0  255 255 255 255
-12.7391 7.91935 6.34773 -0.849271 0.527957 0  255 255 255 255
-12.4814 8.31955 6.34773 -0.832093 0.554636 0  255 255 255 255
-12.2111 8.71137 6.34773 -0.814076 0.580758 0  255 255 255 255
-11.9286 9.09442 6.34773 -0.79524 0.606294 0  255 255 255 255
-11.6341 9.46831 6.34773 -0.775603 0.63122 0  255 255 255 255
-11.3278 9.83267 6.34773 -0.755186 0.655511 0  255 255 255 255
-11.0101 10.1871 6.34773 -0.734007 0.679141 0  255 255 255 255
-10.6814 10.5313 6.34773 -0.71209 0.702088 0  255 255 255 255
-10.3418 10.8649 6.34773 -0.689456 0.724328 0  255 255 255 255
-9.99191 11.1876 6.34773 -0.666127 0.745838 0  255 255 255 255
-9.63192 11.499 6.34773 -0.642128 0.766597 0  255 255 255 255
-9.26223 11.7988 6.34773 -0.617482 0.786585 0  255 255 255 255
-8.88322 12.0867 6.34773 -0.592215 0.80578 0  255 255 255 255
-8.49526 12.3625 6.34773 -0.566351 0.824164 0  255 255 255 255
-8.09875 12.6258 6.34773 -0.539917 0.841719 0  255 255 255 255
-7.69408 12.8764 6.34773 -0.512939 0.858425 0  255 255 255 255
-7.28167 13.114 6.34773 -0.485444 0.874268 0  255 255 255 255
-6.86192 13.3384 6.34773 -0.457461 0.88923 0  255 255 255 255
-6.43526 13.5494 6.34773 -0.429018 0.903296 0  255 255 255 255
-6.00213 13.7468 6.34773 -0.400142 0.916453 0  255 255 255 255
-5.56295 13.9303 6.34773 -0.370863 0.928687 0  255 255 255 255
-5.11817 14.0998 6.34773 -0.341211 0.939987 0  255 255 255 255
-4.66823 14.2551 6.34773 -0.311216 0.950339 0  255 255 255 255
-4.2136 14.396 6.34773 -0.280907 0.959735 0  255 255 255 255
-3.75472 14.5225 6.34773 -0.250315 0.968165 0  255 255 255 255
-3.29206 14.6343 6.34773 -0.219471 0.975619 0  255 255 255 255
-2.82609 14.7314 6.34773 -0.188406 0.982091 0  255 255 255 255
-2.35727 14.8136 6.34773 -0.157151 0.987575 0  255 255 255 255
-1.88608 14.881 6.34773 -0.125739 0.992063 0  255 255 255 255
-1.41299 14.9333 6.34773 -0.094199 0.995553 0  255 255 255 255
-0.938473 14.9706 6.34773 -0.062565 0.998041 0  255 255 255 255
-0.463014 14.9929 6.34773 -0.030868 0.999523 0  255 255 255 255
0.012911 15 6.34773 0.000861 1 0  255 255 255 255
0.488823 14.992 6.34773 0.032588 0.999469 0  255 255 255 255
0.964243 14.969 6.34773 0.064283 0.997932 0  255 255 255 255
1.43869 14.9308 6.34773 0.095913 0.99539 0  255 255 255 255
1.91169 14.8777 6.34773 0.127446 0.991845 0  255 255 255 255
2.38277 14.8095 6.34773 0.158851 0.987303 0  255 255 255 255
2.85144 14.7265 6.34773 0.190096 0.981765 0  255 255 255 255
3.31725 14.6286 6.34773 0.22115 0.97524 0  255 255 255 255
3.77972 14.516 6.34773 0.251981 0.967732 0  255 255 255 255
4.23838 14.3888 6.34773 0.282558 0.95925 0  255 255 255 255
4.69277 14.247 6.34773 0.312851 0.949802 0  255 255 255 255
5.14243 14.091 6.34773 0.342829 0.939398 0  255 255 255 255
5.58692 13.9207 6.34773 0.372461 0.928048 0  255 255 255 255
6.02578 13.7364 6.34773 0.401719 0.915763 0  255 255 255 255
6.45858 13.5383 6.34773 0.430572 0.902556 0  255 255 255 255
6.88487 13.3266 6.34773 0.458991 0.888441 0  255 255 255 255
7.30423 13.1015 6.34773 0.486949 0.873431 0  255 255 255 255
7.71624 12.8631 6.34773 0.514416 0.857541 0  255 255 255 255
8.12047 12.6118 6.34774 0.541365 0.840788 0  255 255 255 255
8.51653 12.3478 6.34774 0.567768 0.823188 0  255 255 255 255
8.904 12.0714 6.34776 0.5936 0.80476 0  255 255 255 255
9.28251 11.7828 6.34778 0.618834 0.785522 0  255 255 255 255
9.65165 11.4824 6.34782 0.643443 0.765494 0  255 255 255 255
10.011 11.1705 6.34789 0.667403 0.744697 0  255 255 255 255
10.3603 10.8473 6.348 0.690688 0.723153 0  255 255 255 255
10.6991 10.5133 6.34818 0.713273 0.700886 0  255 255 255 255
11.027 10.1688 6.34844 0.735134 0.677922 0  255 255 255 255
11.3437 9.8143 6.34882 0.756246 0.654287 0  255 255 255 255
11.6488 9.45014 6.34934 0.776588 0.630009 0  255 255 255 255
11.942 9.07676 6.35 0.796136 0.605117 0  255 255 255 255
12.2231 8.69461 6.35079 0.814872 0.57964 0  255 255 255 255
12.4917 8.30407 6.35172 0.832779 0.553605 0  255 255 255 255
12.7477 7.90546 6.35285 0.849846 0.527031 0  255 255 255 255
12.991 7.49884 6.35436 0.86607 0.499923 0  255 255 255 255
13.2219 7.08397 6.35642 0.881457 0.472265 0  255 255 255 255
13.4401 6.66053 6.35875 0.896009 0.444036 0  255 255 255 255
13.6457 6.22854 6.36079 0.909714 0.415236 0  255 255 255 255
13.8383 5.7881 6.36229 0.922552 0.385874 0  255 255 255 255
14.0177 5.33901 6.36326 0.934511 0.355934 0  255 255 255 255
14.1838 4.88059 6.36367 0.945586 0.325372 0  255 255 255 255
14.3365 4.41174 6.3633 0.95577 0.294116 0  255 255 255 255
14.4756 3.93137 6.3618 0.965043 0.262091 0  255 255 255 255
14.5996 3.44283 6.35849 0.973303 0.229522 0  255 255 255 255
14.6957 3.00592 6.3435 0.979715 0.200395 0  255 255 255 255
14.7681 2.62751 6.21668 0.984539 0.175167 0  255 255 255 255
14.8365 2.20846 6.34872 0.989102 0.14723 0  255 255 255 255
14.8869 1.83827 6.278 0.992462 0.122551 0  255 255 255 255
14.9867 0.632631 20.3599 0.99911 0.042175 0  255 255 255 255
14.9867 -0.632551 1.63979 0.99911 -0.04217 0  255 255 255 255
14.959 1.10777 15.7733 0.997269 0.073852 0  255 255 255 255
14.958 -1.12211 6.19624 0.997198 -0.074807 0  255 255 255 255
14.9438 -1.29751 15.9463 0.996252 -0.0865 0  255 255 255 255
14.9437 1.29864 6.05207 0.996245 0.086576 0  255 255 255 255
14.8529 2.09571 18.3683 0.990192 0.139714 0  255 255 255 255
14.7788 2.56658 18.4645 0.985253 0.171106 0  255 255 255 255
14.8444 -2.15495 18.5188 0.989627 -0.143663 0  255 255 255 255
14.8532 -2.09364 3.62325 0.990211 -0.139576 0  255 255 255 255
14.7792 -2.56395 3.52727 0.985283 -0.17093 0  255 255 255 255
14.8443 2.15531 3.48064 0.989623 0.143688 0  255 255 255 255
14.891 -1.80466 18.4995 0.992736 -0.120311 0  255 255 255 255
14.891 1.80498 3.50011 0.992734 0.120332 0  255 255 255 255
14.9061 1.67587 18.2978 0.993739 0.111725 0  255 255 255 255
14.9062 -1.67451 3.69436 0.993749 -0.111634 0  255 255 255 255
14.9613 1.07709 18.5318 0.997419 0.071806 0  255 255 255 255
14.9613 -1.07663 3.46419 0.997421 -0.071775 0  255 255 255 255
14.9897 0.555849 13.6213 0.999313 0.037057 0  255 255 255 255
14.9893 -0.566749 8.3772 0.999286 -0.037783 0  255 255 255 255
14.9912 -0.513742 13.5155 0.999413 -0.034249 0  255 255 255 255
14.9911 0.515734 8.48154 0.999409 0.034382 0  255 255 255 255
14.9887 0.581795 7.52293 0.999248 0.038786 0  255 255 255 255
14.9888 -0.580598 14.475 0.999251 -0.038707 0  255 255 255 255
14.9446 1.28799 20.6519 0.996307 0.085866 0  255 255 255 255
14.9446 -1.28787 1.34768 0.996307 -0.085858 0  255 255 255 255
14.8903 1.81113 12.4292 0.992684 0.120742 0  255 255 255 255
14.8826 -1.87341 9.58465 0.99217 -0.124894 0  255 255 255 255
14.9535 1.18048 17.1867 0.996898 0.078699 0  255 255 255 255
14.9534 -1.18085 4.79832 0.996897 -0.078723 0  255 255 255 255
14.9321 1.42557 12.3716 0.995474 0.095038 0  255 255 255 255
14.9287 -1.461 9.64496 0.995245 -0.0974 0  255 255 255 255
14.984 0.692679 18.7081 0.998933 0.046179 0  255 255 255 255
14.984 -0.692469 3.2898 0.998934 -0.046165 0  255 255 255 255
14.9581 -1.12044 17.2543 0.997206 -0.074696 0  255 255 255 255
14.9581 1.1209 4.74506 0.997204 0.074726 0  255 255 255 255
14.8492 2.12155 17.3255 0.989947 0.141437 0  255 255 255 255
14.8498 -2.11712 4.65299 0.98999 -0.141141 0  255 255 255 255
14.7804 2.55709 17.351 0.985362 0.170473 0  255 255 255 255
14.6988 2.99086 17.3562 0.97992 0.19939 0  255 255 255 255
14.6034 3.42637 17.3535 0.973562 0.228425 0  255 255 255 255
14.4937 3.86424 17.3557 0.966247 0.257616 0  255 255 255 255
14.3697 4.30266 17.3606 0.957977 0.286844 0  255 255 255 255
14.2313 4.74025 17.3648 0.948754 0.316017 0  255 255 255 255
14.0786 5.17608 17.3679 0.938576 0.345072 0  255 255 255 255
13.9119 5.60891 17.3698 0.927458 0.373927 0  255 255 255 255
13.7311 6.03785 17.3673 0.91541 0.402523 0  255 255 255 255
13.5362 6.463 17.3588 0.902416 0.430867 0  255 255 255 255
13.327 6.88412 17.3477 0.888467 0.458941 0  255 255 255 255
13.1035 7.30058 17.3364 0.873566 0.486706 0  255 255 255 255
12.8655 7.71225 17.3256 0.8577 0.51415 0  255 255 255 255
12.6131 8.11844 17.3169 0.840875 0.541229 0  255 255 255 255
12.3472 8.51744 17.3111 0.823146 0.567829 0  255 255 255 255
12.0687 8.90761 17.3076 0.804583 0.593841 0  255 255 255 255
11.7785 9.28799 17.3055 0.785234 0.619199 0  255 255 255 255
11.4769 9.65822 17.3041 0.765126 0.643881 0  255 255 255 255
11.1641 10.0181 17.3029 0.744273 0.667876 0  255 255 255 255
10.8403 10.3676 17.3019 0.722686 0.691176 0  255 255 255 255
10.5057 10.7065 17.3009 0.700381 0.713769 0  255 255 255 255
10.1606 11.0346 17.2999 0.677374 0.735639 0  255 255 255 255
9.80529 11.3515 17.2992 0.653686 0.756766 0  255 255 255 255
9.44012 11.6569 17.2985 0.629341 0.777129 0  255 255 255 255
9.06545 11.9506 17.298 0.604363 0.796709 0  255 255 255 255
8.68167 12.2323 17.2977 0.578778 0.815485 0  255 255 255 255
8.28915 12.5016 17.2974 0.55261 0.83344 0  255 255 255 255
7.8883 12.7583 17.2972 0.525887 0.850555 0  255 255 255 255
7.47951 13.0022 17.2971 0.498634 0.866812 0  255 255 255 255
7.0632 13.233 17.297 0.47088 0.882197 0  255 255 255 255
6.63978 13.4504 17.297 0.442652 0.896693 0  255 255 255 255
6.20968 13.6543 17.2969 0.413979 0.910287 0  255 255 255 255
5.77333 13.8444 17.2969 0.384889 0.922963 0  255 255 255 255
5.33117 14.0207 17.2969 0.355411 0.93471 0  255 255 255 255
4.88363 14.1827 17.2969 0.325576 0.945516 0  255 255 255 255
4.43119 14.3305 17.2969 0.295412 0.95537 0  255 255 255 255
3.97428 14.4639 17.2969 0.264952 0.964262 0  255 255 255 255
3.51337 14.5827 17.2969 0.234224 0.972183 0  255 255 255 255
3.04891 14.6869 17.2969 0.203261 0.979125 0  255 255 255 255
2.5814 14.7762 17.2969 0.172093 0.985081 0  255 255 255 255
2.11128 14.8507 17.2969 0.140752 0.990045 0  255 255 255 255
1.63903 14.9102 17.2969 0.109269 0.994012 0  255 255 255 255
1.16514 14.9547 17.2969 0.077676 0.996979 0  255 255 255 255
0.690072 14.9841 17.2969 0.046005 0.998941 0  255 255 255 255
0.214309 14.9985 17.2969 0.014287 0.999898 0  255 255 255 255
-0.261669 14.9977 17.2969 -0.017445 0.999848 0  255 255 255 255
-0.737384 14.9819 17.2969 -0.049159 0.998791 0  255 255 255 255
-1.21236 14.9509 17.2969 -0.080824 0.996728 0  255 255 255 255
-1.68611 14.9049 17.2969 -0.112407 0.993662 0  255 255 255 255
-2.15816 14.8439 17.2969 -0.143877 0.989596 0  255 255 255 255
-2.62804 14.768 17.2969 -0.175203 0.984532 0  255 255 255 255
-3.09528 14.6772 17.2969 -0.206352 0.978478 0  255 255 255 255
-3.5594 14.5716 17.2969 -0.237293 0.971438 0  255 255 255 255
-4.01993 14.4513 17.2969 -0.267995 0.96342 0  255 255 255 255
-4.47642 14.3165 17.2969 -0.298428 0.954432 0  255 255 255 255
-4.92839 14.1672 17.2969 -0.32856 0.944483 0  255 255 255 255
-5.37541 14.0037 17.2969 -0.358361 0.933583 0  255 255 255 255
-5.81701 13.8261 17.2969 -0.387801 0.921743 0  255 255 255 255
-6.25276 13.6346 17.2969 -0.416851 0.908975 0  255 255 255 255
-6.68221 13.4294 17.2969 -0.445481 0.895292 0  255 255 255 255
-7.10493 13.2106 17.2969 -0.473662 0.880707 0  255 255 255 255
-7.5205 12.9785 17.2969 -0.501367 0.865235 0  255 255 255 255
-7.9285 12.7334 17.2969 -0.528566 0.848892 0  255 255 255 255
-8.32851 12.4754 17.2969 -0.555234 0.831694 0  255 255 255 255
-8.72013 12.2049 17.2969 -0.581342 0.813659 0  255 255 255 255
-9.10298 11.9221 17.2969 -0.606865 0.794805 0  255 255 255 255
-9.47666 11.6272 17.2969 -0.631777 0.77515 0  255 255 255 255
-9.8408 11.3207 17.2969 -0.656053 0.754715 0  255 255 255 255
-10.195 11.0028 17.2969 -0.679668 0.73352 0  255 255 255 255
-10.539 10.6738 17.2969 -0.702599 0.711586 0  255 255 255 255
-10.8723 10.334 17.2969 -0.724823 0.688935 0  255 255 255 255
-11.1947 9.98387 17.2969 -0.746316 0.665592 0  255 255 255 255
-11.5059 9.62366 17.2969 -0.767058 0.641577 0  255 255 255 255
-11.8054 9.25376 17.2969 -0.787028 0.616917 0  255 255 255 255
-12.0931 8.87454 17.2969 -0.806205 0.591636 0  255 255 255 255
-12.3686 8.48638 17.2969 -0.824571 0.565759 0  255 255 255 255
-12.6316 8.08968 17.2969 -0.842106 0.539312 0  255 255 255 255
-12.8819 7.68483 17.2969 -0.858793 0.512322 0  255 255 255 255
-13.1192 7.27225 17.2969 -0.874616 0.484816 0  255 255 255 255
-13.3434 6.85234 17.2969 -0.889558 0.456823 0  255 255 255 255
-13.5541 6.42553 17.2969 -0.903604 0.428369 0  255 255 255 255
-13.7511 5.99225 17.2969 -0.91674 0.399484 0  255 255 255 255
-13.9343 5.55294 17.2969 -0.928954 0.370196 0  255 255 255 255
-14.1035 5.10804 17.2969 -0.940231 0.340536 0  255 255 255 255
-14.2584 4.658 17.2969 -0.950563 0.310533 0  255 255 255 255
-14.399 4.20326 17.2969 -0.959937 0.280217 0  255 255 255 255
-14.5252 3.74429 17.2969 -0.968344 0.249619 0  255 255 255 255
-14.6366 3.28155 17.2969 -0.975776 0.21877 0  255 255 255 255
-14.7334 2.81551 17.2969 -0.982226 0.187701 0  255 255 255 255
-14.8153 2.34663 17.2969 -0.987687 0.156442 0  255 255 255 255
-14.8823 1.87539 17.2969 -0.992153 0.125026 0  255 255 255 255
-14.9343 1.40226 17.2969 -0.995621 0.093484 0  255 255 255 255
-14.9713 0.927722 17.2969 -0.998086 0.061848 0  255 255 255 255
-14.9932 0.452247 17.2969 -0.999545 0.03015 0  255 255 255 255
-15 -0.023683 17.2969 -0.999999 -0.001579 0  255 255 255 255
-14.9917 -0.499589 17.2969 -0.999445 -0.033306 0  255 255 255 255
-14.9683 -0.974993 17.2969 -0.997885 -0.065 0  255 255 255 255
-14.9298 -1.44941 17.2969 -0.995321 -0.096628 0  255 255 255 255
-14.8763 -1.92238 17.2969 -0.991754 -0.128158 0  255 255 255 255
-14.8078 -2.3934 17.2969 -0.987188 -0.15956 0  255 255 255 255
-14.7244 -2.86202 17.2969 -0.981629 -0.190801 0  255 255 255 255
-14.6262 -3.32775 17.2969 -0.975081 -0.22185 0  255 255 255 255
-14.5133 -3.79014 17.2969 -0.967551 -0.252676 0  255 255 255 255
-14.3857 -4.24871 17.2969 -0.959047 -0.283247 0  255 255 255 255
-14.2437 -4.703 17.2969 -0.949577 -0.313533 0  255 255 255 255
-14.0873 -5.15255 17.2969 -0.939151 -0.343503 0  255 255 255 255
-13.9167 -5.59692 17.2969 -0.92778 -0.373128 0  255 255 255 255
-13.7321 -6.03565 17.2969 -0.915474 -0.402376 0  255 255 255 255
-13.5337 -6.4683 17.2969 -0.902247 -0.43122 0  255 255 255 255
-13.3217 -6.89444 17.2969 -0.888111 -0.459629 0  255 255 255 255
-13.0962 -7.31364 17.2969 -0.873081 -0.487576 0  255 255 255 255
-12.8576 -7.72547 17.2969 -0.857171 -0.515031 0  255 255 255 255
-12.606 -8.12953 17.2969 -0.840399 -0.541968 0  255 255 255 255
-12.3417 -8.52539 17.2969 -0.82278 -0.56836 0  255 255 255 255
-12.065 -8.91268 17.2969 -0.804333 -0.594179 0  255 255 255 255
-11.7761 -9.29099 17.2969 -0.785076 -0.619399 0  255 255 255 255
-11.4754 -9.65994 17.2969 -0.765029 -0.643996 0  255 255 255 255
-11.1632 -10.0192 17.2969 -0.744211 -0.667945 0  255 255 255 255
-10.8397 -10.3683 17.2969 -0.722644 -0.691221 0  255 255 255 255
-10.5052 -10.707 17.2969 -0.700349 -0.713801 0  255 255 255 255
-10.1602 -11.0349 17.2969 -0.677349 -0.735662 0  255 255 255 255
-9.805 -11.3517 17.2969 -0.653667 -0.756783 0  255 255 255 255
-9.4399 -11.6571 17.2969 -0.629326 -0.777141 0  255 255 255 255
-9.06529 -11.9508 17.2969 -0.604353 -0.796717 0  255 255 255 255
-8.68155 -12.2324 17.2969 -0.57877 -0.815491 0  255 255 255 255
-8.28907 -12.5017 17.2969 -0.552605 -0.833443 0  255 255 255 255
-7.88825 -12.7584 17.2969 -0.525883 -0.850557 0  255 255 255 255
-7.47948 -13.0022 17.2969 -0.498632 -0.866814 0  255 255 255 255
-7.06318 -13.233 17.2969 -0.470879 -0.882198 0  255 255 255 255
-6.63977 -13.4504 17.2969 -0.442651 -0.896694 0  255 255 255 255
-6.20967 -13.6543 17.2969 -0.413978 -0.910287 0  255 255 255 255
-5.77333 -13.8444 17.2969 -0.384888 -0.922963 0  255 255 255 255
-5.33116 -14.0207 17.2969 -0.355411 -0.93471 0  255 255 255 255
-4.88363 -14.1827 17.2969 -0.325576 -0.945516 0  255 255 255 255
-4.43118 -14.3305 17.2969 -0.295412 -0.95537 0  255 255 255 255
-3.97428 -14.4639 17.2969 -0.264952 -0.964262 0  255 255 255 255
-3.51336 -14.5827 17.2969 -0.234224 -0.972183 0  255 255 255 255
-3.04891 -14.6869 17.2969 -0.203261 -0.979125 0  255 255 255 255
-2.5814 -14.7762 17.2969 -0.172093 -0.985081 0  255 255 255 255
-2.11128 -14.8507 17.2969 -0.140752 -0.990045 0  255 255 255 255
-1.63903 -14.9102 17.2969 -0.109269 -0.994012 0  255 255 255 255
-1.16514 -14.9547 17.2969 -0.077676 -0.996979 0  255 255 255 255
-0.690072 -14.9841 17.2969 -0.046005 -0.998941 0  255 255 255 255
-0.214309 -14.9985 17.2969 -0.014287 -0.999898 0  255 255 255 255
0.261669 -14.9977 17.2969 0.017445 -0.999848 0  255 255 255 255
0.737384 -14.9819 17.2969 0.049159 -0.998791 0  255 255 255 255
1.21236 -14.9509 17.2969 0.080824 -0.996728 0  255 255 255 255
1.68611 -14.9049 17.2969 0.112407 -0.993662 0  255 255 255 255
2.15816 -14.8439 17.2969 0.143877 -0.989596 0  255 255 255 255
2.62804 -14.768 17.2969 0.175203 -0.984532 0  255 255 255 255
3.09528 -14.6772 17.2969 0.206352 -0.978478 0  255 255 255 255
3.5594 -14.5716 17.2969 0.237293 -0.971438 0  255 255 255 255
4.01993 -14.4513 17.2969 0.267995 -0.96342 0  255 255 255 255
4.47642 -14.3165 17.2969 0.298428 -0.954432 0  255 255 255 255
4.92839 -14.1672 17.2969 0.32856 -0.944483 0  255 255 255 255
5.37541 -14.0037 17.2969 0.358361 -0.933583 0  255 255 255 255
5.81701 -13.8261 17.2969 0.387801 -0.921743 0  255 255 255 255
6.25276 -13.6346 17.2969 0.416851 -0.908975 0  255 255 255 255
6.68221 -13.4294 17.2969 0.445481 -0.895292 0  255 255 255 255
7.10493 -13.2106 17.2969 0.473662 -0.880707 0  255 255 255 255
7.5205 -12.9785 17.2969 0.501367 -0.865235 0  255 255 255 255
7.92849 -12.7334 17.2969 0.528566 -0.848892 0  255 255 255 255
8.32851 -12.4754 17.2969 0.555234 -0.831694 0  255 255 255 255
8.72013 -12.2049 17.2969 0.581342 -0.813659 0  255 255 255 255
9.10297 -11.9221 17.2969 0.606865 -0.794805 0  255 255 255 255
9.47665 -11.6273 17.2969 0.631777 -0.77515 0  255 255 255 255
9.84079 -11.3207 17.2968 0.656052 -0.754715 0  255 255 255 255
10.195 -11.0028 17.2968 0.679667 -0.73352 0  255 255 255 255
10.539 -10.6738 17.2968 0.702598 -0.711587 0  255 255 255 255
10.8723 -10.334 17.2967 0.724822 -0.688936 0  255 255 255 255
11.1948 -9.98386 17.2966 0.746317 -0.665591 0  255 255 255 255
11.5059 -9.62362 17.2965 0.767061 -0.641574 0  255 255 255 255
11.8055 -9.25366 17.2964 0.787033 -0.61691 0  255 255 255 255
12.0932 -8.87434 17.2964 0.806215 -0.591623 0  255 255 255 255
12.3688 -8.48604 17.2963 0.824586 -0.565736 0  255 255 255 255
12.632 -8.0891 17.2963 0.842131 -0.539273 0  255 255 255 255
12.8825 -7.68384 17.2964 0.858833 -0.512256 0  255 255 255 255
13.1202 -7.27054 17.2966 0.874679 -0.484703 0  255 255 255 255
13.3449 -6.84943 17.2971 0.889657 -0.456629 0  255 255 255 255
13.5564 -6.42066 17.2979 0.903758 -0.428044 0  255 255 255 255
13.7546 -5.9843 17.2994 0.916971 -0.398954 0  255 255 255 255
13.9393 -5.54038 17.3019 0.929287 -0.369359 0  255 255 255 255
14.1104 -5.08886 17.3057 0.940694 -0.339257 0  255 255 255 255
14.2676 -4.62973 17.3113 0.951176 -0.308649 0  255 255 255 255
14.4107 -4.16317 17.3197 0.960713 -0.277544 0  255 255 255 255
14.539 -3.69002 17.3324 0.96927 -0.246001 0  255 255 255 255
14.6517 -3.21378 17.3534 0.976778 -0.214252 0  255 255 255 255
14.7479 -2.7385 17.3849 0.983193 -0.182567 0  255 255 255 255
14.8255 -2.28141 17.4653 0.988366 -0.152094 0  255 255 255 255
14.8765 -1.92053 17.5699 0.99177 -0.128035 0  255 255 255 255
14.7816 -2.55061 4.62745 0.985437 -0.170041 0  255 255 255 255
14.7004 -2.98296 4.62405 0.980027 -0.198864 0  255 255 255 255
14.6054 -3.41799 4.63055 0.973692 -0.227866 0  255 255 255 255
14.4957 -3.85663 4.63297 0.966383 -0.257108 0  255 255 255 255
14.3714 -4.29672 4.63221 0.958096 -0.286448 0  255 255 255 255
14.2327 -4.73619 4.63069 0.948844 -0.315746 0  255 255 255 255
14.0795 -5.17364 4.62921 0.938636 -0.344909 0  255 255 255 255
13.9124 -5.60762 4.62812 0.927493 -0.373841 0  255 255 255 255
13.7314 -6.03731 4.63104 0.915426 -0.402487 0  255 255 255 255
13.5363 -6.46295 4.63981 0.902417 -0.430863 0  255 255 255 255
13.3268 -6.88443 4.651 0.888456 -0.458962 0  255 255 255 255
13.1031 -7.30125 4.66241 0.873541 -0.48675 0  255 255 255 255
12.8648 -7.71335 4.67321 0.857656 -0.514223 0  255 255 255 255
12.6121 -8.12006 4.68198 0.840805 -0.541338 0  255 255 255 255
12.3456 -8.51972 4.6878 0.823042 -0.567981 0  255 255 255 255
12.0665 -8.91062 4.69112 0.804435 -0.594041 0  255 255 255 255
11.7755 -9.29176 4.69279 0.785036 -0.61945 0  255 255 255 255
11.4731 -9.66267 4.69351 0.764876 -0.644178 0  255 255 255 255
11.1596 -10.0231 4.69372 0.743975 -0.668208 0  255 255 255 255
10.8352 -10.3729 4.69369 0.722348 -0.69153 0  255 255 255 255
10.5002 -10.712 4.69357 0.700012 -0.714131 0  255 255 255 255
10.1547 -11.04 4.69343 0.676982 -0.736 0  255 255 255 255
9.79918 -11.3568 4.6933 0.653279 -0.757118 0  255 255 255 255
9.43383 -11.662 4.69321 0.628922 -0.777468 0  255 255 255 255
9.05902 -11.9555 4.69314 0.603935 -0.797034 0  255 255 255 255
8.67511 -12.2369 4.69309 0.578341 -0.815795 0  255 255 255 255
8.28248 -12.506 4.69306 0.552166 -0.833735 0  255 255 255 255
7.88152 -12.7625 4.69304 0.525435 -0.850834 0  255 255 255 255
7.47262 -13.0062 4.69303 0.498175 -0.867077 0  255 255 255 255
7.0562 -13.2367 4.69302 0.470413 -0.882446 0  255 255 255 255
6.63267 -13.4539 4.69302 0.442178 -0.896927 0  255 255 255 255
6.20247 -13.6576 4.69301 0.413498 -0.910505 0  255 255 255 255
5.76602 -13.8475 4.69301 0.384401 -0.923166 0  255 255 255 255
5.32377 -14.0235 4.69301 0.354918 -0.934898 0  255 255 255 255
4.87615 -14.1853 4.69301 0.325077 -0.945688 0  255 255 255 255
4.42362 -14.3329 4.69301 0.294908 -0.955526 0  255 255 255 255
3.96665 -14.466 4.69301 0.264443 -0.964401 0  255 255 255 255
3.50567 -14.5846 4.69301 0.233711 -0.972306 0  255 255 255 255
3.04117 -14.6885 4.69301 0.202744 -0.979232 0  255 255 255 255
2.5736 -14.7776 4.69301 0.171573 -0.985171 0  255 255 255 255
2.10344 -14.8518 4.69301 0.14023 -0.990119 0  255 255 255 255
1.63117 -14.911 4.69301 0.108745 -0.99407 0  255 255 255 255
1.15725 -14.9553 4.69301 0.07715 -0.997019 0  255 255 255 255
0.682167 -14.9845 4.69301 0.045478 -0.998965 0  255 255 255 255
0.206397 -14.9986 4.69301 0.01376 -0.999905 0  255 255 255 255
-0.269581 -14.9976 4.69301 -0.017972 -0.999838 0  255 255 255 255
-0.745288 -14.9815 4.69301 -0.049686 -0.998765 0  255 255 255 255
-1.22024 -14.9503 4.69301 -0.08135 -0.996686 0  255 255 255 255
-1.69397 -14.904 4.69301 -0.112931 -0.993603 0  255 255 255 255
-2.16599 -14.8428 4.69301 -0.144399 -0.989519 0  255 255 255 255
-2.63583 -14.7666 4.69301 -0.175722 -0.98444 0  255 255 255 255
-3.10302 -14.6755 4.69301 -0.206868 -0.978369 0  255 255 255 255
-3.56708 -14.5697 4.69301 -0.237805 -0.971313 0  255 255 255 255
-4.02755 -14.4492 4.69301 -0.268503 -0.963279 0  255 255 255 255
-4.48397 -14.3141 4.69301 -0.298931 -0.954275 0  255 255 255 255
-4.93587 -14.1646 4.69301 -0.329058 -0.94431 0  255 255 255 255
-5.3828 -14.0009 4.69301 -0.358853 -0.933394 0  255 255 255 255
-5.82431 -13.8231 4.69301 -0.388287 -0.921538 0  255 255 255 255
-6.25995 -13.6313 4.69301 -0.41733 -0.908755 0  255 255 255 255
-6.68929 -13.4258 4.69301 -0.445953 -0.895056 0  255 255 255 255
-7.1119 -13.2068 4.69301 -0.474127 -0.880457 0  255 255 255 255
-7.52735 -12.9746 4.69301 -0.501823 -0.86497 0  255 255 255 255
-7.93521 -12.7292 4.69301 -0.529014 -0.848613 0  255 255 255 255
-8.33509 -12.471 4.69301 -0.555673 -0.831401 0  255 255 255 255
-8.72657 -12.2003 4.69301 -0.581771 -0.813352 0  255 255 255 255
-9.10927 -11.9173 4.69301 -0.607285 -0.794484 0  255 255 255 255
-9.48279 -11.6222 4.69301 -0.632186 -0.774817 0  255 255 255 255
-9.84677 -11.3155 4.69301 -0.656451 -0.754368 0  255 255 255 255
-10.2008 -10.9974 4.69301 -0.680055 -0.733161 0  255 255 255 255
-10.5446 -10.6682 4.69301 -0.702975 -0.711215 0  255 255 255 255
-10.8778 -10.3283 4.69301 -0.725186 -0.688553 0  255 255 255 255
-11.2 -9.97797 4.69301 -0.746667 -0.665198 0  255 255 255 255
-11.511 -9.61759 4.69301 -0.767397 -0.641173 0  255 255 255 255
-11.8103 -9.24753 4.69301 -0.787353 -0.616502 0  255 255 255 255
-12.0978 -8.86816 4.69301 -0.806517 -0.59121 0  255 255 255 255
-12.373 -8.47985 4.69301 -0.824869 -0.565324 0  255 255 255 255
-12.6359 -8.08301 4.69301 -0.84239 -0.538868 0  255 255 255 255
-12.886 -7.67803 4.69301 -0.859064 -0.511869 0  255 255 255 255
-13.1231 -7.26533 4.69301 -0.874872 -0.484355 0  255 255 255 255
-13.347 -6.8453 4.69301 -0.889799 -0.456353 0  255 255 255 255
-13.5574 -6.41838 4.69301 -0.90383 -0.427892 0  255 255 255 255
-13.7543 -5.985 4.69301 -0.916951 -0.399 0  255 255 255 255
-13.9372 -5.54559 4.69301 -0.929149 -0.369706 0  255 255 255 255
-14.1062 -5.1006 4.69301 -0.940411 -0.34004 0  255 255 255 255
-14.2609 -4.65047 4.69301 -0.950726 -0.310032 0  255 255 255 255
-14.4013 -4.19566 4.69301 -0.960084 -0.279711 0  255 255 255 255
-14.5271 -3.73663 4.69301 -0.968476 -0.249109 0  255 255 255 255
-14.6384 -3.27383 4.69301 -0.975892 -0.218255 0  255 255 255 255
-14.7349 -2.80774 4.69301 -0.982325 -0.187182 0  255 255 255 255
-14.8165 -2.33882 4.69301 -0.98777 -0.155921 0  255 255 255 255
-14.8833 -1.86754 4.69301 -0.992219 -0.124503 0  255 255 255 255
-14.935 -1.39438 4.69301 -0.99567 -0.092959 0  255 255 255 255
-14.9718 -0.919824 4.69301 -0.998118 -0.061322 0  255 255 255 255
-14.9934 -0.444338 4.69301 -0.999561 -0.029623 0  255 255 255 255
-15 0.031596 4.69301 -0.999998 0.002106 0  255 255 255 255
-14.9914 0.507498 4.69301 -0.999427 0.033833 0  255 255 255 255
-14.9678 0.982889 4.69301 -0.997851 0.065526 0  255 255 255 255
-14.929 1.45729 4.69301 -0.995269 0.097153 0  255 255 255 255
-14.8753 1.93023 4.69301 -0.991686 0.128682 0  255 255 255 255
-14.8066 2.40122 4.69301 -0.987104 0.160081 0  255 255 255 255
-14.7229 2.86979 4.69301 -0.981528 0.191319 0  255 255 255 255
-14.6245 3.33547 4.69301 -0.974964 0.222365 0  255 255 255 255
-14.5113 3.7978 4.69301 -0.967418 0.253186 0  255 255 255 255
-14.3835 4.2563 4.69301 -0.958897 0.283753 0  255 255 255 255
-14.2412 4.71051 4.69301 -0.949412 0.314034 0  255 255 255 255
-14.0846 5.15998 4.69301 -0.93897 0.343999 0  255 255 255 255
-13.9137 5.60426 4.69301 -0.927583 0.373617 0  255 255 255 255
-13.7289 6.04289 4.69301 -0.915262 0.402859 0  255 255 255 255
-13.5303 6.47544 4.69301 -0.902019 0.431696 0  255 255 255 255
-13.318 6.90147 4.69301 -0.887868 0.460098 0  255 255 255 255
-13.0924 7.32055 4.69301 -0.872823 0.488036 0  255 255 255 255
-12.8535 7.73225 4.69301 -0.856899 0.515484 0  255 255 255 255
-12.6017 8.13618 4.69301 -0.840113 0.542412 0  255 255 255 255
-12.3372 8.5319 4.69301 -0.82248 0.568794 0  255 255 255 255
-12.0603 8.91904 4.69301 -0.80402 0.594603 0  255 255 255 255
-11.7712 9.2972 4.69301 -0.784749 0.619813 0  255 255 255 255
-11.4703 9.666 4.69301 -0.764689 0.6444 0  255 255 255 255
-11.1579 10.0251 4.69301 -0.743858 0.668337 0  255 255 255 255
-10.8342 10.374 4.69301 -0.722279 0.691602 0  255 255 255 255
-10.4996 10.7126 4.69301 -0.699972 0.71417 0  255 255 255 255
-10.1544 11.0403 4.69301 -0.676961 0.736019 0  255 255 255 255
-9.79901 11.3569 4.69301 -0.653267 0.757127 0  255 255 255 255
-9.43375 11.6621 4.69301 -0.628916 0.777473 0  255 255 255 255
-9.05898 11.9555 4.69301 -0.603932 0.797036 0  255 255 255 255
-8.6751 12.2369 4.69301 -0.57834 0.815796 0  255 255 255 255
-8.28248 12.506 4.69301 -0.552165 0.833735 0  255 255 255 255
-7.88152 12.7625 4.69301 -0.525434 0.850834 0  255 255 255 255
-7.47262 13.0062 4.69301 -0.498175 0.867077 0  255 255 255 255
-7.0562 13.2367 4.69301 -0.470413 0.882446 0  255 255 255 255
-6.63267 13.4539 4.69301 -0.442178 0.896927 0  255 255 255 255
-6.20247 13.6576 4.69301 -0.413498 0.910505 0  255 255 255 255
-5.76602 13.8475 4.69301 -0.384401 0.923166 0  255 255 255 255
-5.32377 14.0235 4.69301 -0.354918 0.934898 0  255 255 255 255
-4.87615 14.1853 4.69301 -0.325077 0.945688 0  255 255 255 255
-4.42362 14.3329 4.69301 -0.294908 0.955526 0  255 255 255 255
-3.96665 14.466 4.69301 -0.264443 0.964401 0  255 255 255 255
-3.50567 14.5846 4.69301 -0.233711 0.972306 0  255 255 255 255
-3.04117 14.6885 4.69301 -0.202744 0.979232 0  255 255 255 255
-2.5736 14.7776 4.69301 -0.171573 0.985171 0  255 255 255 255
-2.10344 14.8518 4.69301 -0.14023 0.990119 0  255 255 255 255
-1.63117 14.911 4.69301 -0.108745 0.99407 0  255 255 255 255
-1.15725 14.9553 4.69301 -0.07715 0.997019 0  255 255 255 255
-0.682167 14.9845 4.69301 -0.045478 0.998965 0  255 255 255 255
-0.206397 14.9986 4.69301 -0.01376 0.999905 0  255 255 255 255
0.269581 14.9976 4.69301 0.017972 0.999838 0  255 255 255 255
0.745288 14.9815 4.69301 0.049686 0.998765 0  255 255 255 255
1.22024 14.9503 4.69301 0.08135 0.996686 0  255 255 255 255
1.69397 14.904 4.69301 0.112931 0.993603 0  255 255 255 255
2.16599 14.8428 4.69301 0.144399 0.989519 0  255 255 255 255
2.63583 14.7666 4.69301 0.175722 0.98444 0  255 255 255 255
3.10302 14.6755 4.69301 0.206868 0.978369 0  255 255 255 255
