ply
format ascii 1.0
comment VCGLIB generated
element vertex 987
property float x
property float y
property float z
property float nx
property float ny
property float nz
property uchar red
property uchar green
property uchar blue
property uchar alpha
element face 0
property list uchar int vertex_indices
end_header
7.20905 1.6764 -35.5374 0 -1 0  255 255 255 255
7.22079 1.6764 -78.1325 0 -1 0  255 255 255 255
-2.79716 1.6764 -60.4126 0 -1 0  255 255 255 255
9.50905 1.6764 -41.5459 0 -1 0  255 255 255 255
17.8685 1.6764 -68.3913 0 -1 0  255 255 255 255
4.56776 1.6764 -18.8451 0 -1 0  255 255 255 255
19.7917 1.6764 -26.2439 0 -1 0  255 255 255 255
-11.5302 1.6764 -90.2901 0 -1 0  255 255 255 255
6.52373 1.6764 -40.0641 0 -1 0  255 255 255 255
6.52388 1.6764 -73.636 0 -1 0  255 255 255 255
-9.99886 1.6764 -103.985 0 -1 0  255 255 255 255
8.61487 1.6764 -36.1851 0 -1 0  255 255 255 255
2.07561 1.6764 -76.6532 0 -1 0  255 255 255 255
2.07555 1.6764 -37.0468 0 -1 0  255 255 255 255
10.535 1.6764 -18.7734 0 -1 0  255 255 255 255
-10.0019 1.6764 -9.73184 0 -1 0  255 255 255 255
-8.48774 1.6764 -87.5017 0 -1 0  255 255 255 255
-3.00626 1.6764 -31.5544 0 -1 0  255 255 255 255
-3.0057 1.6764 -82.1447 0 -1 0  255 255 255 255
-8.48743 1.6764 -26.1955 0 -1 0  255 255 255 255
10.5427 1.6764 -94.9277 0 -1 0  255 255 255 255
17.7395 1.6764 -101.868 0 -1 0  255 255 255 255
19.7975 1.6764 -87.4607 0 -1 0  255 255 255 255
7.12883 1.6764 -44.4441 0 -1 0  255 255 255 255
7.12757 1.6764 -69.2564 0 -1 0  255 255 255 255
2.55971 1.6764 -64.0976 0 -1 0  255 255 255 255
12.1849 1.6764 -3.71464 0 -1 0  255 255 255 255
-11.8973 1.6764 -22.8571 0 -1 0  255 255 255 255
0.911133 1.6764 -71.6236 0 -1 0  255 255 255 255
-7.66865 1.6764 -103.607 0 -1 0  255 255 255 255
0.910826 1.6764 -42.0763 0 -1 0  255 255 255 255
17.7435 1.6764 -11.8333 0 -1 0  255 255 255 255
11.1257 1.6764 -107.397 0 -1 0  255 255 255 255
3.93103 1.6764 -53.5592 0 -1 0  255 255 255 255
-6.35505 1.6764 -89.1926 0 -1 0  255 255 255 255
-7.67546 1.6764 -10.105 0 -1 0  255 255 255 255
-6.35531 1.6764 -24.5086 0 -1 0  255 255 255 255
-2.16717 1.6764 -69.1988 0 -1 0  255 255 255 255
19.759 1.6764 -101.539 0 -1 0  255 255 255 255
-2.58175 1.6764 -46.7551 0 -1 0  255 255 255 255
11.2512 1.6764 -6.33393 0 -1 0  255 255 255 255
15.7282 1.6764 -54.3017 0 -1 0  255 255 255 255
19.7456 1.6764 -78.3671 0 -1 0  255 255 255 255
19.726 1.6764 -35.3079 0 -1 0  255 255 255 255
-9.35 1.6764 -90.8878 0 -1 0  255 255 255 255
5.85759 1.6764 -16.9609 0 -1 0  255 255 255 255
-11.7971 1.6764 -70.217 0 -1 0  255 255 255 255
-7.27491 1.6764 -63.6811 0 -1 0  255 255 255 255
5.85462 1.6764 -96.7456 0 -1 0  255 255 255 255
-7.42252 1.6764 -76.9069 0 -1 0  255 255 255 255
-7.42338 1.6764 -36.7928 0 -1 0  255 255 255 255
3.32016 1.6764 -48.1194 0 -1 0  255 255 255 255
19.7663 1.6764 -12.1574 0 -1 0  255 255 255 255
-3.38218 1.6764 -22.6395 0 -1 0  255 255 255 255
-3.36192 1.6764 -91.0177 0 -1 0  255 255 255 255
8.58531 1.6764 -65.6769 0 -1 0  255 255 255 255
8.02693 1.6764 -108.99 0 -1 0  255 255 255 255
5.79973 1.6764 -71.6361 0 -1 0  255 255 255 255
5.79976 1.6764 -42.0639 0 -1 0  255 255 255 255
8.02872 1.6764 -4.73615 0 -1 0  255 255 255 255
-9.30384 1.6764 -22.8394 0 -1 0  255 255 255 255
3.25116 1.6764 -65.9079 0 -1 0  255 255 255 255
7.22522 1.6764 -66.1439 0 -1 0  255 255 255 255
19.934 1.6764 -49.4932 0 -1 0  255 255 255 255
14.7983 1.6764 -14.2652 0 -1 0  255 255 255 255
15.4665 1.6764 -77.933 0 -1 0  255 255 255 255
-9.91951 1.6764 -92.0562 0 -1 0  255 255 255 255
-10.2619 1.6764 -54.4288 0 -1 0  255 255 255 255
-6.76491 1.6764 -69.9096 0 -1 0  255 255 255 255
-10.2827 1.6764 -31.5295 0 -1 0  255 255 255 255
-6.91496 1.6764 -81.3065 0 -1 0  255 255 255 255
0.813953 1.6764 -39.7342 0 -1 0  255 255 255 255
0.814351 1.6764 -73.9658 0 -1 0  255 255 255 255
-1.44076 1.6764 -37.8835 0 -1 0  255 255 255 255
-6.91439 1.6764 -32.393 0 -1 0  255 255 255 255
-1.44059 1.6764 -75.8167 0 -1 0  255 255 255 255
15.0292 1.6764 -36.1881 0 -1 0  255 255 255 255
14.7875 1.6764 -99.4313 0 -1 0  255 255 255 255
2.18825 1.6764 -14.3828 0 -1 0  255 255 255 255
2.18847 1.6764 -99.3167 0 -1 0  255 255 255 255
12.4239 1.6764 -109.868 0 -1 0  255 255 255 255
-10.2889 1.6764 -82.1645 0 -1 0  255 255 255 255
17.5096 1.6764 -95.1735 0 -1 0  255 255 255 255
15.812 1.6764 -57.5364 0 -1 0  255 255 255 255
-8.56532 1.6764 -73.4241 0 -1 0  255 255 255 255
-8.46255 1.6764 -40.167 0 -1 0  255 255 255 255
17.5056 1.6764 -18.5251 0 -1 0  255 255 255 255
1.97417 1.6764 -41.3384 0 -1 0  255 255 255 255
1.9745 1.6764 -72.3616 0 -1 0  255 255 255 255
-4.87483 1.6764 -48.0369 0 -1 0  255 255 255 255
-8.00372 1.6764 -61.4111 0 -1 0  255 255 255 255
-11.6317 1.6764 -43.0504 0 -1 0  255 255 255 255
3.37385 1.6764 -102.677 0 -1 0  255 255 255 255
-3.24095 1.6764 -78.3862 0 -1 0  255 255 255 255
-3.24097 1.6764 -35.3138 0 -1 0  255 255 255 255
15.3335 1.6764 -83.9546 0 -1 0  255 255 255 255
3.61894 1.6764 -39.8469 0 -1 0  255 255 255 255
3.61922 1.6764 -73.8531 0 -1 0  255 255 255 255
15.3313 1.6764 -29.7427 0 -1 0  255 255 255 255
15.7872 1.6764 -56.1913 0 -1 0  255 255 255 255
-9.77842 1.6764 -41.8982 0 -1 0  255 255 255 255
7.16762 1.6764 -25.7161 0 -1 0  255 255 255 255
7.16763 1.6764 -87.9837 0 -1 0  255 255 255 255
0.67686 1.6764 -33.5395 0 -1 0  255 255 255 255
0.676985 1.6764 -80.1604 0 -1 0  255 255 255 255
-11.6886 1.6764 -62.8625 0 -1 0  255 255 255 255
7.31044 1.6764 -81.4373 0 -1 0  255 255 255 255
7.31047 1.6764 -32.2626 0 -1 0  255 255 255 255
5.72672 1.6764 -59.7564 0 -1 0  255 255 255 255
5.75486 1.6764 -53.943 0 -1 0  255 255 255 255
-5.01065 1.6764 -39.0209 0 -1 0  255 255 255 255
-5.00979 1.6764 -74.6793 0 -1 0  255 255 255 255
-2.2997 1.6764 -10.4493 0 -1 0  255 255 255 255
-1.22777 1.6764 -78.0648 0 -1 0  255 255 255 255
2.70286 1.6764 -69.8185 0 -1 0  255 255 255 255
-1.22779 1.6764 -35.6353 0 -1 0  255 255 255 255
2.70295 1.6764 -43.8815 0 -1 0  255 255 255 255
3.40056 1.6764 -11.1491 0 -1 0  255 255 255 255
1.27589 1.6764 -54.5026 0 -1 0  255 255 255 255
-11.7983 1.6764 -55.647 0 -1 0  255 255 255 255
12.1627 1.6764 -111.124 0 -1 0  255 255 255 255
3.60718 1.6764 -13.1613 0 -1 0  255 255 255 255
-2.28391 1.6764 -103.248 0 -1 0  255 255 255 255
16.0404 1.6764 -73.9199 0 -1 0  255 255 255 255
6.0951 1.6764 -38.8419 0 -1 0  255 255 255 255
6.09526 1.6764 -74.858 0 -1 0  255 255 255 255
-11.7097 1.6764 -95.8662 0 -1 0  255 255 255 255
11.1518 1.6764 -60.0956 0 -1 0  255 255 255 255
19.8995 1.6764 -45.6946 0 -1 0  255 255 255 255
15.4225 1.6764 -18.279 0 -1 0  255 255 255 255
6.9655 1.6764 -52.1251 0 -1 0  255 255 255 255
-4.84418 1.6764 -107.163 0 -1 0  255 255 255 255
15.4255 1.6764 -95.423 0 -1 0  255 255 255 255
7.5678 1.6764 -53.8352 0 -1 0  255 255 255 255
3.60677 1.6764 -100.536 0 -1 0  255 255 255 255
5.73435 1.6764 -67.9257 0 -1 0  255 255 255 255
5.74629 1.6764 -45.7785 0 -1 0  255 255 255 255
11.4169 1.6764 -77.5124 0 -1 0  255 255 255 255
20.1027 1.6764 -76.4313 0 -1 0  255 255 255 255
19.9588 1.6764 -33.4285 0 -1 0  255 255 255 255
10.9575 1.6764 -53.6026 0 -1 0  255 255 255 255
2.87501 1.6764 -12.3241 0 -1 0  255 255 255 255
14.9443 1.6764 -75.8901 0 -1 0  255 255 255 255
-11.7184 1.6764 -17.8561 0 -1 0  255 255 255 255
4.0637 1.6764 -93.7283 0 -1 0  255 255 255 255
2.87306 1.6764 -101.398 0 -1 0  255 255 255 255
4.062 1.6764 -19.9709 0 -1 0  255 255 255 255
18.6006 1.6764 -103.53 0 -1 0  255 255 255 255
19.8865 1.6764 -38.3394 0 -1 0  255 255 255 255
1.96472 1.6764 -18.7697 0 -1 0  255 255 255 255
10.8384 1.6764 -20.6351 0 -1 0  255 255 255 255
1.96564 1.6764 -94.9299 0 -1 0  255 255 255 255
1.0775 1.6764 -75.9286 0 -1 0  255 255 255 255
1.07765 1.6764 -37.7712 0 -1 0  255 255 255 255
-4.84357 1.6764 -6.5463 0 -1 0  255 255 255 255
10.8419 1.6764 -93.0659 0 -1 0  255 255 255 255
1.72975 1.6764 -63.0992 0 -1 0  255 255 255 255
-9.7877 1.6764 -106.999 0 -1 0  255 255 255 255
19.7449 1.6764 -99.5954 0 -1 0  255 255 255 255
19.9586 1.6764 -80.2476 0 -1 0  255 255 255 255
15.8226 1.6764 -68.2283 0 -1 0  255 255 255 255
6.38941 1.6764 -20.5052 0 -1 0  255 255 255 255
-6.71272 1.6764 -95.5977 0 -1 0  255 255 255 255
-4.88671 1.6764 -23.3939 0 -1 0  255 255 255 255
-4.87535 1.6764 -90.2842 0 -1 0  255 255 255 255
6.39223 1.6764 -93.1932 0 -1 0  255 255 255 255
11.2138 1.6764 -51.5732 0 -1 0  255 255 255 255
-7.54525 1.6764 -65.8914 0 -1 0  255 255 255 255
-4.43184 1.6764 -41.1122 0 -1 0  255 255 255 255
-2.29569 1.6764 -44.288 0 -1 0  255 255 255 255
-4.44386 1.6764 -72.523 0 -1 0  255 255 255 255
16.2674 1.6764 -23.5034 0 -1 0  255 255 255 255
-9.78724 1.6764 -70.785 0 -1 0  255 255 255 255
-9.79346 1.6764 -6.7244 0 -1 0  255 255 255 255
4.35127 1.6764 -107.246 0 -1 0  255 255 255 255
5.62858 1.6764 -35.6863 0 -1 0  255 255 255 255
12.1616 1.6764 -2.58915 0 -1 0  255 255 255 255
5.62394 1.6764 -78.0086 0 -1 0  255 255 255 255
16.2662 1.6764 -90.1953 0 -1 0  255 255 255 255
19.7411 1.6764 -14.0959 0 -1 0  255 255 255 255
18.6245 1.6764 -10.1697 0 -1 0  255 255 255 255
-6.55881 1.6764 -18.1467 0 -1 0  255 255 255 255
9.59352 1.6764 -102.393 0 -1 0  255 255 255 255
0.770908 1.6764 -52.6363 0 -1 0  255 255 255 255
3.56543 1.6764 -91.5011 0 -1 0  255 255 255 255
3.91826 1.6764 -41.9178 0 -1 0  255 255 255 255
3.91838 1.6764 -71.7821 0 -1 0  255 255 255 255
3.56547 1.6764 -22.198 0 -1 0  255 255 255 255
12.1744 1.6764 -41.8471 0 -1 0  255 255 255 255
3.93328 1.6764 -24.0857 0 -1 0  255 255 255 255
3.93321 1.6764 -89.6142 0 -1 0  255 255 255 255
-9.64173 1.6764 -45.4658 0 -1 0  255 255 255 255
-11.7681 1.6764 -73.8651 0 -1 0  255 255 255 255
3.81477 1.6764 -68.5678 0 -1 0  255 255 255 255
3.81486 1.6764 -45.1322 0 -1 0  255 255 255 255
-9.14063 1.6764 -51.1591 0 -1 0  255 255 255 255
-7.57872 1.6764 -91.9299 0 -1 0  255 255 255 255
-4.25188 1.6764 -35.9253 0 -1 0  255 255 255 255
-4.25176 1.6764 -77.7745 0 -1 0  255 255 255 255
15.9918 1.6764 -75.6436 0 -1 0  255 255 255 255
17.6986 1.6764 -38.2576 0 -1 0  255 255 255 255
20.0559 1.6764 -60.2548 0 -1 0  255 255 255 255
6.91832 1.6764 -109.294 0 -1 0  255 255 255 255
2.41691 1.6764 -7.44787 0 -1 0  255 255 255 255
-7.58243 1.6764 -21.7761 0 -1 0  255 255 255 255
-0.207634 1.6764 -40.4306 0 -1 0  255 255 255 255
-0.207219 1.6764 -73.2695 0 -1 0  255 255 255 255
-0.165559 1.6764 -36.4715 0 -1 0  255 255 255 255
-0.165558 1.6764 -77.2285 0 -1 0  255 255 255 255
11.368 1.6764 -75.7871 0 -1 0  255 255 255 255
-5.29599 1.6764 -60.4285 0 -1 0  255 255 255 255
15.4394 1.6764 -41.6887 0 -1 0  255 255 255 255
6.87968 1.6764 -4.45213 0 -1 0  255 255 255 255
-0.929049 1.6764 -48.3575 0 -1 0  255 255 255 255
2.40013 1.6764 -106.256 0 -1 0  255 255 255 255
4.3741 1.6764 -6.45427 0 -1 0  255 255 255 255
-5.6943 1.6764 -42.2828 0 -1 0  255 255 255 255
11.296 1.6764 -61.8512 0 -1 0  255 255 255 255
-5.72182 1.6764 -71.4624 0 -1 0  255 255 255 255
13.9756 1.6764 -53.7539 0 -1 0  255 255 255 255
0.897531 1.6764 -91.1856 0 -1 0  255 255 255 255
0.897894 1.6764 -22.5147 0 -1 0  255 255 255 255
-8.90604 1.6764 -65.7376 0 -1 0  255 255 255 255
18.0643 1.6764 -36.9878 0 -1 0  255 255 255 255
13.1505 1.6764 -76.3495 0 -1 0  255 255 255 255
9.57107 1.6764 -11.3429 0 -1 0  255 255 255 255
19.7816 1.6764 -65.4317 0 -1 0  255 255 255 255
3.42215 1.6764 -62.0259 0 -1 0  255 255 255 255
-8.09109 1.6764 -56.2959 0 -1 0  255 255 255 255
11.6532 1.6764 -39.6906 0 -1 0  255 255 255 255
-2.84983 1.6764 -106.189 0 -1 0  255 255 255 255
-2.8503 1.6764 -7.52904 0 -1 0  255 255 255 255
-0.851471 1.6764 -65.3847 0 -1 0  255 255 255 255
2.23181 1.6764 -96.9457 0 -1 0  255 255 255 255
-10.3668 1.6764 -34.1263 0 -1 0  255 255 255 255
-6.79731 1.6764 -43.8672 0 -1 0  255 255 255 255
2.23065 1.6764 -16.7548 0 -1 0  255 255 255 255
12.9134 1.6764 -61.7315 0 -1 0  255 255 255 255
-8.72973 1.6764 -54.5689 0 -1 0  255 255 255 255
12.875 1.6764 -40.0295 0 -1 0  255 255 255 255
-4.64774 1.6764 -26.5855 0 -1 0  255 255 255 255
18.2226 1.6764 -76.7318 0 -1 0  255 255 255 255
15.6412 1.6764 -69.4477 0 -1 0  255 255 255 255
12.5071 1.6764 -22.9792 0 -1 0  255 255 255 255
-1.00343 1.6764 -34.5694 0 -1 0  255 255 255 255
-1.00351 1.6764 -79.1307 0 -1 0  255 255 255 255
-11.715 1.6764 -46.2726 0 -1 0  255 255 255 255
-4.6487 1.6764 -87.1144 0 -1 0  255 255 255 255
12.5085 1.6764 -90.7201 0 -1 0  255 255 255 255
-10.3582 1.6764 -79.5631 0 -1 0  255 255 255 255
18.324 1.6764 -48.8232 0 -1 0  255 255 255 255
17.7576 1.6764 -75.3106 0 -1 0  255 255 255 255
14.4466 1.6764 -89.9336 0 -1 0  255 255 255 255
14.4464 1.6764 -23.7662 0 -1 0  255 255 255 255
10.9796 1.6764 -100.857 0 -1 0  255 255 255 255
18.3274 1.6764 -62.1961 0 -1 0  255 255 255 255
-11.8701 1.6764 -67.8363 0 -1 0  255 255 255 255
1.67807 1.6764 -61.0213 0 -1 0  255 255 255 255
5.54968 1.6764 -40.7768 0 -1 0  255 255 255 255
5.54978 1.6764 -72.9232 0 -1 0  255 255 255 255
-9.88687 1.6764 -68.4889 0 -1 0  255 255 255 255
-4.2857 1.6764 -99.4307 0 -1 0  255 255 255 255
-0.407221 1.6764 -97.9293 0 -1 0  255 255 255 255
-4.28319 1.6764 -14.2675 0 -1 0  255 255 255 255
10.9119 1.6764 -12.8784 0 -1 0  255 255 255 255
-0.431021 1.6764 -103.505 0 -1 0  255 255 255 255
-0.421309 1.6764 -10.2144 0 -1 0  255 255 255 255
8.84834 1.6764 -49.6643 0 -1 0  255 255 255 255
-7.08353 1.6764 -80.0212 0 -1 0  255 255 255 255
-0.402109 1.6764 -15.7725 0 -1 0  255 255 255 255
-7.083 1.6764 -33.6779 0 -1 0  255 255 255 255
-6.76874 1.6764 -54.8213 0 -1 0  255 255 255 255
7.78835 1.6764 -50.079 0 -1 0  255 255 255 255
-5.96322 1.6764 -69.1469 0 -1 0  255 255 255 255
-3.93006 1.6764 -111.064 0 -1 0  255 255 255 255
8.98375 1.6764 -72.0106 0 -1 0  255 255 255 255
-1.49926 1.6764 -17.7321 0 -1 0  255 255 255 255
3.31381 1.6764 -31.4856 0 -1 0  255 255 255 255
3.3139 1.6764 -82.2144 0 -1 0  255 255 255 255
-1.49745 1.6764 -95.968 0 -1 0  255 255 255 255
-10.3573 1.6764 -17.5169 0 -1 0  255 255 255 255
-10.3537 1.6764 -96.193 0 -1 0  255 255 255 255
-11.8463 1.6764 -32.6975 0 -1 0  255 255 255 255
-8.24152 1.6764 -89.5644 0 -1 0  255 255 255 255
-3.92603 1.6764 -2.67216 0 -1 0  255 255 255 255
15.7691 1.6764 -10.1692 0 -1 0  255 255 255 255
15.7662 1.6764 -103.531 0 -1 0  255 255 255 255
1.08267 1.6764 -104.638 0 -1 0  255 255 255 255
20.0489 1.6764 -94.6763 0 -1 0  255 255 255 255
-6.51611 1.6764 -13.7055 0 -1 0  255 255 255 255
0.69003 1.6764 -107.638 0 -1 0  255 255 255 255
11.4222 1.6764 -109.365 0 -1 0  255 255 255 255
0.343555 1.6764 -34.4726 0 -1 0  255 255 255 255
-11.8345 1.6764 -80.9886 0 -1 0  255 255 255 255
0.343721 1.6764 -79.2273 0 -1 0  255 255 255 255
1.96236 1.6764 -50.7847 0 -1 0  255 255 255 255
-11.8168 1.6764 -27.8153 0 -1 0  255 255 255 255
7.41875 1.6764 -71.6213 0 -1 0  255 255 255 255
7.52303 1.6764 -42.0915 0 -1 0  255 255 255 255
-0.258251 1.6764 -59.9858 0 -1 0  255 255 255 255
0.181741 1.6764 -61.8417 0 -1 0  255 255 255 255
20.0255 1.6764 -19.0009 0 -1 0  255 255 255 255
-6.51077 1.6764 -100.007 0 -1 0  255 255 255 255
-5.4816 1.6764 -98.3093 0 -1 0  255 255 255 255
2.86612 1.6764 -107.258 0 -1 0  255 255 255 255
1.67563 1.6764 -26.5684 0 -1 0  255 255 255 255
1.67536 1.6764 -87.1318 0 -1 0  255 255 255 255
18.176 1.6764 -100.701 0 -1 0  255 255 255 255
-8.20454 1.6764 -24.1657 0 -1 0  255 255 255 255
16.7933 1.6764 -35.2982 0 -1 0  255 255 255 255
-9.04589 1.6764 -4.40744 0 -1 0  255 255 255 255
5.00953 1.6764 -37.181 0 -1 0  255 255 255 255
4.86471 1.6764 -98.8056 0 -1 0  255 255 255 255
5.00968 1.6764 -76.519 0 -1 0  255 255 255 255
-4.74727 1.6764 -19.8141 0 -1 0  255 255 255 255
4.86106 1.6764 -14.887 0 -1 0  255 255 255 255
-5.48179 1.6764 -15.3923 0 -1 0  255 255 255 255
-0.157843 1.6764 -102.032 0 -1 0  255 255 255 255
18.1754 1.6764 -13.0002 0 -1 0  255 255 255 255
-4.74929 1.6764 -93.8959 0 -1 0  255 255 255 255
0.689939 1.6764 -6.07586 0 -1 0  255 255 255 255
-9.04733 1.6764 -109.329 0 -1 0  255 255 255 255
5.96371 1.6764 -25.0377 0 -1 0  255 255 255 255
5.96373 1.6764 -88.6622 0 -1 0  255 255 255 255
11.4221 1.6764 -4.36047 0 -1 0  255 255 255 255
-11.8226 1.6764 -85.9047 0 -1 0  255 255 255 255
-0.966387 1.6764 -68.2934 0 -1 0  255 255 255 255
-0.918714 1.6764 -45.4665 0 -1 0  255 255 255 255
11.9691 1.6764 -96.607 0 -1 0  255 255 255 255
-5.17617 1.6764 -53.7914 0 -1 0  255 255 255 255
-8.91955 1.6764 -81.4511 0 -1 0  255 255 255 255
-7.78767 1.6764 -45.5416 0 -1 0  255 255 255 255
-8.91795 1.6764 -32.2479 0 -1 0  255 255 255 255
12.1536 1.6764 -17.182 0 -1 0  255 255 255 255
-10.4239 1.6764 -62.9408 0 -1 0  255 255 255 255
-3.33526 1.6764 -107.249 0 -1 0  255 255 255 255
-2.33248 1.6764 -71.9525 0 -1 0  255 255 255 255
-2.38554 1.6764 -41.6771 0 -1 0  255 255 255 255
1.85411 1.6764 -73.4412 0 -1 0  255 255 255 255
1.85373 1.6764 -40.2587 0 -1 0  255 255 255 255
-8.48785 1.6764 -100.472 0 -1 0  255 255 255 255
-5.91069 1.6764 -101.901 0 -1 0  255 255 255 255
1.86536 1.6764 -77.6674 0 -1 0  255 255 255 255
1.8652 1.6764 -36.0324 0 -1 0  255 255 255 255
-3.50311 1.6764 -56.7563 0 -1 0  255 255 255 255
-0.04682 1.6764 -93.538 0 -1 0  255 255 255 255
8.71986 1.6764 -53.7449 0 -1 0  255 255 255 255
-0.046702 1.6764 -20.1618 0 -1 0  255 255 255 255
11.2023 1.6764 -14.9597 0 -1 0  255 255 255 255
-1.42397 1.6764 -56.0807 0 -1 0  255 255 255 255
-8.49364 1.6764 -13.2404 0 -1 0  255 255 255 255
2.28324 1.6764 -61.9639 0 -1 0  255 255 255 255
9.04536 1.6764 -98.2311 0 -1 0  255 255 255 255
11.2881 1.6764 -105.081 0 -1 0  255 255 255 255
11.1905 1.6764 -98.7376 0 -1 0  255 255 255 255
-5.92466 1.6764 -11.8129 0 -1 0  255 255 255 255
9.0523 1.6764 -15.477 0 -1 0  255 255 255 255
7.36875 1.6764 -34.5839 0 -1 0  255 255 255 255
15.6396 1.6764 -47.656 0 -1 0  255 255 255 255
7.3711 1.6764 -79.11 0 -1 0  255 255 255 255
-0.675352 1.6764 -63.6451 0 -1 0  255 255 255 255
2.93236 1.6764 -6.57897 0 -1 0  255 255 255 255
-9.65362 1.6764 -71.8884 0 -1 0  255 255 255 255
13.0745 1.6764 -65.8207 0 -1 0  255 255 255 255
-6.49512 1.6764 -58.367 0 -1 0  255 255 255 255
-3.31831 1.6764 -6.46341 0 -1 0  255 255 255 255
-10.0719 1.6764 -27.3714 0 -1 0  255 255 255 255
-11.8728 1.6764 -91.2768 0 -1 0  255 255 255 255
-10.0582 1.6764 -86.3231 0 -1 0  255 255 255 255
17.7495 1.6764 -69.4451 0 -1 0  255 255 255 255
13.0852 1.6764 -35.9727 0 -1 0  255 255 255 255
-11.9447 1.6764 -58.0502 0 -1 0  255 255 255 255
12.0337 1.6764 -47.9212 0 -1 0  255 255 255 255
10.9495 1.6764 -35.9434 0 -1 0  255 255 255 255
10.859 1.6764 -65.6885 0 -1 0  255 255 255 255
17.7231 1.6764 -56.1453 0 -1 0  255 255 255 255
12.7523 1.6764 -103.722 0 -1 0  255 255 255 255
12.7536 1.6764 -9.97857 0 -1 0  255 255 255 255
1.0219 1.6764 -9.0616 0 -1 0  255 255 255 255
-11.6567 1.6764 -72.0671 0 -1 0  255 255 255 255
-0.175373 1.6764 -11.6978 0 -1 0  255 255 255 255
7.74767 1.6764 -64.1053 0 -1 0  255 255 255 255
-3.77962 1.6764 -37.514 0 -1 0  255 255 255 255
-3.77908 1.6764 -76.1858 0 -1 0  255 255 255 255
7.19749 1.6764 -83.0138 0 -1 0  255 255 255 255
7.19749 1.6764 -30.6862 0 -1 0  255 255 255 255
16.1378 1.6764 -72.7569 0 -1 0  255 255 255 255
-10.5204 1.6764 -59.2132 0 -1 0  255 255 255 255
18.1575 1.6764 -45.436 0 -1 0  255 255 255 255
11.351 1.6764 -8.64143 0 -1 0  255 255 255 255
8.44478 1.6764 -39.0817 0 -1 0  255 255 255 255
8.44483 1.6764 -74.6183 0 -1 0  255 255 255 255
-5.85185 1.6764 -2.76826 0 -1 0  255 255 255 255
14.475 1.6764 -12.9886 0 -1 0  255 255 255 255
-5.86493 1.6764 -110.964 0 -1 0  255 255 255 255
14.4615 1.6764 -100.708 0 -1 0  255 255 255 255
5.50601 1.6764 -27.1059 0 -1 0  255 255 255 255
5.50593 1.6764 -86.5942 0 -1 0  255 255 255 255
3.53948 1.6764 -51.7966 0 -1 0  255 255 255 255
16.1874 1.6764 -64.8364 0 -1 0  255 255 255 255
14.9975 1.6764 -49.498 0 -1 0  255 255 255 255
16.4665 1.6764 -100.003 0 -1 0  255 255 255 255
3.84472 1.6764 -17.9642 0 -1 0  255 255 255 255
-11.9763 1.6764 -39.5428 0 -1 0  255 255 255 255
-1.8169 1.6764 -56.8698 0 -1 0  255 255 255 255
-9.95831 1.6764 -61.1083 0 -1 0  255 255 255 255
3.84634 1.6764 -95.7342 0 -1 0  255 255 255 255
10.9495 1.6764 -71.8629 0 -1 0  255 255 255 255
-5.12949 1.6764 -29.5743 0 -1 0  255 255 255 255
-5.1291 1.6764 -84.1245 0 -1 0  255 255 255 255
3.64195 1.6764 -35.61 0 -1 0  255 255 255 255
3.64201 1.6764 -78.09 0 -1 0  255 255 255 255
2.50838 1.6764 -51.7257 0 -1 0  255 255 255 255
16.477 1.6764 -13.7013 0 -1 0  255 255 255 255
9.80982 1.6764 -77.7181 0 -1 0  255 255 255 255
-2.2809 1.6764 -40.5262 0 -1 0  255 255 255 255
-2.27413 1.6764 -73.1655 0 -1 0  255 255 255 255
16.6508 1.6764 -16.6673 0 -1 0  255 255 255 255
7.42298 1.6764 -2.52902 0 -1 0  255 255 255 255
18.2113 1.6764 -33.5796 0 -1 0  255 255 255 255
17.3895 1.6764 -92.6691 0 -1 0  255 255 255 255
18.5372 1.6764 -89.8694 0 -1 0  255 255 255 255
4.60358 1.6764 -4.19262 0 -1 0  255 255 255 255
18.5813 1.6764 -96.023 0 -1 0  255 255 255 255
18.2175 1.6764 -80.0466 0 -1 0  255 255 255 255
16.6515 1.6764 -97.0309 0 -1 0  255 255 255 255
17.3922 1.6764 -21.0307 0 -1 0  255 255 255 255
10.3995 1.6764 -52.5076 0 -1 0  255 255 255 255
-6.9733 1.6764 -59.5626 0 -1 0  255 255 255 255
-4.48419 1.6764 -105.268 0 -1 0  255 255 255 255
4.61629 1.6764 -109.541 0 -1 0  255 255 255 255
18.5382 1.6764 -23.8237 0 -1 0  255 255 255 255
16.778 1.6764 -47.8558 0 -1 0  255 255 255 255
-4.48615 1.6764 -8.45049 0 -1 0  255 255 255 255
-8.71717 1.6764 -43.4319 0 -1 0  255 255 255 255
16.1208 1.6764 -36.9748 0 -1 0  255 255 255 255
18.5667 1.6764 -17.6663 0 -1 0  255 255 255 255
0.403696 1.6764 -51.5631 0 -1 0  255 255 255 255
-2.40534 1.6764 -19.3869 0 -1 0  255 255 255 255
-4.43499 1.6764 -103.475 0 -1 0  255 255 255 255
-2.40466 1.6764 -94.313 0 -1 0  255 255 255 255
-4.46282 1.6764 -10.2523 0 -1 0  255 255 255 255
7.99974 1.6764 -103.142 0 -1 0  255 255 255 255
12.741 1.6764 -13.6457 0 -1 0  255 255 255 255
12.7321 1.6764 -100.051 0 -1 0  255 255 255 255
-11.9113 1.6764 -61.5214 0 -1 0  255 255 255 255
-4.3802 1.6764 -49.7766 0 -1 0  255 255 255 255
20.1422 1.6764 -44.6434 0 -1 0  255 255 255 255
-0.096746 1.6764 -109.506 0 -1 0  255 255 255 255
7.42035 1.6764 -111.188 0 -1 0  255 255 255 255
8.61747 1.6764 -62.3147 0 -1 0  255 255 255 255
20.0876 1.6764 -69.0605 0 -1 0  255 255 255 255
-8.83496 1.6764 -25.0538 0 -1 0  255 255 255 255
8.25332 1.6764 -10.672 0 -1 0  255 255 255 255
-11.7396 1.6764 -103.579 0 -1 0  255 255 255 255
-10.4452 1.6764 -73.6977 0 -1 0  255 255 255 255
-5.74305 1.6764 -64.7132 0 -1 0  255 255 255 255
-0.157454 1.6764 -4.3419 0 -1 0  255 255 255 255
-8.50135 1.6764 -2.47024 0 -1 0  255 255 255 255
-9.93081 1.6764 -39.8712 0 -1 0  255 255 255 255
16.9386 1.6764 -82.8074 0 -1 0  255 255 255 255
-8.50743 1.6764 -111.259 0 -1 0  255 255 255 255
16.9599 1.6764 -30.8034 0 -1 0  255 255 255 255
0.675634 1.6764 -38.6821 0 -1 0  255 255 255 255
2.61649 1.6764 -25.8326 0 -1 0  255 255 255 255
2.61634 1.6764 -87.8676 0 -1 0  255 255 255 255
0.675841 1.6764 -75.0178 0 -1 0  255 255 255 255
18.754 1.6764 -78.3994 0 -1 0  255 255 255 255
-10.6253 1.6764 -70.1126 0 -1 0  255 255 255 255
20.0471 1.6764 -37.1842 0 -1 0  255 255 255 255
-1.61165 1.6764 -62.2436 0 -1 0  255 255 255 255
-0.781851 1.6764 -84.3193 0 -1 0  255 255 255 255
-0.781855 1.6764 -29.3805 0 -1 0  255 255 255 255
-11.7403 1.6764 -10.1388 0 -1 0  255 255 255 255
3.47112 1.6764 -111.256 0 -1 0  255 255 255 255
-8.40901 1.6764 -14.5672 0 -1 0  255 255 255 255
-11.9189 1.6764 -50.7466 0 -1 0  255 255 255 255
19.9499 1.6764 -75.0674 0 -1 0  255 255 255 255
5.53606 1.6764 -83.077 0 -1 0  255 255 255 255
5.53599 1.6764 -30.6229 0 -1 0  255 255 255 255
5.07788 1.6764 -12.1122 0 -1 0  255 255 255 255
-8.40491 1.6764 -99.1458 0 -1 0  255 255 255 255
5.7502 1.6764 -84.7817 0 -1 0  255 255 255 255
5.75027 1.6764 -28.9183 0 -1 0  255 255 255 255
-8.83997 1.6764 -88.6402 0 -1 0  255 255 255 255
18.7402 1.6764 -35.2907 0 -1 0  255 255 255 255
-5.93864 1.6764 -44.5027 0 -1 0  255 255 255 255
-8.71035 1.6764 -41.3003 0 -1 0  255 255 255 255
-4.85802 1.6764 -85.993 0 -1 0  255 255 255 255
16.9546 1.6764 -57.9307 0 -1 0  255 255 255 255
-6.88266 1.6764 -37.8207 0 -1 0  255 255 255 255
-4.85741 1.6764 -27.7064 0 -1 0  255 255 255 255
-6.88194 1.6764 -75.879 0 -1 0  255 255 255 255
15.7449 1.6764 -66.4917 0 -1 0  255 255 255 255
-3.17583 1.6764 -58.3738 0 -1 0  255 255 255 255
-1.91153 1.6764 -64.9884 0 -1 0  255 255 255 255
18.6818 1.6764 -55.7929 0 -1 0  255 255 255 255
-10.3449 1.6764 -38.0922 0 -1 0  255 255 255 255
-1.07418 1.6764 -25.0714 0 -1 0  255 255 255 255
-1.07491 1.6764 -88.6283 0 -1 0  255 255 255 255
13.31 1.6764 -71.8794 0 -1 0  255 255 255 255
-10.4072 1.6764 -75.6267 0 -1 0  255 255 255 255
-7.73817 1.6764 -67.9146 0 -1 0  255 255 255 255
19.804 1.6764 -47.5221 0 -1 0  255 255 255 255
7.41378 1.6764 -67.3147 0 -1 0  255 255 255 255
7.41428 1.6764 -46.5217 0 -1 0  255 255 255 255
-0.527576 1.6764 -54.261 0 -1 0  255 255 255 255
8.17836 1.6764 -48.0476 0 -1 0  255 255 255 255
5.77841 1.6764 -70.6533 0 -1 0  255 255 255 255
5.7784 1.6764 -43.0467 0 -1 0  255 255 255 255
-10.0757 1.6764 -44.7266 0 -1 0  255 255 255 255
-11.9351 1.6764 -105.262 0 -1 0  255 255 255 255
-8.21865 1.6764 -102.679 0 -1 0  255 255 255 255
14.1802 1.6764 -20.6686 0 -1 0  255 255 255 255
5.06849 1.6764 -101.596 0 -1 0  255 255 255 255
-8.2209 1.6764 -11.0358 0 -1 0  255 255 255 255
-11.936 1.6764 -8.46149 0 -1 0  255 255 255 255
15.783 1.6764 -71.1361 0 -1 0  255 255 255 255
14.1836 1.6764 -93.0301 0 -1 0  255 255 255 255
-1.29248 1.6764 -43.474 0 -1 0  255 255 255 255
-1.3109 1.6764 -70.1803 0 -1 0  255 255 255 255
0.160177 1.6764 -31.0227 0 -1 0  255 255 255 255
0.160376 1.6764 -82.6772 0 -1 0  255 255 255 255
1.94076 1.6764 -90.5695 0 -1 0  255 255 255 255
1.94118 1.6764 -23.1308 0 -1 0  255 255 255 255
14.5799 1.6764 -62.634 0 -1 0  255 255 255 255
-5.83414 1.6764 -48.941 0 -1 0  255 255 255 255
3.4854 1.6764 -2.47223 0 -1 0  255 255 255 255
15.7528 1.6764 -43.4405 0 -1 0  255 255 255 255
-6.31619 1.6764 -88.0335 0 -1 0  255 255 255 255
15.9032 1.6764 -26.2933 0 -1 0  255 255 255 255
-6.31576 1.6764 -25.6667 0 -1 0  255 255 255 255
15.9031 1.6764 -87.4063 0 -1 0  255 255 255 255
12.2451 1.6764 -59.9013 0 -1 0  255 255 255 255
-8.78937 1.6764 -72.3433 0 -1 0  255 255 255 255
-7.18076 1.6764 -23.7971 0 -1 0  255 255 255 255
9.67832 1.6764 -50.3527 0 -1 0  255 255 255 255
-6.24428 1.6764 -46.9871 0 -1 0  255 255 255 255
13.66 1.6764 -11.3292 0 -1 0  255 255 255 255
-7.18595 1.6764 -89.91 0 -1 0  255 255 255 255
13.6573 1.6764 -102.372 0 -1 0  255 255 255 255
15.6174 1.6764 -79.1163 0 -1 0  255 255 255 255
5.98969 1.6764 -104.571 0 -1 0  255 255 255 255
-1.19426 1.6764 -6.8855 0 -1 0  255 255 255 255
-11.9793 1.6764 -83.5927 0 -1 0  255 255 255 255
15.6547 1.6764 -46.5603 0 -1 0  255 255 255 255
17.0867 1.6764 -28.7941 0 -1 0  255 255 255 255
17.0874 1.6764 -84.9041 0 -1 0  255 255 255 255
-5.03309 1.6764 -37.7907 0 -1 0  255 255 255 255
-5.03247 1.6764 -75.909 0 -1 0  255 255 255 255
-11.7654 1.6764 -107.905 0 -1 0  255 255 255 255
12.0567 1.6764 -50.0072 0 -1 0  255 255 255 255
-1.22167 1.6764 -106.787 0 -1 0  255 255 255 255
-4.78811 1.6764 -59.1379 0 -1 0  255 255 255 255
-0.799648 1.6764 -49.9141 0 -1 0  255 255 255 255
19.9179 1.6764 -50.6744 0 -1 0  255 255 255 255
-11.9398 1.6764 -30.204 0 -1 0  255 255 255 255
-11.767 1.6764 -5.82232 0 -1 0  255 255 255 255
-3.08959 1.6764 -63.4923 0 -1 0  255 255 255 255
20.1097 1.6764 -56.8302 0 -1 0  255 255 255 255
10.0761 1.6764 -47.918 0 -1 0  255 255 255 255
-9.72434 1.6764 -57.9015 0 -1 0  255 255 255 255
-8.33805 1.6764 -63.6768 0 -1 0  255 255 255 255
-2.85575 1.6764 -68.2363 0 -1 0  255 255 255 255
-1.11953 1.6764 -28.3466 0 -1 0  255 255 255 255
5.9593 1.6764 -9.15267 0 -1 0  255 255 255 255
-1.12009 1.6764 -85.3532 0 -1 0  255 255 255 255
14.5619 1.6764 -39.0856 0 -1 0  255 255 255 255
18.634 1.6764 -69.8664 0 -1 0  255 255 255 255
-11.9528 1.6764 -24.0048 0 -1 0  255 255 255 255
15.8164 1.6764 -19.4237 0 -1 0  255 255 255 255
15.8196 1.6764 -94.2755 0 -1 0  255 255 255 255
-5.59337 1.6764 -100.581 0 -1 0  255 255 255 255
18.6377 1.6764 -43.8315 0 -1 0  255 255 255 255
-5.85128 1.6764 -103.658 0 -1 0  255 255 255 255
4.79922 1.6764 -39.034 0 -1 0  255 255 255 255
4.79944 1.6764 -74.666 0 -1 0  255 255 255 255
20.085 1.6764 -83.8139 0 -1 0  255 255 255 255
16.9796 1.6764 -70.9748 0 -1 0  255 255 255 255
-11.7944 1.6764 -45.2118 0 -1 0  255 255 255 255
-5.04904 1.6764 -34.1035 0 -1 0  255 255 255 255
17.2637 1.6764 -25.9999 0 -1 0  255 255 255 255
-5.04886 1.6764 -79.5959 0 -1 0  255 255 255 255
17.263 1.6764 -87.6994 0 -1 0  255 255 255 255
16.9573 1.6764 -66.6922 0 -1 0  255 255 255 255
-3.68315 1.6764 -51.3176 0 -1 0  255 255 255 255
18.702 1.6764 -57.9117 0 -1 0  255 255 255 255
-5.60105 1.6764 -13.1317 0 -1 0  255 255 255 255
-5.85919 1.6764 -10.0595 0 -1 0  255 255 255 255
1.57632 1.6764 -47.5453 0 -1 0  255 255 255 255
8.79002 1.6764 -6.31636 0 -1 0  255 255 255 255
0.983046 1.6764 -101.997 0 -1 0  255 255 255 255
6.09665 1.6764 -62.9356 0 -1 0  255 255 255 255
6.13799 1.6764 -50.8217 0 -1 0  255 255 255 255
-6.2449 1.6764 -27.9392 0 -1 0  255 255 255 255
-6.24423 1.6764 -85.7605 0 -1 0  255 255 255 255
-2.51611 1.6764 -17.3602 0 -1 0  255 255 255 255
-8.63272 1.6764 -62.4589 0 -1 0  255 255 255 255
-11.8305 1.6764 -41.4054 0 -1 0  255 255 255 255
12.3525 1.6764 -97.5608 0 -1 0  255 255 255 255
-2.48764 1.6764 -96.3907 0 -1 0  255 255 255 255
-7.01023 1.6764 -83.2316 0 -1 0  255 255 255 255
-7.00975 1.6764 -30.4676 0 -1 0  255 255 255 255
-5.10956 1.6764 -106.109 0 -1 0  255 255 255 255
6.83517 1.6764 -61.521 0 -1 0  255 255 255 255
12.4389 1.6764 -16.0675 0 -1 0  255 255 255 255
20.1167 1.6764 -29.8965 0 -1 0  255 255 255 255
-11.8937 1.6764 -18.956 0 -1 0  255 255 255 255
-8.08221 1.6764 -82.9678 0 -1 0  255 255 255 255
-8.08144 1.6764 -30.7315 0 -1 0  255 255 255 255
19.9414 1.6764 -23.7575 0 -1 0  255 255 255 255
20.0883 1.6764 -62.8885 0 -1 0  255 255 255 255
-10.2708 1.6764 -94.0305 0 -1 0  255 255 255 255
7.87122 1.6764 -91.6635 0 -1 0  255 255 255 255
14.0857 1.6764 -41.8188 0 -1 0  255 255 255 255
-5.6173 1.6764 -22.4973 0 -1 0  255 255 255 255
-5.09912 1.6764 -7.6079 0 -1 0  255 255 255 255
7.427 1.6764 -55.1108 0 -1 0  255 255 255 255
7.43639 1.6764 -58.5338 0 -1 0  255 255 255 255
8.11498 1.6764 -8.53283 0 -1 0  255 255 255 255
1.57063 1.6764 -66.143 0 -1 0  255 255 255 255
-8.45663 1.6764 -49.4582 0 -1 0  255 255 255 255
-6.94777 1.6764 -61.6653 0 -1 0  255 255 255 255
-2.23424 1.6764 -98.068 0 -1 0  255 255 255 255
-5.60192 1.6764 -91.1973 0 -1 0  255 255 255 255
-10.2698 1.6764 -19.686 0 -1 0  255 255 255 255
-3.28036 1.6764 -95.2415 0 -1 0  255 255 255 255
8.71378 1.6764 -4.07684 0 -1 0  255 255 255 255
8.89462 1.6764 -107.438 0 -1 0  255 255 255 255
-0.917814 1.6764 -51.5575 0 -1 0  255 255 255 255
7.86902 1.6764 -22.0369 0 -1 0  255 255 255 255
-8.52192 1.6764 -58.1946 0 -1 0  255 255 255 255
-2.23271 1.6764 -15.6304 0 -1 0  255 255 255 255
-3.23731 1.6764 -18.4727 0 -1 0  255 255 255 255
-11.953 1.6764 -100.583 0 -1 0  255 255 255 255
-2.66564 1.6764 -49.914 0 -1 0  255 255 255 255
14.0293 1.6764 -59.971 0 -1 0  255 255 255 255
5.16434 1.6764 -62.633 0 -1 0  255 255 255 255
5.0699 1.6764 -51.1458 0 -1 0  255 255 255 255
19.9395 1.6764 -89.9245 0 -1 0  255 255 255 255
-7.80228 1.6764 -70.7796 0 -1 0  255 255 255 255
-9.39316 1.6764 -48.094 0 -1 0  255 255 255 255
-11.9495 1.6764 -13.1345 0 -1 0  255 255 255 255
9.58212 1.6764 -9.45981 0 -1 0  255 255 255 255
2.69077 1.6764 -17.9172 0 -1 0  255 255 255 255
8.7155 1.6764 -109.71 0 -1 0  255 255 255 255
2.69256 1.6764 -95.7823 0 -1 0  255 255 255 255
0.973122 1.6764 -11.7179 0 -1 0  255 255 255 255
-10.2043 1.6764 -99.8126 0 -1 0  255 255 255 255
9.90678 1.6764 -106.04 0 -1 0  255 255 255 255
-11.8658 1.6764 -94.7949 0 -1 0  255 255 255 255
4.86846 1.6764 -78.5647 0 -1 0  255 255 255 255
4.86858 1.6764 -35.135 0 -1 0  255 255 255 255
-1.13049 1.6764 -31.3861 0 -1 0  255 255 255 255
-1.13006 1.6764 -82.3136 0 -1 0  255 255 255 255
8.11327 1.6764 -105.215 0 -1 0  255 255 255 255
-2.8238 1.6764 -111.253 0 -1 0  255 255 255 255
2.17737 1.6764 -92.9667 0 -1 0  255 255 255 255
2.17693 1.6764 -20.7335 0 -1 0  255 255 255 255
-4.07683 1.6764 -39.5627 0 -1 0  255 255 255 255
-4.07614 1.6764 -74.1372 0 -1 0  255 255 255 255
18.6718 1.6764 -97.7645 0 -1 0  255 255 255 255
18.4599 1.6764 -15.9301 0 -1 0  255 255 255 255
13.9627 1.6764 -73.2983 0 -1 0  255 255 255 255
-2.80561 1.6764 -2.47864 0 -1 0  255 255 255 255
-2.32663 1.6764 -109.631 0 -1 0  255 255 255 255
-10.2059 1.6764 -13.8999 0 -1 0  255 255 255 255
-7.27578 1.6764 -101.895 0 -1 0  255 255 255 255
10.6892 1.6764 -101.791 0 -1 0  255 255 255 255
-3.49422 1.6764 -109.294 0 -1 0  255 255 255 255
18.5551 1.6764 -67.6991 0 -1 0  255 255 255 255
-8.54611 1.6764 -18.0158 0 -1 0  255 255 255 255
-8.3107 1.6764 -95.6805 0 -1 0  255 255 255 255
-4.35717 1.6764 -61.9471 0 -1 0  255 255 255 255
-4.41206 1.6764 -60.9963 0 -1 0  255 255 255 255
18.669 1.6764 -30.7051 0 -1 0  255 255 255 255
16.7056 1.6764 -54.1661 0 -1 0  255 255 255 255
6.91949 1.6764 -105.285 0 -1 0  255 255 255 255
-10.1676 1.6764 -63.8263 0 -1 0  255 255 255 255
3.12748 1.6764 -84.927 0 -1 0  255 255 255 255
3.12731 1.6764 -28.7732 0 -1 0  255 255 255 255
16.3014 1.6764 -61.638 0 -1 0  255 255 255 255
13.6536 1.6764 -4.10011 0 -1 0  255 255 255 255
-3.49498 1.6764 -4.44508 0 -1 0  255 255 255 255
-2.32337 1.6764 -4.08158 0 -1 0  255 255 255 255
-2.75607 1.6764 -45.4566 0 -1 0  255 255 255 255
-7.28556 1.6764 -11.8148 0 -1 0  255 255 255 255
0.594749 1.6764 -96.144 0 -1 0  255 255 255 255
10.5747 1.6764 -11.8832 0 -1 0  255 255 255 255
-2.71715 1.6764 -51.925 0 -1 0  255 255 255 255
0.59327 1.6764 -17.5548 0 -1 0  255 255 255 255
-3.62876 1.6764 -30.7212 0 -1 0  255 255 255 255
-3.62833 1.6764 -82.9776 0 -1 0  255 255 255 255
-5.4547 1.6764 -89.4336 0 -1 0  255 255 255 255
-5.45723 1.6764 -24.2628 0 -1 0  255 255 255 255
-4.61035 1.6764 -45.9879 0 -1 0  255 255 255 255
2.82015 1.6764 -41.8903 0 -1 0  255 255 255 255
2.82037 1.6764 -71.8097 0 -1 0  255 255 255 255
-3.62513 1.6764 -59.4485 0 -1 0  255 255 255 255
7.5736 1.6764 -59.7393 0 -1 0  255 255 255 255
2.6951 1.6764 -53.5054 0 -1 0  255 255 255 255
18.6484 1.6764 -82.984 0 -1 0  255 255 255 255
18.4683 1.6764 -41.8595 0 -1 0  255 255 255 255
19.4479 1.6764 -7.86664 0 -1 0  255 255 255 255
-9.94204 1.6764 -30.4556 0 -1 0  255 255 255 255
6.88055 1.6764 -8.43781 0 -1 0  255 255 255 255
18.7944 1.6764 -47.5901 0 -1 0  255 255 255 255
15.5731 1.6764 -4.03175 0 -1 0  255 255 255 255
19.4255 1.6764 -105.739 0 -1 0  255 255 255 255
15.4784 1.6764 -109.669 0 -1 0  255 255 255 255
-9.96186 1.6764 -83.2407 0 -1 0  255 255 255 255
-10.2786 1.6764 -29.5638 0 -1 0  255 255 255 255
-1.80917 1.6764 -92.4016 0 -1 0  255 255 255 255
18.6636 1.6764 -93.591 0 -1 0  255 255 255 255
-4.13679 1.6764 -66.7235 0 -1 0  255 255 255 255
16.6958 1.6764 -24.3112 0 -1 0  255 255 255 255
-5.5857 1.6764 -56.7496 0 -1 0  255 255 255 255
-10.3224 1.6764 -84.1086 0 -1 0  255 255 255 255
18.5157 1.6764 -59.6332 0 -1 0  255 255 255 255
16.6947 1.6764 -89.3877 0 -1 0  255 255 255 255
-1.8555 1.6764 -21.2876 0 -1 0  255 255 255 255
16.7018 1.6764 -101.725 0 -1 0  255 255 255 255
-7.17349 1.6764 -109.437 0 -1 0  255 255 255 255
11.4434 1.6764 -7.54287 0 -1 0  255 255 255 255
-9.27377 1.6764 -36.7709 0 -1 0  255 255 255 255
-9.27248 1.6764 -76.9281 0 -1 0  255 255 255 255
1.9699 1.6764 -52.5784 0 -1 0  255 255 255 255
16.3974 1.6764 -37.9259 0 -1 0  255 255 255 255
13.6589 1.6764 -109.682 0 -1 0  255 255 255 255
-10.4851 1.6764 -41.1141 0 -1 0  255 255 255 255
9.11526 1.6764 -52.6333 0 -1 0  255 255 255 255
16.7058 1.6764 -11.9735 0 -1 0  255 255 255 255
18.6662 1.6764 -20.1142 0 -1 0  255 255 255 255
-7.16752 1.6764 -4.29287 0 -1 0  255 255 255 255
-11.9716 1.6764 -78.599 0 -1 0  255 255 255 255
1.41288 1.6764 -82.6044 0 -1 0  255 255 255 255
1.41278 1.6764 -31.0956 0 -1 0  255 255 255 255
15.4765 1.6764 -81.4068 0 -1 0  255 255 255 255
-6.8934 1.6764 -105.812 0 -1 0  255 255 255 255
8.44545 1.6764 -83.817 0 -1 0  255 255 255 255
8.44544 1.6764 -29.883 0 -1 0  255 255 255 255
-8.12801 1.6764 -104.429 0 -1 0  255 255 255 255
15.4796 1.6764 -32.3044 0 -1 0  255 255 255 255
3.36531 1.6764 -16.2136 0 -1 0  255 255 255 255
-3.33193 1.6764 -88.8253 0 -1 0  255 255 255 255
16.9848 1.6764 -67.8685 0 -1 0  255 255 255 255
-3.33111 1.6764 -24.8743 0 -1 0  255 255 255 255
14.2645 1.6764 -91.6734 0 -1 0  255 255 255 255
2.28596 1.6764 -81.6094 0 -1 0  255 255 255 255
-1.68089 1.6764 -54.1388 0 -1 0  255 255 255 255
2.28604 1.6764 -32.0906 0 -1 0  255 255 255 255
3.3648 1.6764 -97.4841 0 -1 0  255 255 255 255
14.2614 1.6764 -22.0252 0 -1 0  255 255 255 255
15.7067 1.6764 -44.4109 0 -1 0  255 255 255 255
-11.83 1.6764 -102.503 0 -1 0  255 255 255 255
-6.89601 1.6764 -7.90698 0 -1 0  255 255 255 255
16.7715 1.6764 -59.3438 0 -1 0  255 255 255 255
-11.8315 1.6764 -11.2111 0 -1 0  255 255 255 255
-11.9783 1.6764 -74.9563 0 -1 0  255 255 255 255
-12.0054 1.6764 -35.044 0 -1 0  255 0 0 255
-0.980407 1.6764 -2.52711 0 -1 0  255 255 255 255
-1.01163 1.6764 -111.209 0 -1 0  255 255 255 255
-4.7339 1.6764 -95.846 0 -1 0  255 255 255 255
3.67316 1.6764 -26.0174 0 -1 0  255 255 255 255
3.67305 1.6764 -87.6827 0 -1 0  255 255 255 255
13.8493 1.6764 -61.0788 0 -1 0  255 255 255 255
-8.13212 1.6764 -9.28676 0 -1 0  255 255 255 255
18.7465 1.6764 -28.436 0 -1 0  255 255 255 255
-3.35447 1.6764 -79.3659 0 -1 0  255 255 255 255
-3.35457 1.6764 -34.3341 0 -1 0  255 255 255 255
-5.74385 1.6764 -52.996 0 -1 0  255 255 255 255
-4.73134 1.6764 -17.855 0 -1 0  255 255 255 255
10.1366 1.6764 -103.519 0 -1 0  255 255 255 255
7.99986 1.6764 -6.86236 0 -1 0  255 255 255 255
15.479 1.6764 -25.3783 0 -1 0  255 255 255 255
-2.71639 1.6764 -100.528 0 -1 0  255 255 255 255
13.855 1.6764 -40.6734 0 -1 0  255 255 255 255
15.4788 1.6764 -88.321 0 -1 0  255 255 255 255
-0.983063 1.6764 -74.9586 0 -1 0  255 255 255 255
-0.983377 1.6764 -38.7415 0 -1 0  255 255 255 255
0.045052 1.6764 -90.1927 0 -1 0  255 255 255 255
-9.98278 1.6764 -24.8915 0 -1 0  255 255 255 255
0.046033 1.6764 -23.5076 0 -1 0  255 255 255 255
16.5807 1.6764 -17.6198 0 -1 0  255 255 255 255
-12.0382 1.6764 -53.2198 0 -1 0  255 255 255 255
7.99974 1.6764 -106.878 0 -1 0  255 255 255 255
7.44321 1.6764 -43.212 0 -1 0  255 255 255 255
7.43425 1.6764 -70.4891 0 -1 0  255 255 255 255
-4.17109 1.6764 -48.7324 0 -1 0  255 255 255 255
16.8505 1.6764 -43.1002 0 -1 0  255 255 255 255
18.4827 1.6764 -54.3812 0 -1 0  255 255 255 255
17.5168 1.6764 -40.9549 0 -1 0  255 255 255 255
16.58 1.6764 -96.0787 0 -1 0  255 255 255 255
20.0467 1.6764 -11.3081 0 -1 0  255 255 255 255
20.0266 1.6764 -102.52 0 -1 0  255 255 255 255
-2.78755 1.6764 -65.6445 0 -1 0  255 255 255 255
18.6478 1.6764 -85.0386 0 -1 0  255 255 255 255
-10.3494 1.6764 -89.9829 0 -1 0  255 255 255 255
-10.3209 1.6764 -23.8444 0 -1 0  255 255 255 255
-2.68521 1.6764 -104.168 0 -1 0  255 255 255 255
-10.014 1.6764 -88.8379 0 -1 0  255 255 255 255
-7.56939 1.6764 -52.5841 0 -1 0  255 255 255 255
-8.31457 1.6764 -16.7422 0 -1 0  255 255 255 255
7.39965 1.6764 -40.3946 0 -1 0  255 255 255 255
7.4026 1.6764 -73.2351 0 -1 0  255 255 255 255
-0.810471 1.6764 -22.8887 0 -1 0  255 255 255 255
-0.811231 1.6764 -90.8111 0 -1 0  255 255 255 255
-2.1936 1.6764 -36.9374 0 -1 0  255 255 255 255
-2.1935 1.6764 -76.7628 0 -1 0  255 255 255 255
1.22597 1.6764 -93.4499 0 -1 0  255 255 255 255
1.22578 1.6764 -20.2503 0 -1 0  255 255 255 255
-10.5153 1.6764 -46.6847 0 -1 0  255 255 255 255
-8.31786 1.6764 -96.9752 0 -1 0  255 255 255 255
-2.72577 1.6764 -13.1416 0 -1 0  255 255 255 255
5.76031 1.6764 -64.3493 0 -1 0  255 255 255 255
-3.49518 1.6764 -54.9238 0 -1 0  255 255 255 255
9.87622 1.6764 -7.55154 0 -1 0  255 255 255 255
13.0012 1.6764 -38.1795 0 -1 0  255 255 255 255
13.0013 1.6764 -63.5451 0 -1 0  255 255 255 255
-4.52169 1.6764 -88.9938 0 -1 0  255 255 255 255
18.6385 1.6764 -99.8753 0 -1 0  255 255 255 255
-4.52223 1.6764 -24.7041 0 -1 0  255 255 255 255
1.88324 1.6764 -30.2218 0 -1 0  255 255 255 255
1.88336 1.6764 -83.4783 0 -1 0  255 255 255 255
-10.353 1.6764 -16.2401 0 -1 0  255 255 255 255
5.94681 1.6764 -33.7897 0 -1 0  255 255 255 255
5.94684 1.6764 -79.9102 0 -1 0  255 255 255 255
5.82632 1.6764 -49.3646 0 -1 0  255 255 255 255
-4.23457 1.6764 -47.0403 0 -1 0  255 255 255 255
15.4516 1.6764 -40.4969 0 -1 0  255 255 255 255
8.64312 1.6764 -41.8825 0 -1 0  255 255 255 255
-4.56979 1.6764 -100.457 0 -1 0  255 255 255 255
14.5543 1.6764 -83.8178 0 -1 0  255 255 255 255
-10.352 1.6764 -97.4735 0 -1 0  255 255 255 255
13.8461 1.6764 -37.5039 0 -1 0  255 255 255 255
20.0812 1.6764 -51.9404 0 -1 0  255 255 255 255
14.5539 1.6764 -29.8828 0 -1 0  255 255 255 255
14.3245 1.6764 -50.3911 0 -1 0  255 255 255 255
-1.79724 1.6764 -58.9094 0 -1 0  255 255 255 255
-8.51549 1.6764 -33.8875 0 -1 0  255 255 255 255
18.6374 1.6764 -13.8237 0 -1 0  255 255 255 255
20.1695 1.6764 -22.6682 0 -1 0  255 255 255 255
-1.75373 1.6764 -24.2179 0 -1 0  255 255 255 255
-1.75439 1.6764 -89.4819 0 -1 0  255 255 255 255
-8.51504 1.6764 -79.8118 0 -1 0  255 255 255 255
17.0241 1.6764 -36.3935 0 -1 0  255 255 255 255
-2.67431 1.6764 -9.53654 0 -1 0  255 255 255 255
13.8918 1.6764 -64.3465 0 -1 0  255 255 255 255
16.0614 1.6764 -21.2554 0 -1 0  255 255 255 255
16.8888 1.6764 -10.1067 0 -1 0  255 255 255 255
-8.53427 1.6764 -53.1169 0 -1 0  255 255 255 255
5.82258 1.6764 -52.6678 0 -1 0  255 255 255 255
5.82222 1.6764 -60.948 0 -1 0  255 255 255 255
-2.9361 1.6764 -86.2639 0 -1 0  255 255 255 255
-2.93469 1.6764 -27.4354 0 -1 0  255 255 255 255
-4.5863 1.6764 -13.2644 0 -1 0  255 255 255 255
16.0632 1.6764 -92.4441 0 -1 0  255 255 255 255
-11.9184 1.6764 -14.5169 0 -1 0  255 255 255 255
10.861 1.6764 -16.8299 0 -1 0  255 255 255 255
9.04952 1.6764 -16.903 0 -1 0  255 255 255 255
11.0545 1.6764 -2.37315 0 -1 0  255 255 255 255
10.8576 1.6764 -96.8681 0 -1 0  255 255 255 255
-7.44133 1.6764 -100.781 0 -1 0  255 255 255 255
16.8962 1.6764 -103.617 0 -1 0  255 255 255 255
15.4576 1.6764 -61.1058 0 -1 0  255 255 255 255
-4.14191 1.6764 -68.4052 0 -1 0  255 255 255 255
-7.62081 1.6764 -35.5533 0 -1 0  255 255 255 255
20.1618 1.6764 -91.0486 0 -1 0  255 255 255 255
20.1543 1.6764 -88.5802 0 -1 0  255 255 255 255
-7.62031 1.6764 -78.1467 0 -1 0  255 255 255 255
2.96915 1.6764 -60.1494 0 -1 0  255 255 255 255
9.04744 1.6764 -96.7983 0 -1 0  255 255 255 255
0.15196 1.6764 -66.931 0 -1 0  255 255 255 255
0.142875 1.6764 -46.7816 0 -1 0  255 255 255 255
-10.8388 1.6764 -108.677 0 -1 0  255 255 255 255
12.2961 1.6764 -52.5156 0 -1 0  255 255 255 255
-10.581 1.6764 -111.083 0 -1 0  255 255 255 255
-7.84986 1.6764 -86.551 0 -1 0  255 255 255 255
-9.34991 1.6764 -14.9612 0 -1 0  255 255 255 255
0.25535 1.6764 -49.9057 0 -1 0  255 255 255 255
-9.34961 1.6764 -98.7513 0 -1 0  255 255 255 255
-7.85043 1.6764 -27.1479 0 -1 0  255 255 255 255
18.754 1.6764 -82.0742 0 -1 0  255 255 255 255
0.304141 1.6764 -57.1299 0 -1 0  255 255 255 255
-10.5793 1.6764 -2.64708 0 -1 0  255 255 255 255
-11.9213 1.6764 -99.233 0 -1 0  255 255 255 255
6.80804 1.6764 -77.3871 0 -1 0  255 255 255 255
6.7536 1.6764 -36.321 0 -1 0  255 255 255 255
-2.76677 1.6764 -61.8537 0 -1 0  255 255 255 255
-3.99148 1.6764 -53.053 0 -1 0  255 255 255 255
-10.7993 1.6764 -5.06595 0 -1 0  255 255 255 255
-7.54738 1.6764 -12.851 0 -1 0  255 255 255 255
20.22 1.6764 -66.5922 0 -1 0  255 255 255 255
-0.631036 1.6764 -16.9972 0 -1 0  255 255 255 255
-0.631523 1.6764 -96.7033 0 -1 0  255 255 255 255
-5.32649 1.6764 -50.0783 0 -1 0  255 255 255 255
13.1589 1.6764 -83.2531 0 -1 0  255 255 255 255
13.1589 1.6764 -30.4469 0 -1 0  255 255 255 255
9.82813 1.6764 -30.4469 0 -1 0  255 255 255 255
9.82813 1.6764 -83.2531 0 -1 0  255 255 255 255
-2.21328 1.6764 -35.9059 0 -1 0  255 255 255 255
-2.2132 1.6764 -77.7942 0 -1 0  255 255 255 255
15.3622 1.6764 -102.361 0 -1 0  255 255 255 255
-0.577625 1.6764 -55.6121 0 -1 0  255 255 255 255
18.7442 1.6764 -31.6219 0 -1 0  255 255 255 255
-11.9913 1.6764 -63.9711 0 -1 0  255 255 255 255
-7.22895 1.6764 -97.5271 0 -1 0  255 255 255 255
-10.6531 1.6764 -42.9476 0 -1 0  255 255 255 255
20.1486 1.6764 -100.658 0 -1 0  255 255 255 255
-2.80395 1.6764 -32.4904 0 -1 0  255 255 255 255
18.801 1.6764 -63.8142 0 -1 0  255 255 255 255
-7.24036 1.6764 -16.1843 0 -1 0  255 255 255 255
12.2172 1.6764 -75.7128 0 -1 0  255 255 255 255
-2.80285 1.6764 -81.2092 0 -1 0  255 255 255 255
-8.09308 1.6764 -74.4881 0 -1 0  255 255 255 255
10.0653 1.6764 -17.7685 0 -1 0  255 255 255 255
-8.07704 1.6764 -39.1424 0 -1 0  255 255 255 255
-10.5311 1.6764 -101.853 0 -1 0  255 255 255 255
-4.29236 1.6764 -102.463 0 -1 0  255 255 255 255
-12.008 1.6764 -87.0185 0 -1 0  255 255 255 255
-10.4148 1.6764 -26.0212 0 -1 0  255 255 255 255
10.0748 1.6764 -95.9326 0 -1 0  255 255 255 255
13.0895 1.6764 -53.9195 0 -1 0  255 255 255 255
0.849316 1.6764 -108.729 0 -1 0  255 255 255 255
4.1952 1.6764 -96.868 0 -1 0  255 255 255 255
11.0383 1.6764 -111.321 0 -1 0  255 255 255 255
-4.30741 1.6764 -11.2768 0 -1 0  255 255 255 255
-10.5355 1.6764 -11.8619 0 -1 0  255 255 255 255
3.78764 1.6764 -109.193 0 -1 0  255 255 255 255
0.733226 1.6764 -68.636 0 -1 0  255 255 255 255
-3.1938 1.6764 -43.7494 0 -1 0  255 255 255 255
0.733349 1.6764 -45.064 0 -1 0  255 255 255 255
14.6445 1.6764 -61.5563 0 -1 0  255 255 255 255
20.1654 1.6764 -25.1481 0 -1 0  255 255 255 255
-1.69199 1.6764 -66.8237 0 -1 0  255 255 255 255
-6.83364 1.6764 -22.6927 0 -1 0  255 255 255 255
15.3721 1.6764 -11.3323 0 -1 0  255 255 255 255
-10.4643 1.6764 -87.6644 0 -1 0  255 255 255 255
-6.81867 1.6764 -91.0085 0 -1 0  255 255 255 255
6.04869 1.6764 -37.6534 0 -1 0  255 255 255 255
6.0488 1.6764 -76.0466 0 -1 0  255 255 255 255
-2.87898 1.6764 -47.7833 0 -1 0  255 255 255 255
4.19473 1.6764 -16.8317 0 -1 0  255 255 255 255
0.83816 1.6764 -5.00231 0 -1 0  255 255 255 255
15.5297 1.6764 -98.7594 0 -1 0  255 255 255 255
20.2088 1.6764 -32.3699 0 -1 0  255 255 255 255
3.69391 1.6764 -15.3538 0 -1 0  255 255 255 255
3.69404 1.6764 -98.3427 0 -1 0  255 255 255 255
13.7417 1.6764 -95.9947 0 -1 0  255 255 255 255
13.5392 1.6764 -17.6545 0 -1 0  255 255 255 255
-12.009 1.6764 -26.6927 0 -1 0  255 255 255 255
-7.43293 1.6764 -84.9161 0 -1 0  255 255 255 255
-3.34141 1.6764 -105.263 0 -1 0  255 255 255 255
-7.43234 1.6764 -28.7828 0 -1 0  255 255 255 255
13.5425 1.6764 -52.3041 0 -1 0  255 255 255 255
11.0818 1.6764 -40.5682 0 -1 0  255 255 255 255
-3.33977 1.6764 -8.45122 0 -1 0  255 255 255 255
4.70091 1.6764 -73.7714 0 -1 0  255 255 255 255
4.70071 1.6764 -39.9286 0 -1 0  255 255 255 255
4.76179 1.6764 -66.7766 0 -1 0  255 255 255 255
4.7618 1.6764 -46.9235 0 -1 0  255 255 255 255
11.1534 1.6764 -41.8111 0 -1 0  255 255 255 255
-6.48551 1.6764 -82.4045 0 -1 0  255 255 255 255
1.14819 1.6764 -96.9188 0 -1 0  255 255 255 255
-6.4853 1.6764 -31.2947 0 -1 0  255 255 255 255
3.77211 1.6764 -4.55171 0 -1 0  255 255 255 255
-4.03435 1.6764 -45.0856 0 -1 0  255 255 255 255
15.5337 1.6764 -14.9411 0 -1 0  255 255 255 255
1.14761 1.6764 -16.7805 0 -1 0  255 255 255 255
-10.9143 1.6764 -85.7483 0 -1 0  255 255 255 255
17.5087 1.6764 -50.3336 0 -1 0  255 255 255 255
8.96797 1.6764 -12.4284 0 -1 0  255 255 255 255
0.604619 1.6764 -9.94388 0 -1 0  255 255 255 255
13.9178 1.6764 -14.7031 0 -1 0  255 255 255 255
6.28814 1.6764 -47.6126 0 -1 0  255 255 255 255
-3.28231 1.6764 -70.1365 0 -1 0  255 255 255 255
7.40184 1.6764 -97.8803 0 -1 0  255 255 255 255
14.6498 1.6764 -40.1732 0 -1 0  255 255 255 255
20.1853 1.6764 -81.3212 0 -1 0  255 255 255 255
20.1482 1.6764 -13.0175 0 -1 0  255 255 255 255
2.00144 1.6764 -43.3578 0 -1 0  255 255 255 255
8.95497 1.6764 -101.281 0 -1 0  255 255 255 255
-10.8911 1.6764 -27.9435 0 -1 0  255 255 255 255
1.98779 1.6764 -70.342 0 -1 0  255 255 255 255
7.07339 1.6764 -48.7902 0 -1 0  255 255 255 255
16.1443 1.6764 -63.9053 0 -1 0  255 255 255 255
-2.82012 1.6764 -38.7602 0 -1 0  255 255 255 255
