ply
format ascii 1.0
comment VCGLIB generated
element vertex 806
property float x
property float y
property float z
property float nx
property float ny
property float nz
property uchar red
property uchar green
property uchar blue
property uchar alpha
element face 0
property list uchar int vertex_indices
end_header
6.17553 -10.75 25 0 0 1  255 255 255 255
5.71808 -10.75 25 0 0 1  255 255 255 255
5.26064 -10.75 25 0 0 1  255 255 255 255
4.80319 -10.75 25 0 0 1  255 255 255 255
4.34575 -10.75 25 0 0 1  255 255 255 255
3.8883 -10.75 25 0 0 1  255 255 255 255
3.43085 -10.75 25 0 0 1  255 255 255 255
2.9734 -10.75 25 0 0 1  255 255 255 255
2.51596 -10.75 25 0 0 1  255 255 255 255
2.05851 -10.75 25 0 0 1  255 255 255 255
1.60106 -10.75 25 0 0 1  255 255 255 255
1.14362 -10.75 25 0 0 1  255 255 255 255
0.68617 -10.75 25 0 0 1  255 255 255 255
0.228723 -10.75 25 0 0 1  255 255 255 255
-0.228723 -10.75 25 0 0 1  255 255 255 255
-0.68617 -10.75 25 0 0 1  255 255 255 255
-1.14362 -10.75 25 0 0 1  255 255 255 255
-1.60106 -10.75 25 0 0 1  255 255 255 255
-2.05851 -10.75 25 0 0 1  255 255 255 255
-2.51596 -10.75 25 0 0 1  255 255 255 255
-2.9734 -10.75 25 0 0 1  255 255 255 255
-3.43085 -10.75 25 0 0 1  255 255 255 255
-3.8883 -10.75 25 0 0 1  255 255 255 255
-4.34575 -10.75 25 0 0 1  255 255 255 255
-4.80319 -10.75 25 0 0 1  255 255 255 255
-5.26064 -10.75 25 0 0 1  255 255 255 255
-5.71808 -10.75 25 0 0 1  255 255 255 255
-6.17553 -10.75 25 0 0 1  255 255 255 255
-6.63298 -10.75 25 0 0 1  255 255 255 255
-7.09043 -10.75 25 0 0 1  255 255 255 255
-7.54787 -10.75 25 0 0 1  255 255 255 255
-8.00532 -10.75 25 0 0 1  255 255 255 255
-8.46277 -10.75 25 0 0 1  255 255 255 255
-8.92021 -10.75 25 0 0 1  255 255 255 255
-9.37766 -10.75 25 0 0 1  255 255 255 255
-9.83511 -10.75 25 0 0 1  255 255 255 255
-10.2926 -10.75 25 0 0 1  255 255 255 255
8.57884 -7.75 6 0 0 -0.142857  255 255 255 255
-7.5447 -5.59465 5.75 -1 0 0  255 255 255 255
-7.69614 -6.03633 5.75 -0.749562 0.661934 0  255 255 255 255
-7.77233 -5.07925 5.75 -0.636476 -0.771296 0  255 255 255 255
-9.30279 -7.33176 5.75 0.175092 -0.512131 0  255 255 255 255
-8.91231 -7.46963 5.75 -0.221997 -0.975047 0  255 255 255 255
-9.30279 -7.6365 5.75 0.676847 0.514674 0  255 0 0 255
-7.45834 -6.95177 5.75 -1 0 0  255 255 255 255
-7.62212 -6.49682 5.75 -0.727479 -0.68613 0  255 255 255 255
-8.12518 -6.2658 5.75 -0.659061 0.419517 0  255 255 255 255
10.2926 -12.3543 25 0 -0.351065 0.817247  255 0 0 255
9.83511 -12.3543 25 0 -0.409576 0.786788  255 0 0 255
9.37766 -12.3543 25 0 -0.409576 0.786788  255 0 0 255
8.92021 -12.3543 25 0 -0.409576 0.786788  255 0 0 255
8.46277 -12.3543 25 0 -0.409576 0.786788  255 0 0 255
8.00532 -12.3543 25 0 -0.409576 0.786788  255 0 0 255
7.54787 -12.3543 25 0 -0.409576 0.786788  255 0 0 255
7.09043 -12.3543 25 0 -0.351065 0.817247  255 0 0 255
6.63298 -12.3543 25 0 -0.491491 0.744146  255 0 0 255
6.17553 -12.3543 25 0 -0.351065 0.817247  255 0 0 255
5.71808 -12.3543 25 0 -0.409576 0.786788  255 0 0 255
5.26064 -12.3543 25 0 -0.409576 0.786788  255 0 0 255
4.80319 -12.3543 25 0 -0.468087 0.756329  255 0 0 255
4.34575 -12.3543 25 0 -0.409576 0.786788  255 0 0 255
3.8883 -12.3543 25 0 -0.351065 0.817247  255 0 0 255
3.43085 -12.3543 25 0 -0.409576 0.786788  255 0 0 255
2.9734 -12.3543 25 0 -0.409576 0.786788  255 0 0 255
2.51596 -12.3543 25 0 -0.409576 0.786788  255 0 0 255
2.05851 -12.3543 25 0 -0.409576 0.786788  255 0 0 255
1.60106 -12.3543 25 0 -0.409576 0.786788  255 0 0 255
1.14362 -12.3543 25 0 -0.409576 0.786788  255 0 0 255
0.68617 -12.3543 25 0 -0.468087 0.756329  255 0 0 255
0.228723 -12.3543 25 0 -0.409576 0.786788  255 0 0 255
-0.228723 -12.3543 25 0 -0.351065 0.817247  255 0 0 255
-0.68617 -12.3543 25 0 -0.491491 0.744146  255 0 0 255
-1.14362 -12.3543 25 0 -0.351065 0.817247  255 0 0 255
-1.60106 -12.3543 25 0 -0.351065 0.817247  255 0 0 255
-2.05851 -12.3543 25 0 -0.409576 0.786788  255 0 0 255
-2.51596 -12.3543 25 0 -0.409576 0.786788  255 0 0 255
-2.9734 -12.3543 25 0 -0.409576 0.786788  255 0 0 255
-3.43085 -12.3543 25 0 -0.468087 0.756329  255 0 0 255
-3.8883 -12.3543 25 0 -0.351065 0.817247  255 0 0 255
-4.34575 -12.3543 25 0 -0.409576 0.786788  255 0 0 255
-4.80319 -12.3543 25 0 -0.409576 0.786788  255 0 0 255
-5.26064 -12.3543 25 0 -0.409576 0.786788  255 0 0 255
-5.71808 -12.3543 25 0 -0.409576 0.786788  255 0 0 255
-6.17553 -12.3543 25 0 -0.409576 0.786788  255 0 0 255
-6.63298 -12.3543 25 0 -0.409576 0.786788  255 0 0 255
-7.09043 -12.3543 25 0 -0.409576 0.786788  255 0 0 255
-7.54787 -12.3543 25 0 -0.409576 0.786788  255 0 0 255
-8.00532 -12.3543 25 0 -0.409576 0.786788  255 0 0 255
-8.46277 -12.3543 25 0 -0.409576 0.786788  255 0 0 255
-8.92021 -12.3543 25 0 -0.351065 0.817247  255 0 0 255
-9.37766 -12.3543 25 0 -0.468087 0.756329  255 0 0 255
-9.83511 -12.3543 25 0 -0.409576 0.786788  255 0 0 255
-10.2926 -12.3543 25 0 -0.351065 0.817247  255 0 0 255
-10.75 -23.485 9.10369 -0.5 -0.409576 0.286788  255 0 0 255
-10.75 -23.22 9.48218 -0.5 -0.409576 0.286788  255 0 0 255
-10.75 -22.9549 9.86066 -0.5 -0.409576 0.286788  255 0 0 255
-10.75 -22.6899 10.2391 -0.5 -0.409576 0.286788  255 0 0 255
-10.75 -22.4249 10.6176 -0.571429 -0.351065 0.245818  255 0 0 255
-10.75 -22.1599 10.9961 -0.5 -0.409576 0.286788  255 0 0 255
-10.75 -21.8949 11.3746 -0.5 -0.409576 0.286788  255 0 0 255
-10.75 -21.6299 11.7531 -0.428571 -0.468087 0.327758  255 0 0 255
-10.75 -21.3648 12.1316 -0.5 -0.409576 0.286788  255 0 0 255
-10.75 -21.0998 12.51 -0.5 -0.409576 0.286788  255 0 0 255
-10.75 -20.8348 12.8885 -0.5 -0.409576 0.286788  255 0 0 255
-10.75 -20.5698 13.267 -0.5 -0.409576 0.286788  255 0 0 255
-10.75 -20.3048 13.6455 -0.5 -0.409576 0.286788  255 0 0 255
-10.75 -20.0398 14.024 -0.571429 -0.351065 0.245818  255 0 0 255
-10.75 -19.7747 14.4025 -0.5 -0.409576 0.286788  255 0 0 255
-10.75 -19.5097 14.7809 -0.5 -0.409576 0.286788  255 0 0 255
-10.75 -19.2447 15.1594 -0.5 -0.409576 0.286788  255 0 0 255
-10.75 -18.9797 15.5379 -0.5 -0.409576 0.286788  255 0 0 255
-10.75 -18.7147 15.9164 -0.5 -0.409576 0.286788  255 0 0 255
-10.75 -18.4497 16.2949 -0.5 -0.409576 0.286788  255 0 0 255
-10.75 -18.1846 16.6734 -0.5 -0.409576 0.286788  255 0 0 255
-10.75 -17.9196 17.0518 -0.5 -0.409576 0.286788  255 0 0 255
-10.75 -17.6546 17.4303 -0.5 -0.409576 0.286788  255 0 0 255
-10.75 -17.3896 17.8088 -0.5 -0.409576 0.286788  255 0 0 255
-10.75 -17.1246 18.1873 -0.5 -0.409576 0.286788  255 0 0 255
-10.75 -16.8596 18.5658 -0.571429 -0.351065 0.245818  255 0 0 255
-10.75 -16.5945 18.9443 -0.428571 -0.468087 0.327758  255 0 0 255
-10.75 -16.3295 19.3227 -0.5 -0.409576 0.286788  255 0 0 255
-10.75 -16.0645 19.7012 -0.571429 -0.351065 0.245818  255 0 0 255
-10.75 -15.7995 20.0797 -0.5 -0.409576 0.286788  255 0 0 255
-10.75 -15.5345 20.4582 -0.5 -0.409576 0.286788  255 0 0 255
-10.75 -15.2695 20.8367 -0.428571 -0.468087 0.327758  255 0 0 255
-10.75 -15.0044 21.2152 -0.5 -0.409576 0.286788  255 0 0 255
-10.75 -14.7394 21.5936 -0.5 -0.409576 0.286788  255 0 0 255
-10.75 -14.4744 21.9721 -0.5 -0.409576 0.286788  255 0 0 255
-10.75 -14.2094 22.3506 -0.5 -0.409576 0.286788  255 0 0 255
-10.75 -13.9444 22.7291 -0.5 -0.409576 0.286788  255 0 0 255
-10.75 -13.6794 23.1076 -0.5 -0.409576 0.286788  255 0 0 255
-10.75 -13.4143 23.4861 -0.5 -0.409576 0.286788  255 0 0 255
-10.75 -13.1493 23.8645 -0.5 -0.409576 0.286788  255 0 0 255
-10.75 -12.8843 24.243 -0.5 -0.409576 0.286788  255 0 0 255
-10.75 -12.6193 24.6215 -0.5 -0.409576 0.286788  255 0 0 255
-10.75 -11.1511 25 -0.428571 0 0.571429  255 0 0 255
-10.75 -11.5521 25 -0.6 0 0.4  255 0 0 255
-10.75 -11.9532 25 -0.428571 0 0.571429  255 0 0 255
-8.12518 -6.28123 5.75 -0.624015 -0.425333 0  255 255 255 255
8.2239 -5.86795 5.75 -0.201054 -0.625567 0  255 255 255 255
8.47046 -5.83074 5.5 0.0575331 -0.568525 0.428571  255 255 255 255
8.7195 -5.81812 5.75 0 -1 0  255 255 255 255
9.13608 -5.8711 5.5 -0.137314 -0.480776 0.5  255 255 255 255
9.50582 -6.06592 5.75 -0.654095 -0.756412 0  255 255 255 255
9.7259 -6.37191 5.5 -0.530015 -0.213574 0.428571  255 255 255 255
9.79238 -6.74426 5.75 -1 0 0  255 255 255 255
9.72112 -7.16474 5.5 -0.466945 0.178781 0.5  255 255 255 255
7.80236 -7.27655 5.75 0.11979 -0.480817 0  255 255 255 255
7.984 -7.36795 5.5 -0.209009 -0.531833 0.428571  255 255 255 255
8.17821 -7.42883 5.75 -0.239019 -0.971015 0  255 255 255 255
8.39839 -7.46995 5.5 -0.0717657 -0.566904 0.428571  255 0 0 255
8.6219 -7.4842 5.75 0 -1 0  255 255 255 255
8.9344 -7.44668 5.5 0.130746 -0.482603 0.5  255 0 0 255
9.21337 -7.30458 5.75 0.648627 -0.761106 0  255 255 255 255
9.42414 -6.7851 5.75 1 0 0  255 255 255 255
9.32564 -6.40416 5.5 0.371704 0.243654 0.555556  255 255 255 255
9.00756 -6.1764 5.5 0.153417 0.475881 0.5  255 0 0 255
8.61359 -6.12337 5.75 0 1 0  255 0 0 255
8.33755 -6.14342 5.5 -0.0621505 0.496123 0.5  255 255 255 255
8.064 -6.18636 5.75 0.23064 0.902991 0  255 255 255 255
7.8778 -6.0673 5.75 0.691392 0.534936 0  255 255 255 255
7.90757 -5.69733 5.5 0.427191 -0.0343671 0.571429  255 0 0 255
7.93733 -5.32736 5.5 0.49839 -0.040095 0.5  255 0 0 255
7.96709 -4.95739 5.5 0.49839 -0.040095 0.5  255 0 0 255
7.99686 -4.58742 5.75 0.49839 -0.540095 0  255 255 255 255
8.39002 -4.58742 5.5 0 -0.5 0.5  255 0 0 255
8.78318 -4.58742 5.5 0 -0.428571 0.571429  255 0 0 255
9.17634 -4.58742 5.5 0 -0.428571 0.571429  255 255 255 255
9.5695 -4.58742 5.75 -0.6 -0.4 0  255 255 255 255
9.5695 -4.91828 5.75 -0.5 0.5 0  255 255 255 255
9.14773 -4.91828 5.5 0 0.428571 0.571429  255 255 255 255
8.72596 -4.91828 5.5 0 0.428571 0.571429  255 255 255 255
8.30419 -4.91828 5.75 -0.398578 0.633699 0  255 255 255 255
8.27742 -5.23484 5.5 -0.498223 0.042124 0.5  255 255 255 255
8.25066 -5.5514 5.5 -0.498223 0.042124 0.5  255 255 255 255
-8.94161 -7.75493 5.75 0.17946 0.983765 0  255 255 255 255
-8.51998 -7.51682 5.75 0 -1 0  255 255 255 255
-7.7896 -6.94436 5.75 1 0 0  255 255 255 255
-8.59524 -6.43113 5.75 0 1 0  255 255 255 255
-8.87283 -6.43113 5.75 0.5 0.5 0  255 255 255 255
-8.87283 -6.156 5.75 0.5 -0.5 0  255 255 255 255
-8.59153 -6.156 5.75 0 -1 0  255 255 255 255
-8.06935 -6.01042 5.75 0.602652 -0.798004 0  255 255 255 255
-7.87658 -5.60637 5.75 1 0 0  255 255 255 255
-8.01815 -5.28251 5.75 0.63969 0.768633 0  255 0 0 255
-8.40277 -5.16468 5.75 0 1 0  255 255 255 255
-8.75161 -5.21496 5.75 -0.293453 0.955973 0  255 255 255 255
-9.12575 -5.40033 5.75 0.0343021 0.73764 0  255 255 255 255
-9.28737 -5.18442 5.75 0.69733 -0.191553 0  255 255 255 255
-8.88763 -4.96944 5.75 0.325872 -0.945414 0  255 255 255 255
-8.41017 -4.89141 5.75 0 -1 0  255 255 255 255
8.37902 -7.78403 6 0.0509856 0.59783 -0.4  255 255 255 255
9.37744 -7.06954 5.5 0.468138 -0.175632 0.5  255 255 255 255
8.19805 -7.76077 5.5 0.087135 0.492349 0.5  255 0 0 255
7.80236 -7.62264 5.75 0.759874 0.42716 0  255 0 0 255
8.80248 -7.78509 5.79167 -0.095542 0.995425 0  255 255 255 255
9.26888 -7.65783 5.79545 -0.452004 0.892016 0  255 255 255 255
9.33819 -7.61927 5.63636 -0.520181 0.854056 0  255 0 0 255
9.37831 -7.59349 5.88636 -0.560936 0.827859 0  255 255 255 255
-8.33453 -7.63078 5.5 0 0 1  255 0 0 255
-7.72841 -5.48645 5.5 0 0 1  255 0 0 255
-8.03327 -6.42741 5.5 0 0 1  255 0 0 255
-8.23101 -6.27693 5.5 0 0 1  255 255 255 255
-8.27161 -5.05215 5.5 0 0 1  255 0 0 255
-7.746 -5.77039 5.5 0 0 1  255 0 0 255
-7.83878 -5.26964 5.5 0 0 1  255 255 255 255
-8.82748 -7.62549 5.5 0 0 1  255 0 0 255
-7.69982 -6.70933 5.5 0 0 1  255 255 255 255
-8.66681 -7.64329 5.5 0 0 1  255 0 0 255
-9.01457 -7.58798 5.5 0 0 1  255 0 0 255
-8.50112 -5.03715 5.5 0 0 1  255 0 0 255
-8.9056 -5.13748 5.5 0 0 1  255 0 0 255
-8.71288 -5.07437 5.5 0 0 1  255 0 0 255
-9.16815 -7.55766 5.5 0 0 1  255 0 0 255
-8.02911 -5.13398 5.5 0 0 1  255 255 255 255
-9.08088 -5.2199 5.5 0 0 1  255 255 255 255
-8.39461 -6.29076 5.5 0 0 1  255 0 0 255
-7.97664 -7.5172 5.5 0 0 1  255 0 0 255
-9.22134 -7.48454 5.5 0 0 1  255 0 0 255
-7.88093 -6.00372 5.5 0 0 1  255 0 0 255
-8.15495 -6.16755 5.5 0 0 1  255 255 255 255
-8.0244 -6.12669 5.5 0 0 1  255 0 0 255
-7.61374 -6.86681 5.5 0 0 1  255 255 255 255
-7.62733 -7.09842 5.5 0 0 1  255 0 0 255
-8.73311 -6.29356 5.5 0 0 1  255 255 255 255
-8.28875 -7.77524 5.77595 -0.118516 0.992952 0  255 255 255 255
-8.02518 -7.71948 5.80017 -0.306176 0.951975 0  255 255 255 255
-7.88262 -7.66204 5.67921 -0.444033 0.89601 0  255 255 255 255
-8.41847 -7.78609 5.88149 -0.050207 0.998739 0  255 255 255 255
-7.85539 -7.64799 5.84588 -0.473705 0.880684 0  255 255 255 255
8.27281 2.85012 2.81548 0.945464 0.325728 0  255 255 255 255
-7.89338 3.77585 3.12481 -0.902101 0.431525 0  255 255 255 255
-8.24063 2.94185 2.89434 -0.941786 0.336212 0  255 255 255 255
8.52229 1.9832 2.70493 0.973976 0.226651 0  255 255 255 255
8.12432 3.24929 2.93318 0.928494 0.371347 0  255 255 255 255
7.94313 3.67004 3.00189 0.907786 0.419433 0  255 255 255 255
7.71656 4.12519 3.00383 0.881893 0.47145 0  255 255 255 255
7.47592 4.54676 3.00068 0.854391 0.51963 0  255 255 255 255
7.222 4.94016 3.00202 0.825372 0.564589 0  255 255 255 255
6.95288 5.31224 3.00507 0.794615 0.607113 0  255 255 255 255
6.66193 5.67285 3.0083 0.761363 0.648325 0  255 255 255 255
6.34724 6.02287 3.00567 0.725399 0.688328 0  255 255 255 255
6.01748 6.35236 2.99294 0.687712 0.725984 0  255 255 255 255
5.67823 6.65734 2.97735 0.64894 0.760839 0  255 255 255 255
5.32705 6.94155 2.97466 0.608805 0.79332 0  255 255 255 255
4.95822 7.20962 2.98183 0.566654 0.823956 0  255 255 255 255
4.57302 7.45989 2.98346 0.522631 0.852559 0  255 255 255 255
4.1763 7.68902 2.97661 0.477292 0.878745 0  255 255 255 255
3.77264 7.89491 2.96189 0.431159 0.902276 0  255 255 255 255
3.36604 8.07665 2.94276 0.38469 0.923046 0  255 255 255 255
2.95264 8.23677 2.93122 0.337445 0.941345 0  255 255 255 255
2.52602 8.37745 2.93589 0.288687 0.957423 0  255 255 255 255
2.08572 8.49778 2.95387 0.238368 0.971175 0  255 255 255 255
1.63272 8.59632 2.97441 0.186597 0.982437 0  255 255 255 255
1.17097 8.67129 2.98815 0.133825 0.991005 0  255 255 255 255
0.70662 8.72142 2.99506 0.080757 0.996734 0  255 255 255 255
0.243109 8.74662 2.9981 0.027784 0.999614 0  255 255 255 255
-0.218541 8.74727 2.99933 -0.024976 0.999688 0  255 255 255 255
-0.678006 8.72369 2.99978 -0.077486 0.996993 0  255 255 255 255
-1.135 8.67607 2.99989 -0.129715 0.991551 0  255 255 255 255
-1.58928 8.60446 2.99975 -0.181632 0.983367 0  255 255 255 255
-2.04082 8.50868 2.99913 -0.233236 0.97242 0  255 255 255 255
-2.48985 8.38828 2.9974 -0.284554 0.95866 0  255 255 255 255
-2.9362 8.24265 2.99347 -0.335566 0.942017 0  255 255 255 255
-3.37745 8.07189 2.98623 -0.385994 0.922501 0  255 255 255 255
-3.80707 7.87837 2.97745 -0.435093 0.900385 0  255 255 255 255
-4.21736 7.66657 2.97471 -0.481984 0.87618 0  255 255 255 255
-4.60658 7.43921 2.98083 -0.526467 0.850196 0  255 255 255 255
-4.97931 7.19506 2.98786 -0.569065 0.822293 0  255 255 255 255
-5.33969 6.93182 2.99253 -0.610251 0.792208 0  255 255 255 255
-5.68814 6.64888 2.99548 -0.650073 0.759872 0  255 255 255 255
-6.02294 6.34718 2.99777 -0.688336 0.725392 0  255 255 255 255
-6.34203 6.02836 3.00008 -0.724804 0.688955 0  255 255 255 255
-6.64387 5.69399 3.00267 -0.759299 0.650742 0  255 255 255 255
-6.92797 5.34469 3.00556 -0.791768 0.610822 0  255 255 255 255
-7.19609 4.97783 3.00886 -0.822411 0.568894 0  255 255 255 255
-7.45317 4.58397 3.01322 -0.85179 0.523883 0  255 255 255 255
-7.69741 4.16082 3.03556 -0.879704 0.475522 0  255 255 255 255
-8.07858 3.36141 2.98833 -0.923266 0.384161 0  255 255 255 255
-8.51303 2.02256 2.66038 -0.972918 0.23115 0  255 255 255 255
-8.58911 1.67024 3.72343 -0.981612 0.190885 0  255 255 255 255
8.60581 1.58193 3.7369 0.983521 0.180792 0  255 255 255 255
8.52637 1.96558 1.47529 0.974442 0.224637 0  255 255 255 255
-8.51798 2.00164 1.53888 -0.973483 0.228758 0  255 255 255 255
-8.53036 1.94821 4.61068 -0.974898 0.222652 0  255 255 255 255
8.54458 1.88483 4.54143 0.976524 0.21541 0  255 255 255 255
8.66628 1.20753 1.76587 0.990432 0.138003 0  255 255 255 255
-8.65886 1.25964 1.76337 -0.989584 0.143959 0  255 255 255 255
-8.66737 1.19969 4.30472 -0.990556 0.137108 0  255 255 255 255
8.67756 1.12355 4.32482 0.991722 0.128405 0  255 255 255 255
8.61894 1.50876 0.975066 0.985022 0.17243 0  255 255 255 255
-8.61118 1.55245 0.932542 -0.984135 0.177423 0  255 255 255 255
-8.6175 1.51699 5.14856 -0.984857 0.173371 0  255 255 255 255
8.62365 1.48162 5.13409 0.98556 0.169328 0  255 255 255 255
8.68651 1.05217 1.34287 0.992744 0.120248 0  255 255 255 255
-8.68285 1.08199 1.3219 -0.992325 0.123656 0  255 255 255 255
-8.6728 1.15979 4.79832 -0.991177 0.132548 0  255 255 255 255
8.67783 1.12152 4.80024 0.991752 0.128174 0  255 255 255 255
8.68003 1.10435 0.829736 0.992003 0.126211 0  255 255 255 255
-8.67737 1.12505 0.808359 -0.9917 0.128577 0  255 255 255 255
-8.67955 1.10809 5.22716 -0.991949 0.126639 0  255 255 255 255
8.68215 1.08758 5.22509 0.992245 0.124295 0  255 255 255 255
8.72359 0.679373 1.0999 0.996981 0.077643 0  255 255 255 255
-8.72247 0.693535 1.08874 -0.996854 0.079261 0  255 255 255 255
-8.71135 0.821514 4.93045 -0.995583 0.093887 0  255 255 255 255
8.71301 0.803759 4.93621 0.995772 0.091858 0  255 255 255 255
8.72126 0.708546 0.65926 0.996716 0.080977 0  255 255 255 255
-8.72056 0.717172 0.650541 -0.996635 0.081963 0  255 255 255 255
-8.72264 0.691461 5.26914 -0.996873 0.079024 0  255 255 255 255
8.7234 0.681742 5.27072 0.99696 0.077913 0  255 255 255 255
8.73722 0.472701 0.295441 0.99854 0.054023 0  255 255 255 255
-8.7371 0.475 0.293045 -0.998525 0.054286 0  255 255 255 255
-8.7366 0.484065 5.67431 -0.998469 0.055322 0  255 255 255 255
8.73677 0.481038 5.67459 0.998488 0.054976 0  255 255 255 255
8.43428 2.32926 3.75586 0.963918 0.266201 0  255 255 255 255
-8.4053 2.43175 3.70768 -0.960606 0.277915 0  255 255 255 255
8.40073 2.4475 1.99342 0.960083 0.279714 0  255 255 255 255
-8.34634 2.627 1.98526 -0.953867 0.300228 0  255 255 255 255
8.19447 3.06808 1.32095 0.936511 0.350638 0  255 255 255 255
8.10735 3.2914 2.04818 0.926555 0.37616 0  255 255 255 255
7.9328 3.69232 2.07104 0.906606 0.421979 0  255 255 255 255
7.71227 4.13322 2.08923 0.881402 0.472368 0  255 255 255 255
7.46772 4.56022 2.10862 0.853454 0.521168 0  255 255 255 255
7.21639 4.94836 2.1509 0.82473 0.565526 0  255 255 255 255
6.96064 5.30207 2.16238 0.795502 0.605951 0  255 255 255 255
6.66171 5.6731 2.09941 0.761338 0.648355 0  255 255 255 255
6.3442 6.02608 2.11942 0.725052 0.688695 0  255 255 255 255
6.01935 6.35058 2.12577 0.687926 0.725781 0  255 255 255 255
5.68001 6.65582 2.12576 0.649144 0.760665 0  255 255 255 255
5.32624 6.94217 2.12391 0.608713 0.79339 0  255 255 255 255
4.95887 7.20917 2.12034 0.566728 0.823905 0  255 255 255 255
4.5797 7.45579 2.11111 0.523394 0.852091 0  255 255 255 255
4.1908 7.68113 2.09067 0.478948 0.877843 0  255 255 255 255
3.79369 7.88482 2.06056 0.433564 0.901123 0  255 255 255 255
3.40842 8.05886 2.0653 0.389533 0.921012 0  255 255 255 255
2.99413 8.22178 2.00195 0.342187 0.939632 0  255 255 255 255
2.53428 8.37496 1.98343 0.289631 0.957138 0  255 255 255 255
2.07575 8.50022 1.9812 0.237229 0.971454 0  255 255 255 255
1.61787 8.59913 1.9846 0.1849 0.982757 0  255 255 255 255
1.15889 8.67292 1.98864 0.132444 0.99119 0  255 255 255 255
0.698839 8.72205 1.99152 0.079867 0.996806 0  255 255 255 255
0.238492 8.74675 1.99313 0.027256 0.999628 0  255 255 255 255
-0.221316 8.7472 1.99391 -0.025293 0.99968 0  255 255 255 255
-0.679799 8.72355 1.99424 -0.077691 0.996977 0  255 255 255 255
-1.13621 8.67592 1.99432 -0.129853 0.991533 0  255 255 255 255
-1.58994 8.60433 1.9942 -0.181708 0.983353 0  255 255 255 255
-2.04071 8.5087 1.99379 -0.233225 0.972423 0  255 255 255 255
-2.48875 8.3886 1.99294 -0.284429 0.958697 0  255 255 255 255
-2.93491 8.24311 1.99188 -0.335418 0.942069 0  255 255 255 255
-3.38074 8.07051 1.99254 -0.38637 0.922344 0  255 255 255 255
-3.82746 7.86849 2.00318 -0.437424 0.899256 0  255 255 255 255
-4.25439 7.64609 2.05901 -0.486216 0.873839 0  255 255 255 255
-4.63735 7.42007 2.13687 -0.529983 0.848008 0  255 255 255 255
-4.99464 7.18443 2.15905 -0.570816 0.821078 0  255 255 255 255
-5.34712 6.92609 2.1673 -0.6111 0.791553 0  255 255 255 255
-5.69198 6.64559 2.17046 -0.650512 0.759496 0  255 255 255 255
-6.0251 6.34513 2.17219 -0.688582 0.725158 0  255 255 255 255
-6.34324 6.02709 2.17321 -0.724942 0.68881 0  255 255 255 255
-6.64404 5.69379 2.17326 -0.759319 0.650719 0  255 255 255 255
-6.92555 5.34783 2.17066 -0.791491 0.611181 0  255 255 255 255
-7.18471 4.99424 2.1593 -0.821109 0.570771 0  255 255 255 255
-7.41944 4.63836 2.11759 -0.847936 0.530098 0  255 255 255 255
-7.64151 4.26261 1.91589 -0.873316 0.487155 0  255 255 255 255
-7.87128 3.82171 2.03565 -0.899575 0.436766 0  255 255 255 255
-8.14033 3.20897 1.39259 -0.930324 0.36674 0  255 255 255 255
-8.22465 2.98625 1.74881 -0.93996 0.341285 0  255 255 255 255
8.24847 2.91979 4.41427 0.942683 0.333691 0  255 255 255 255
8.17685 3.11473 4.01455 0.934497 0.35597 0  255 255 255 255
7.98069 3.58762 4.54037 0.912079 0.410014 0  255 255 255 255
7.90794 3.74525 3.99056 0.903765 0.428029 0  255 255 255 255
7.69403 4.16706 3.9072 0.879318 0.476236 0  255 255 255 255
7.45997 4.5729 3.87384 0.852567 0.522617 0  255 255 255 255
7.20763 4.9611 3.85727 0.82373 0.566983 0  255 255 255 255
6.95395 5.31084 3.84265 0.794737 0.606953 0  255 255 255 255
6.68299 5.64802 3.93723 0.763771 0.645488 0  255 255 255 255
6.33263 6.03824 3.92992 0.723729 0.690084 0  255 255 255 255
5.98911 6.37911 3.88498 0.68447 0.729041 0  255 255 255 255
5.66375 6.66967 3.77775 0.647286 0.762248 0  255 255 255 255
5.34647 6.92659 3.78971 0.611026 0.791611 0  255 255 255 255
4.96933 7.20196 3.87725 0.567923 0.823082 0  255 255 255 255
4.56773 7.46313 3.8724 0.522027 0.852929 0  255 255 255 255
4.16281 7.69633 3.87374 0.47575 0.879581 0  255 255 255 255
3.73904 7.91088 3.86908 0.427319 0.904101 0  255 255 255 255
3.33565 8.08925 3.77399 0.381217 0.924485 0  255 255 255 255
2.95644 8.23541 3.78325 0.337879 0.94119 0  255 255 255 255
2.55797 8.36775 3.82349 0.292339 0.956315 0  255 255 255 255
2.14021 8.48422 3.89971 0.244595 0.969625 0  255 255 255 255
1.68089 8.58703 3.97739 0.192102 0.981375 0  255 255 255 255
1.19291 8.6683 3.99633 0.136332 0.990663 0  255 255 255 255
0.715593 8.72069 4.00232 0.081782 0.99665 0  255 255 255 255
0.246409 8.74653 4.00443 0.028161 0.999603 0  255 255 255 255
-0.217741 8.74729 4.00519 -0.024885 0.99969 0  255 255 255 255
-0.678386 8.72366 4.00547 -0.07753 0.99699 0  255 255 255 255
-1.1361 8.67593 4.00556 -0.12984 0.991535 0  255 255 255 255
-1.59114 8.60411 4.00553 -0.181845 0.983327 0  255 255 255 255
-2.04406 8.5079 4.00514 -0.233607 0.972331 0  255 255 255 255
-2.49614 8.3864 4.0037 -0.285273 0.958446 0  255 255 255 255
-2.94978 8.2378 3.99903 -0.337118 0.941463 0  255 255 255 255
-3.40709 8.05942 3.9837 -0.389382 0.921076 0  255 255 255 255
-3.84698 7.85896 3.92429 -0.439655 0.898167 0  255 255 255 255
-4.24339 7.6522 3.84573 -0.484959 0.874537 0  255 255 255 255
-4.61377 7.43476 3.82597 -0.527288 0.849686 0  255 255 255 255
-4.97946 7.19496 3.82125 -0.569081 0.822282 0  255 255 255 255
-5.33809 6.93306 3.82144 -0.610067 0.792349 0  255 255 255 255
-5.68602 6.65069 3.82296 -0.649831 0.760079 0  255 255 255 255
-6.02017 6.34981 3.82538 -0.688019 0.725693 0  255 255 255 255
-6.33819 6.0324 3.82913 -0.724365 0.689417 0  255 255 255 255
-6.63821 5.70058 3.83497 -0.758653 0.651495 0  255 255 255 255
-6.9184 5.35707 3.84323 -0.790674 0.612237 0  255 255 255 255
-7.17751 5.00459 3.85856 -0.820286 0.571953 0  255 255 255 255
-7.42715 4.62601 3.92323 -0.848817 0.528687 0  255 255 255 255
-7.6644 4.22131 3.99121 -0.875932 0.482435 0  255 255 255 255
-7.85144 3.8623 4.2831 -0.897308 0.441405 0  255 255 255 255
-8.20695 3.03455 4.44698 -0.937937 0.346806 0  255 255 255 255
8.04302 3.44562 1.53413 0.919202 0.393786 0  255 255 255 255
7.82437 3.91685 1.55296 0.894214 0.44764 0  255 255 255 255
7.58311 4.36565 1.56182 0.866642 0.498931 0  255 255 255 255
7.30765 4.81256 1.58381 0.83516 0.550007 0  255 255 255 255
7.07379 5.15015 1.30479 0.808433 0.588588 0  255 255 255 255
6.80572 5.49951 1.14675 0.777797 0.628516 0  255 255 255 255
6.61289 5.72993 1.5904 0.755759 0.65485 0  255 255 255 255
6.33446 6.03631 1.62232 0.723938 0.689865 0  255 255 255 255
6.01728 6.35254 1.63266 0.687689 0.726005 0  255 255 255 255
5.67993 6.65589 1.63523 0.649135 0.760674 0  255 255 255 255
5.32696 6.94161 1.63425 0.608796 0.793327 0  255 255 255 255
4.96109 7.20764 1.6301 0.566981 0.823731 0  255 255 255 255
4.58549 7.45223 1.61956 0.524056 0.851684 0  255 255 255 255
4.20337 7.67425 1.59179 0.480386 0.877057 0  255 255 255 255
3.80307 7.8803 1.50171 0.434636 0.900606 0  255 255 255 255
3.32896 8.092 1.42684 0.380452 0.9248 0  255 255 255 255
2.78104 8.29628 1.40679 0.317833 0.948147 0  255 255 255 255
2.30503 8.44093 1.40147 0.263432 0.964678 0  255 255 255 255
1.84346 8.55361 1.40133 0.210681 0.977555 0  255 255 255 255
1.38465 8.63975 1.40305 0.158246 0.9874 0  255 255 255 255
0.925654 8.7009 1.40493 0.105789 0.994389 0  255 255 255 255
0.466068 8.73758 1.40631 0.053265 0.99858 0  255 255 255 255
0.006393 8.75 1.40712 0.000731 1 0  255 255 255 255
-0.452587 8.73829 1.40753 -0.051724 0.998661 0  255 255 255 255
-0.91002 8.70255 1.40769 -0.104002 0.994577 0  255 255 255 255
-1.36512 8.64285 1.40766 -0.156014 0.987755 0  255 255 255 255
-1.81733 8.55919 1.40742 -0.207695 0.978194 0  255 255 255 255
-2.26651 8.45136 1.40683 -0.25903 0.965869 0  255 255 255 255
-2.71324 8.3187 1.40575 -0.310085 0.950709 0  255 255 255 255
-3.15962 8.15961 1.40398 -0.361099 0.932527 0  255 255 255 255
-3.6127 7.96938 1.4011 -0.41288 0.910786 0  255 255 255 255
-4.10593 7.72682 1.39404 -0.46925 0.883066 0  255 255 255 255
-4.52198 7.49094 1.61757 -0.516797 0.856108 0  255 255 255 255
-4.82562 7.29904 1.22718 -0.551499 0.834175 0  255 255 255 255
-5.17765 7.05369 1.62354 -0.591731 0.806136 0  255 255 255 255
-5.52205 6.78745 1.21589 -0.631091 0.775709 0  255 255 255 255
-5.86133 6.49671 1.62483 -0.669866 0.742482 0  255 255 255 255
-6.18633 6.18804 1.21542 -0.707009 0.707204 0  255 255 255 255
-6.49512 5.8631 1.62585 -0.742299 0.670069 0  255 255 255 255
-6.78529 5.5247 1.2168 -0.775462 0.631395 0  255 255 255 255
-7.05606 5.17441 1.62428 -0.806407 0.591361 0  255 255 255 255
-7.32152 4.79144 1.22234 -0.836745 0.547593 0  255 255 255 255
-7.58646 4.35983 1.30691 -0.867024 0.498266 0  255 255 255 255
-7.80781 3.94977 1.44776 -0.892321 0.451402 0  255 255 255 255
-8.00115 3.54177 1.66021 -0.914417 0.404774 0  255 255 255 255
8.1225 3.25385 4.38309 0.928285 0.371869 0  255 255 255 255
7.7774 4.00931 4.41533 0.888845 0.458207 0  255 255 255 255
7.56499 4.39698 4.36934 0.86457 0.502512 0  255 255 255 255
7.32085 4.79246 4.36555 0.836668 0.54771 0  255 255 255 255
7.04192 5.19364 4.33696 0.80479 0.593559 0  255 255 255 255
6.77322 5.5395 4.54681 0.774082 0.633086 0  255 255 255 255
6.4861 5.87307 4.81948 0.741269 0.671208 0  255 255 255 255
6.27259 6.10058 4.42779 0.716868 0.697209 0  255 255 255 255
5.97469 6.39262 4.43884 0.682822 0.730585 0  255 255 255 255
5.58931 6.73217 4.6318 0.638778 0.769391 0  255 255 255 255
5.25864 6.99351 4.27725 0.600988 0.799258 0  255 255 255 255
4.91849 7.23678 4.39418 0.562113 0.827061 0  255 255 255 255
4.56144 7.46698 4.37872 0.521307 0.853369 0  255 255 255 255
4.16507 7.69511 4.39089 0.476008 0.879441 0  255 255 255 255
3.73944 7.91069 4.4444 0.427365 0.904079 0  255 255 255 255
3.24431 8.12631 4.68606 0.370779 0.928721 0  255 255 255 255
2.79917 8.29018 4.32547 0.319905 0.94745 0  255 255 255 255
2.47005 8.39413 4.70737 0.282292 0.959329 0  255 255 255 255
2.0232 8.51288 4.60817 0.231223 0.972901 0  255 255 255 255
1.44987 8.62904 4.59324 0.165699 0.986176 0  255 255 255 255
0.954788 8.69775 4.59143 0.109119 0.994029 0  255 255 255 255
0.479735 8.73684 4.59159 0.054827 0.998496 0  255 255 255 255
0.012737 8.74999 4.59188 0.001456 0.999999 0  255 255 255 255
-0.44982 8.73843 4.59206 -0.051408 0.998678 0  255 255 255 255
-0.909171 8.70264 4.59216 -0.103905 0.994587 0  255 255 255 255
-1.36573 8.64276 4.59222 -0.156083 0.987744 0  255 255 255 255
-1.81985 8.55866 4.59224 -0.207983 0.978132 0  255 255 255 255
-2.27249 8.44975 4.59214 -0.259713 0.965686 0  255 255 255 255
-2.72619 8.31447 4.59199 -0.311564 0.950225 0  255 255 255 255
-3.18865 8.14831 4.59249 -0.364417 0.931236 0  255 255 255 255
-3.69466 7.93171 4.59761 -0.422247 0.906481 0  255 255 255 255
-4.12338 7.71753 4.37158 -0.471243 0.882003 0  255 255 255 255
-4.43694 7.54162 4.76632 -0.507078 0.8619 0  255 255 255 255
-4.8021 7.31453 4.36801 -0.548811 0.835947 0  255 255 255 255
-5.15931 7.06711 4.77993 -0.589636 0.807669 0  255 255 255 255
-5.51364 6.79428 4.37121 -0.63013 0.77649 0  255 255 255 255
-5.85338 6.50388 4.78458 -0.668958 0.7433 0  255 255 255 255
-6.17895 6.19541 4.37695 -0.706165 0.708047 0  255 255 255 255
-6.48422 5.87515 4.79297 -0.741053 0.671446 0  255 255 255 255
-6.77595 5.53615 4.39231 -0.774394 0.632703 0  255 255 255 255
-7.05234 5.17948 4.82979 -0.805981 0.591941 0  255 255 255 255
-7.31654 4.79903 4.8539 -0.836176 0.548461 0  255 255 255 255
-7.52671 4.46218 4.52639 -0.860196 0.509964 0  255 255 255 255
-7.74032 4.08043 4.79676 -0.884608 0.466335 0  255 255 255 255
-8.04577 3.4392 4.52273 -0.919517 0.393051 0  255 255 255 255
8.47314 2.18367 4.44206 0.968359 0.249562 0  255 255 255 255
-8.45982 2.2347 4.45761 -0.966837 0.255395 0  255 255 255 255
-8.63432 1.4181 2.17822 -0.98678 0.162068 0  255 255 255 255
8.63392 1.42056 2.13386 0.986733 0.16235 0  255 255 255 255
-8.68618 1.05488 3.90412 -0.992706 0.120558 0  255 255 255 255
8.70374 0.898603 3.93147 0.994713 0.102698 0  255 255 255 255
-8.67601 1.13549 3.01043 -0.991544 0.12977 0  255 255 255 255
8.68137 1.09374 3.00699 0.992157 0.124999 0  255 255 255 255
8.54677 1.8749 1.10333 0.976773 0.214275 0  255 255 255 255
-8.52906 1.95387 1.0775 -0.97475 0.223299 0  255 255 255 255
8.54784 1.87 5.00864 0.976896 0.213714 0  255 255 255 255
-8.53645 1.92132 5.04953 -0.975594 0.21958 0  255 255 255 255
-8.7087 0.849089 1.73899 -0.995281 0.097039 0  255 255 255 255
8.71108 0.824413 1.74272 0.995552 0.094219 0  255 255 255 255
8.40878 2.4197 0.960087 0.961003 0.276537 0  255 255 255 255
-8.71267 0.80743 3.26834 -0.995733 0.092278 0  255 255 255 255
8.7168 0.761536 3.2444 0.996205 0.087033 0  255 255 255 255
-8.73364 0.534782 2.30364 -0.998131 0.061118 0  255 255 255 255
8.73436 0.522993 2.29903 0.998212 0.059771 0  255 255 255 255
-8.72089 0.713084 3.65594 -0.996674 0.081495 0  255 255 255 255
8.72578 0.650618 3.57845 0.997232 0.074356 0  255 255 255 255
8.542 1.89652 2.17118 0.976228 0.216745 0  255 255 255 255
-8.5464 1.87657 2.13116 -0.976732 0.214466 0  255 255 255 255
8.53611 1.92282 0.651145 0.975556 0.219751 0  255 255 255 255
-8.51907 1.99699 0.555465 -0.973608 0.228227 0  255 255 255 255
8.55029 1.85875 5.51493 0.977177 0.212429 0  255 255 255 255
-8.54498 1.88303 5.53472 -0.976569 0.215203 0  255 255 255 255
8.41895 2.38405 2.86041 0.962166 0.272463 0  255 255 255 255
-8.39575 2.46452 2.78663 -0.959514 0.281659 0  255 255 255 255
8.56538 1.78796 3.37184 0.9789 0.204338 0  255 255 255 255
-8.55145 1.85345 3.34273 -0.977308 0.211822 0  255 255 255 255
-8.74296 0.351052 0.99269 -0.999195 0.04012 0  255 255 255 255
8.74318 0.345377 0.997435 0.999221 0.039472 0  255 255 255 255
-8.74033 0.411323 4.87026 -0.998894 0.047008 0  255 255 255 255
8.7406 0.405565 4.87537 0.998925 0.04635 0  255 255 255 255
-8.73584 0.497592 1.51396 -0.998382 0.056868 0  255 255 255 255
8.73654 0.485058 1.51974 0.998462 0.055435 0  255 255 255 255
-8.71908 0.734971 4.48715 -0.996466 0.083997 0  255 255 255 255
8.72035 0.719765 4.50931 0.996611 0.082259 0  255 255 255 255
8.67681 1.12937 0.445051 0.991635 0.12907 0  255 255 255 255
-8.67547 1.13965 0.431737 -0.991482 0.130246 0  255 255 255 255
8.69315 0.995828 5.62563 0.993503 0.113809 0  255 255 255 255
-8.69223 1.00379 5.6267 -0.993398 0.114719 0  255 255 255 255
8.70156 0.919405 0.27995 0.994464 0.105075 0  255 255 255 255
-8.70111 0.923646 0.275065 -0.994413 0.10556 0  255 255 255 255
8.61303 1.54213 0.456341 0.984347 0.176243 0  255 255 255 255
-8.60978 1.56021 0.424735 -0.983974 0.17831 0  255 255 255 255
8.6313 1.43634 5.58329 0.986435 0.164154 0  255 255 255 255
-8.62885 1.45105 5.58952 -0.986154 0.165834 0  255 255 255 255
-8.7415 0.385692 1.245 -0.999028 0.044079 0  255 255 255 255
8.74185 0.37759 1.25042 0.999068 0.043153 0  255 255 255 255
-8.74455 0.308807 0.664178 -0.999377 0.035292 0  255 255 255 255
8.74467 0.305482 0.66735 0.99939 0.034912 0  255 255 255 255
-8.74424 0.317524 5.28582 -0.999341 0.036288 0  255 255 255 255
8.74437 0.313818 5.28721 0.999357 0.035865 0  255 255 255 255
8.38022 2.51682 4.56772 0.957739 0.287637 0  255 255 255 255
-8.33013 2.67796 4.66099 -0.952015 0.306053 0  255 255 255 255
8.31071 2.73762 1.14734 0.949796 0.312871 0  255 255 255 255
-8.36028 2.58228 1.09731 -0.955461 0.295117 0  255 255 255 255
7.82731 3.91097 4.92257 0.89455 0.446968 0  255 255 255 255
-7.94349 3.66927 5.01091 -0.907827 0.419345 0  255 255 255 255
7.65868 4.23167 4.76066 0.875278 0.48362 0  255 255 255 255
7.92535 3.70827 1.03665 0.905755 0.423802 0  255 255 255 255
-7.97722 3.59534 1.16215 -0.911682 0.410896 0  255 255 255 255
8.13783 3.2153 4.80479 0.930038 0.367463 0  255 255 255 255
8.09228 3.32829 0.981071 0.924832 0.380376 0  255 255 255 255
8.25725 2.89488 2.11184 0.943686 0.330843 0  255 255 255 255
8.29559 2.7831 3.70109 0.948068 0.318068 0  255 255 255 255
-8.17053 3.13129 4.83664 -0.933775 0.357862 0  255 255 255 255
8.38311 2.5072 5.03245 0.958069 0.286537 0  255 255 255 255
-8.35735 2.59177 5.14458 -0.955125 0.296202 0  255 255 255 255
7.43587 4.61198 1.01174 0.849814 0.527083 0  255 255 255 255
7.1692 5.01648 0.79628 0.819337 0.573312 0  255 255 255 255
6.91777 5.35789 0.669397 0.790602 0.61233 0  255 255 255 255
6.64595 5.69156 0.667365 0.759538 0.650463 0  255 255 255 255
6.34151 6.02891 0.666697 0.724744 0.689018 0  255 255 255 255
6.01969 6.35026 0.668342 0.687965 0.725744 0  255 255 255 255
5.68117 6.65483 0.669364 0.649277 0.760552 0  255 255 255 255
5.3274 6.94127 0.669351 0.608846 0.793288 0  255 255 255 255
4.96065 7.20794 0.668817 0.566931 0.823765 0  255 255 255 255
4.58425 7.453 0.669797 0.523914 0.851771 0  255 255 255 255
4.20287 7.67453 0.681144 0.480328 0.877089 0  255 255 255 255
3.81325 7.87538 0.743287 0.4358 0.900044 0  255 255 255 255
3.41699 8.05523 0.755681 0.390513 0.920598 0  255 255 255 255
2.98834 8.22389 0.808763 0.341524 0.939873 0  255 255 255 255
2.52377 8.37813 0.816575 0.288431 0.957501 0  255 255 255 255
2.06436 8.50299 0.81768 0.235927 0.971771 0  255 255 255 255
1.60752 8.60107 0.81836 0.183717 0.982979 0  255 255 255 255
1.15046 8.67404 0.819226 0.131481 0.991319 0  255 255 255 255
0.692335 8.72257 0.820025 0.079124 0.996865 0  255 255 255 255
0.233421 8.74689 0.820594 0.026677 0.999644 0  255 255 255 255
-0.225517 8.74709 0.820931 -0.025773 0.999668 0  255 255 255 255
-0.683532 8.72326 0.821094 -0.078118 0.996944 0  255 255 255 255
-1.13965 8.67546 0.821128 -0.130246 0.991482 0  255 255 255 255
-1.593 8.60377 0.82103 -0.182058 0.983288 0  255 255 255 255
-2.04294 8.50817 0.820728 -0.233479 0.972362 0  255 255 255 255
-2.48924 8.38846 0.820026 -0.284484 0.958681 0  255 255 255 255
-2.93237 8.24401 0.818374 -0.335129 0.942172 0  255 255 255 255
-3.37389 8.07337 0.813822 -0.385588 0.922671 0  255 255 255 255
-3.81483 7.87462 0.798814 -0.43598 0.899956 0  255 255 255 255
-4.22958 7.65984 0.742714 -0.48338 0.87541 0  255 255 255 255
-4.61253 7.43553 0.698881 -0.527146 0.849774 0  255 255 255 255
-4.98197 7.19322 0.679061 -0.569368 0.822083 0  255 255 255 255
-5.34064 6.9311 0.672227 -0.610358 0.792125 0  255 255 255 255
-5.68923 6.64795 0.66979 -0.650197 0.759765 0  255 255 255 255
-6.02449 6.34571 0.669219 -0.688513 0.725224 0  255 255 255 255
-6.34401 6.02628 0.669467 -0.725029 0.688718 0  255 255 255 255
-6.64472 5.69299 0.670664 -0.759397 0.650628 0  255 255 255 255
-6.9223 5.35204 0.674321 -0.79112 0.611662 0  255 255 255 255
-7.1714 5.01333 0.675963 -0.819589 0.572952 0  255 255 255 255
-7.41374 4.64746 0.672653 -0.847285 0.531138 0  255 255 255 255
-7.63578 4.27287 0.784225 -0.87266 0.488328 0  255 255 255 255
-7.82125 3.92309 0.935515 -0.893857 0.448353 0  255 255 255 255
7.44884 4.59101 4.8923 0.851296 0.524686 0  255 255 255 255
7.1682 5.01791 4.86249 0.819223 0.573476 0  255 255 255 255
6.89403 5.3884 5.11946 0.787889 0.615817 0  255 255 255 255
6.62033 5.72134 5.29053 0.756609 0.653867 0  255 255 255 255
6.33164 6.03927 5.31859 0.723616 0.690203 0  255 255 255 255
6.01637 6.35341 5.32652 0.687585 0.726104 0  255 255 255 255
5.66222 6.67097 5.26576 0.64711 0.762396 0  255 255 255 255
5.31861 6.94801 5.34256 0.607841 0.794059 0  255 255 255 255
4.96139 7.20744 5.33424 0.567016 0.823707 0  255 255 255 255
4.57455 7.45895 5.33914 0.522806 0.852452 0  255 255 255 255
4.18257 7.68561 5.34606 0.478008 0.878356 0  255 255 255 255
3.79166 7.8858 5.35005 0.433332 0.901234 0  255 255 255 255
3.39401 8.06494 5.31031 0.387886 0.921707 0  255 255 255 255
2.97124 8.23008 5.27733 0.33957 0.940581 0  255 255 255 255
2.51824 8.3798 5.23298 0.287798 0.957691 0  255 255 255 255
2.09915 8.49447 5.25724 0.239903 0.970797 0  255 255 255 255
1.66165 8.59078 5.2003 0.189902 0.981803 0  255 255 255 255
1.18099 8.66994 5.18417 0.13497 0.99085 0  255 255 255 255
0.707591 8.72134 5.17995 0.080868 0.996725 0  255 255 255 255
0.240725 8.74669 5.17896 0.027511 0.999621 0  255 255 255 255
-0.222171 8.74718 5.17877 -0.025391 0.999678 0  255 255 255 255
-0.682201 8.72336 5.17877 -0.077966 0.996956 0  255 255 255 255
-1.13956 8.67548 5.17882 -0.130236 0.991483 0  255 255 255 255
-1.59415 8.60356 5.17891 -0.182189 0.983264 0  255 255 255 255
-2.04605 8.50742 5.17915 -0.233834 0.972276 0  255 255 255 255
-2.49598 8.38645 5.18001 -0.285255 0.958452 0  255 255 255 255
-2.94575 8.23924 5.18353 -0.336657 0.941627 0  255 255 255 255
-3.39665 8.06382 5.19761 -0.388188 0.92158 0  255 255 255 255
-3.82239 7.87095 5.25365 -0.436844 0.899537 0  255 255 255 255
-4.21682 7.66687 5.29783 -0.481922 0.876214 0  255 255 255 255
-4.59855 7.44418 5.31804 -0.525548 0.850764 0  255 255 255 255
-4.97045 7.20119 5.32547 -0.568051 0.822993 0  255 255 255 255
-5.33325 6.93678 5.32869 -0.609515 0.792775 0  255 255 255 255
-5.6836 6.65276 5.3305 -0.649554 0.760316 0  255 255 255 255
-6.01879 6.35112 5.33218 -0.687862 0.725842 0  255 255 255 255
-6.33516 6.03559 5.33439 -0.724018 0.689781 0  255 255 255 255
-6.62633 5.71439 5.33708 -0.757295 0.653073 0  255 255 255 255
-6.8824 5.40325 5.34701 -0.78656 0.617514 0  255 255 255 255
-7.11548 5.09239 5.3749 -0.813198 0.581987 0  255 255 255 255
-7.34606 4.75372 5.321 -0.83955 0.543282 0  255 255 255 255
-7.58824 4.35673 5.28206 -0.867228 0.497912 0  255 255 255 255
-7.78717 3.99029 5.32298 -0.889963 0.456033 0  255 255 255 255
7.71051 4.13648 1.02538 0.881202 0.472741 0  255 255 255 255
-8.2298 2.97202 0.988655 -0.940549 0.339659 0  255 255 255 255
-8.13421 3.22446 3.7094 -0.929624 0.36851 0  255 255 255 255
7.85851 3.84789 5.49222 0.898116 0.439759 0  255 255 255 255
-8.15003 3.18425 0.481029 -0.931432 0.363915 0  255 255 255 255
8.05799 3.41046 3.77351 0.920913 0.389767 0  255 255 255 255
-8.09669 3.31754 0.926903 -0.925336 0.379147 0  255 255 255 255
8.03977 3.45319 2.35886 0.918831 0.394651 0  255 255 255 255
-8.01856 3.50218 3.95369 -0.916407 0.400249 0  255 255 255 255
7.82864 3.90831 2.38553 0.894702 0.446664 0  255 255 255 255
7.81877 3.92802 3.63995 0.893574 0.448917 0  255 255 255 255
7.59614 4.34294 2.40022 0.868131 0.496336 0  255 255 255 255
7.5875 4.35801 3.59699 0.867143 0.498059 0  255 255 255 255
7.34834 4.75021 2.41969 0.83981 0.542881 0  255 255 255 255
7.34263 4.75902 3.57868 0.839158 0.543888 0  255 255 255 255
7.09063 5.12694 2.43584 0.810358 0.585936 0  255 255 255 255
7.086 5.13334 3.57071 0.809828 0.586667 0  255 255 255 255
6.81193 5.49183 2.42214 0.778506 0.627637 0  255 255 255 255
6.81563 5.48723 3.59537 0.778929 0.627112 0  255 255 255 255
6.50638 5.8506 2.40912 0.743586 0.66864 0  255 255 255 255
6.5089 5.8478 3.62049 0.743874 0.66832 0  255 255 255 255
6.18498 6.18939 2.41329 0.706854 0.707359 0  255 255 255 255
6.17253 6.2018 3.60174 0.705433 0.708777 0  255 255 255 255
5.85156 6.50551 2.41131 0.66875 0.743487 0  255 255 255 255
5.83748 6.51816 3.55135 0.66714 0.744932 0  255 255 255 255
5.5048 6.80145 2.40807 0.62912 0.777308 0  255 255 255 255
5.50542 6.80095 3.52036 0.629191 0.777251 0  255 255 255 255
5.14388 7.07834 2.40652 0.587872 0.808954 0  255 255 255 255
5.15287 7.0718 3.54886 0.5889 0.808206 0  255 255 255 255
4.76906 7.33611 2.40327 0.545036 0.838413 0  255 255 255 255
4.76877 7.3363 3.57567 0.545003 0.838434 0  255 255 255 255
4.38246 7.57341 2.39294 0.500852 0.865533 0  255 255 255 255
4.36958 7.58085 3.57582 0.49938 0.866383 0  255 255 255 255
3.98704 7.78884 2.37437 0.455661 0.890153 0  255 255 255 255
3.96015 7.80255 3.56996 0.452588 0.89172 0  255 255 255 255
3.5898 7.97971 2.36018 0.410263 0.911967 0  255 255 255 255
3.54942 7.99776 3.53503 0.405648 0.914029 0  255 255 255 255
3.1844 8.14998 2.33703 0.363931 0.931426 0  255 255 255 255
3.14965 8.16347 3.50547 0.35996 0.932968 0  255 255 255 255
2.75321 8.30556 2.31107 0.314652 0.949207 0  255 255 255 255
2.74835 8.30717 3.51953 0.314097 0.949391 0  255 255 255 255
2.30353 8.44134 2.30662 0.263261 0.964725 0  255 255 255 255
2.33076 8.43386 3.56027 0.266373 0.96387 0  255 255 255 255
1.84931 8.55234 2.31197 0.211349 0.977411 0  255 255 255 255
1.88949 8.54356 3.61429 0.215942 0.976406 0  255 255 255 255
1.39159 8.63863 2.31914 0.159039 0.987272 0  255 255 255 255
1.42311 8.6335 3.65078 0.162641 0.986685 0  255 255 255 255
0.931388 8.70029 2.32439 0.106444 0.994319 0  255 255 255 255
0.948537 8.69843 3.66338 0.108404 0.994107 0  255 255 255 255
0.470316 8.73735 2.32732 0.05375 0.998554 0  255 255 255 255
0.478718 8.73689 3.6679 0.054711 0.998502 0  255 255 255 255
0.009605 8.75 2.32871 0.001098 0.999999 0  255 255 255 255
0.013503 8.74999 3.66954 0.001543 0.999999 0  255 255 255 255
-0.449931 8.73842 2.32929 -0.051421 0.998677 0  255 255 255 255
-0.448251 8.73851 3.67011 -0.051229 0.998687 0  255 255 255 255
-0.907617 8.7028 2.3295 -0.103728 0.994606 0  255 255 255 255
-0.907103 8.70285 3.67031 -0.103669 0.994612 0  255 255 255 255
-1.36284 8.64322 2.32948 -0.155754 0.987796 0  255 255 255 255
-1.36321 8.64316 3.67032 -0.155795 0.987789 0  255 255 255 255
-1.8152 8.55965 2.32921 -0.207452 0.978245 0  255 255 255 255
-1.81674 8.55932 3.67008 -0.207628 0.978208 0  255 255 255 255
-2.26466 8.45185 2.32849 -0.258819 0.965926 0  255 255 255 255
-2.26833 8.45087 3.66908 -0.259237 0.965814 0  255 255 255 255
-2.71157 8.31925 2.32711 -0.309893 0.950771 0  255 255 255 255
-2.71909 8.31679 3.66593 -0.310753 0.950491 0  255 255 255 255
-3.15624 8.16092 2.32569 -0.360714 0.932677 0  255 255 255 255
-3.16952 8.15578 3.65665 -0.36223 0.932089 0  255 255 255 255
-3.59776 7.97613 2.32826 -0.411172 0.911558 0  255 255 255 255
-3.61187 7.96975 3.6295 -0.412785 0.910829 0  255 255 255 255
-4.02757 7.76796 2.34888 -0.460294 0.887767 0  255 255 255 255
-4.03009 7.76665 3.58462 -0.460581 0.887618 0  255 255 255 255
-4.43099 7.54512 2.39108 -0.506399 0.862299 0  255 255 255 255
-4.42042 7.55132 3.5532 -0.505191 0.863007 0  255 255 255 255
-4.80669 7.31151 2.42502 -0.549336 0.835601 0  255 255 255 255
-4.79445 7.31954 3.54542 -0.547937 0.836519 0  255 255 255 255
-5.16719 7.06135 2.43797 -0.590536 0.807011 0  255 255 255 255
-5.15918 7.0672 3.545 -0.589621 0.80768 0  255 255 255 255
-5.51871 6.79017 2.44332 -0.63071 0.776019 0  255 255 255 255
-5.51369 6.79424 3.54646 -0.630136 0.776485 0  255 255 255 255
-5.85924 6.4986 2.44589 -0.669627 0.742698 0  255 255 255 255
-5.85558 6.5019 3.54846 -0.669209 0.743074 0  255 255 255 255
-6.18583 6.18854 2.44755 -0.706952 0.707261 0  255 255 255 255
-6.18248 6.19188 3.55118 -0.706569 0.707644 0  255 255 255 255
-6.49606 5.86205 2.44863 -0.742407 0.669949 0  255 255 255 255
-6.49241 5.8661 3.55515 -0.741989 0.670412 0  255 255 255 255
-6.78819 5.52114 2.4484 -0.775793 0.630987 0  255 255 255 255
-6.78389 5.52642 3.56097 -0.775302 0.631591 0  255 255 255 255
-7.06102 5.16763 2.44383 -0.806974 0.590587 0  255 255 255 255
-7.05654 5.17376 3.57107 -0.806461 0.591287 0  255 255 255 255
-7.31566 4.80037 2.42449 -0.836076 0.548614 0  255 255 255 255
-7.31469 4.80186 3.59905 -0.835964 0.548784 0  255 255 255 255
-7.56917 4.38977 2.35224 -0.865049 0.501688 0  255 255 255 255
-7.56291 4.40055 3.64299 -0.864333 0.50292 0  255 255 255 255
8.00423 3.53481 5.12241 0.914769 0.403978 0  255 255 255 255
-8.20133 3.04971 2.10436 -0.937295 0.348538 0  255 255 255 255
-8.70691 0.867321 2.54902 -0.995075 0.099122 0  255 255 255 255
8.70887 0.847355 2.54105 0.9953 0.096841 0  255 255 255 255
-8.05312 3.42195 2.11854 -0.920357 0.39108 0  255 255 255 255
-8.25624 2.89775 3.70885 -0.943571 0.331171 0  255 255 255 255
8.27775 2.83574 4.94893 0.946028 0.324084 0  255 255 255 255
8.3511 2.61181 2.4384 0.954412 0.298492 0  255 255 255 255
-8.28796 2.80574 2.44627 -0.947196 0.320655 0  255 255 255 255
8.21729 3.00643 3.27965 0.939119 0.343592 0  255 255 255 255
8.16217 3.15301 2.48456 0.93282 0.360344 0  255 255 255 255
8.51003 2.03516 3.10773 0.972575 0.232589 0  255 255 255 255
-8.4969 2.0893 3.05963 -0.971074 0.238777 0  255 255 255 255
8.48365 2.14246 0.876628 0.96956 0.244852 0  255 255 255 255
-8.43629 2.32195 0.818331 -0.964148 0.265365 0  255 255 255 255
-8.72917 0.603333 2.89899 -0.99762 0.068952 0  255 255 255 255
8.73077 0.579728 2.88867 0.997803 0.066255 0  255 255 255 255
-7.85332 3.85848 3.6638 -0.897523 0.440969 0  255 255 255 255
-7.94842 3.65856 2.58374 -0.908391 0.418121 0  255 255 255 255
7.71586 4.12649 2.54554 0.881813 0.471599 0  255 255 255 255
7.7086 4.14005 3.46227 0.880983 0.473149 0  255 255 255 255
7.4747 4.54878 2.55677 0.854251 0.519861 0  255 255 255 255
7.46978 4.55685 3.44029 0.853689 0.520783 0  255 255 255 255
7.22142 4.94101 2.57275 0.825305 0.564687 0  255 255 255 255
7.21739 4.9469 3.43129 0.824844 0.56536 0  255 255 255 255
6.95449 5.31014 2.5762 0.794799 0.606873 0  255 255 255 255
6.95305 5.31203 3.43386 0.794634 0.607089 0  255 255 255 255
6.66156 5.67328 2.56014 0.761321 0.648375 0  255 255 255 255
6.66652 5.66745 3.4623 0.761888 0.647708 0  255 255 255 255
6.34737 6.02274 2.56013 0.725413 0.688313 0  255 255 255 255
6.34309 6.02725 3.46138 0.724924 0.688829 0  255 255 255 255
6.01967 6.35028 2.55766 0.687962 0.725747 0  255 255 255 255
6.00825 6.36108 3.43319 0.686658 0.726981 0  255 255 255 255
5.67966 6.65613 2.5519 0.649103 0.7607 0  255 255 255 255
5.6736 6.66129 3.39119 0.648411 0.76129 0  255 255 255 255
5.32626 6.94215 2.54937 0.608715 0.793389 0  255 255 255 255
5.33187 6.93784 3.39142 0.609356 0.792896 0  255 255 255 255
4.95802 7.20975 2.54928 0.566631 0.823972 0  255 255 255 255
4.96191 7.20708 3.42099 0.567075 0.823666 0  255 255 255 255
4.57608 7.45801 2.54484 0.522981 0.852344 0  255 255 255 255
4.57091 7.46118 3.42742 0.52239 0.852707 0  255 255 255 255
4.18352 7.68509 2.53224 0.478116 0.878296 0  255 255 255 255
4.16907 7.69294 3.42414 0.476465 0.879194 0  255 255 255 255
3.78448 7.88925 2.51454 0.432511 0.901628 0  255 255 255 255
3.75883 7.9015 3.40874 0.42958 0.903029 0  255 255 255 255
3.38344 8.06938 2.50035 0.386679 0.922214 0  255 255 255 255
3.35288 8.08212 3.37167 0.383186 0.923671 0  255 255 255 255
2.96689 8.23165 2.47442 0.339073 0.94076 0  255 255 255 255
2.95081 8.23743 3.36614 0.337236 0.94142 0  255 255 255 255
2.5278 8.37692 2.46527 0.288891 0.957362 0  255 255 255 255
2.53709 8.37411 3.3877 0.289953 0.957041 0  255 255 255 255
2.07868 8.49951 2.47038 0.237564 0.971372 0  255 255 255 255
2.10587 8.49281 3.4291 0.240671 0.970607 0  255 255 255 255
1.62354 8.59806 2.48024 0.185547 0.982635 0  255 255 255 255
