ply
format ascii 1.0
comment VCGLIB generated
element vertex 1064
property float x
property float y
property float z
property float nx
property float ny
property float nz
property uchar red
property uchar green
property uchar blue
property uchar alpha
element face 0
property list uchar int vertex_indices
end_header
-0.237119 -25 -44.6657 0 -1 0  255 255 255 255
-27.917 -25 -9.07718 0 -1 0  255 255 255 255
-0.040682 -25 8.91516 0 -1 0  255 255 255 255
-17.7473 -25 59.9803 0 -1 0  255 255 255 255
3.64669 -25 24.758 0 -1 0  255 255 255 255
29.2363 -25 -14.7067 0 -1 0  255 255 255 255
-6.08436 -25 28.6305 0 -1 0  255 255 255 255
-0.056515 -25 2.22586 0 -1 0  255 255 255 255
15.198 -25 4.45683 0 -1 0  255 255 255 255
7.72766 -25 -8.94097 0 -1 0  255 255 255 255
9.65259 -25 -7.81801 0 -1 0  255 255 255 255
7.70162 -25 -4.48924 0 -1 0  255 255 255 255
14.9582 -25 8.64096 0 -1 0  255 255 255 255
-1.97666 -25 12.2652 0 -1 0  255 255 255 255
-25.3614 -25 -18.7494 0 -1 0  255 255 255 255
15.1234 -25 -43.7909 0 -1 0  255 255 255 255
13.5223 -25 -1.13546 0 -1 0  255 255 255 255
-9.72729 -25 21.2107 0 -1 0  255 255 255 255
-19.5594 -25 15.509 0 -1 0  255 255 255 255
1.98796 -25 14.4647 0 -1 0  255 255 255 255
-0.017858 -25 -11.1702 0 -1 0  255 255 255 255
3.50305 -25 31.2236 0 -1 0  255 255 255 255
17.2657 -25 27.8783 0 -1 0  255 255 255 255
-38.7922 -25 -10.8506 0 -1 0  255 255 255 255
21.3492 -25 -27.8534 0 -1 0  255 255 255 255
-27.4936 -25 15.8488 0 -1 0  255 255 255 255
-1.96929 -25 -7.82149 0 -1 0  255 255 255 255
27.1052 -25 -59.0416 0 -1 0  255 255 255 255
-19.682 -25 -15.6194 0 -1 0  255 255 255 255
-13.7212 -25 25.529 0 -1 0  255 255 255 255
1.88714 -25 5.56448 0 -1 0  255 255 255 255
13.4731 -25 5.555 0 -1 0  255 255 255 255
11.7868 -25 15.2634 0 -1 0  255 255 255 255
11.5836 -25 -4.48696 0 -1 0  255 255 255 255
38.803 -25 10.8152 0 -1 0  255 255 255 255
-27.9587 -25 22.7123 0 -1 0  255 255 255 255
-27.1558 -25 -59.042 0 -1 0  255 255 255 255
29.1948 -25 -12.4706 0 -1 0  255 255 255 255
5.74988 -25 -1.14319 0 -1 0  255 255 255 255
15.491 -25 -4.42827 0 -1 0  255 255 255 255
-9.62084 -25 -18.7919 0 -1 0  255 255 255 255
32.7208 -25 59.2836 0 -1 0  255 255 255 255
12.2654 -25 -15.1689 0 -1 0  255 255 255 255
39.0783 -25 17.8197 0 -1 0  255 255 255 255
3.8313 -25 -15.6213 0 -1 0  255 255 255 255
-31.4543 -25 -39.9948 0 -1 0  255 255 255 255
-25.4994 -25 20.8096 0 -1 0  255 255 255 255
11.4605 -25 -10.9254 0 -1 0  255 255 255 255
25.6524 -25 -14.838 0 -1 0  255 255 255 255
25.3735 -25 19.0108 0 -1 0  255 255 255 255
27.8196 -25 9.02413 0 -1 0  255 255 255 255
3.9183 -25 -22.4471 0 -1 0  255 255 255 255
1.89327 -25 -5.59616 0 -1 0  255 255 255 255
-23.4236 -25 4.82502 0 -1 0  255 255 255 255
-3.81645 -25 -31.453 0 -1 0  255 255 255 255
40.8166 -25 -13.918 0 -1 0  255 255 255 255
28.759 -25 -28.221 0 -1 0  255 255 255 255
-32.0159 -25 59.5112 0 -1 0  255 255 255 255
-7.71151 -25 17.835 0 -1 0  255 255 255 255
13.5192 -25 -5.57647 0 -1 0  255 255 255 255
9.42319 -25 -14.5051 0 -1 0  255 255 255 255
27.4068 -25 -15.8735 0 -1 0  255 255 255 255
15.4931 -25 -15.4732 0 -1 0  255 255 255 255
5.78543 -25 -12.2814 0 -1 0  255 255 255 255
-17.6841 -25 18.9454 0 -1 0  255 255 255 255
-17.5769 -25 21.1722 0 -1 0  255 255 255 255
3.82257 -25 69.8924 0 -1 0  255 255 255 255
-34.9901 -25 -18.1046 0 -1 0  255 255 255 255
34.916 -25 18.1717 0 -1 0  255 255 255 255
3.823 -25 4.44262 0 -1 0  255 255 255 255
3.84932 -25 -11.1654 0 -1 0  255 255 255 255
-27.3086 -25 -17.7233 0 -1 0  255 255 255 255
-9.40912 -25 18.9555 0 -1 0  255 255 255 255
9.16735 -25 -71.963 0 -1 0  255 255 255 255
43.4076 -25 -52.9997 0 -1 0  255 255 255 255
39.5205 -25 -17.5381 0 -1 0  255 255 255 255
20.5736 -25 -49.7094 0 -1 0  255 255 255 255
-21.313 -25 -1.08747 0 -1 0  255 255 255 255
5.78246 -25 -7.82666 0 -1 0  255 255 255 255
-33.1692 -25 -26.3618 0 -1 0  255 255 255 255
-25.9515 -25 -14.8317 0 -1 0  255 255 255 255
48.2862 -25 -1.19177 0 -1 0  255 255 255 255
14.8761 -25 43.5774 0 -1 0  255 255 255 255
34.6651 -25 2.16342 0 -1 0  255 255 255 255
27.3576 -25 17.968 0 -1 0  255 255 255 255
-18.1115 -25 5.18866 0 -1 0  255 255 255 255
1.77587 -25 32.6429 0 -1 0  255 255 255 255
1.90759 -25 -12.28 0 -1 0  255 255 255 255
-29.3777 -25 12.6464 0 -1 0  255 255 255 255
25.5714 -25 14.6087 0 -1 0  255 255 255 255
32.8319 -25 5.49551 0 -1 0  255 255 255 255
9.62721 -25 -1.15068 0 -1 0  255 255 255 255
-0.113201 -25 31.6516 0 -1 0  255 255 255 255
-0.151455 -25 29.8403 0 -1 0  255 255 255 255
-12.3589 -25 -15.2147 0 -1 0  255 255 255 255
-11.8576 -25 17.8837 0 -1 0  255 255 255 255
-19.9486 -25 -17.8326 0 -1 0  255 255 255 255
38.6034 -25 42.939 0 -1 0  255 255 255 255
-9.24303 -25 -71.9251 0 -1 0  255 255 255 255
-19.6398 -25 17.7642 0 -1 0  255 255 255 255
-25.7627 -25 14.8713 0 -1 0  255 255 255 255
8.21024 -25 -60.566 0 -1 0  255 255 255 255
5.44608 -25 26.1223 0 -1 0  255 255 255 255
0.061367 -25 -29.4307 0 -1 0  255 255 255 255
-19.567 -25 29.313 0 -1 0  255 255 255 255
33.003 -25 -14.7562 0 -1 0  255 255 255 255
-1.91725 -25 -32.6452 0 -1 0  255 255 255 255
37.0785 -25 -56.0215 0 -1 0  255 255 255 255
25.5008 -25 -19.196 0 -1 0  255 255 255 255
-19.3092 -25 -2.24022 0 -1 0  255 255 255 255
-39.0928 -25 -17.7925 0 -1 0  255 255 255 255
9.61141 -25 -18.9201 0 -1 0  255 255 255 255
25.1979 -25 -5.83107 0 -1 0  255 255 255 255
3.89996 -25 -29.5155 0 -1 0  255 255 255 255
-27.5307 -25 -15.7463 0 -1 0  255 255 255 255
0.224971 -25 -24.6618 0 -1 0  255 255 255 255
-38.3986 -25 10.8876 0 -1 0  255 255 255 255
2.02074 -25 -55.979 0 -1 0  255 255 255 255
-13.4266 -25 -18.7294 0 -1 0  255 255 255 255
19.3094 -25 -4.43004 0 -1 0  255 255 255 255
-31.8498 -25 -22.5574 0 -1 0  255 255 255 255
29.4491 -25 12.4532 0 -1 0  255 255 255 255
-9.36696 -25 54.8498 0 -1 0  255 255 255 255
-38.6125 -25 42.9211 0 -1 0  255 255 255 255
-1.99966 -25 -19.7668 0 -1 0  255 255 255 255
72.5002 -25 -3.43039 0 -1 0  255 255 255 255
-37.1087 -25 -56.0433 0 -1 0  255 255 255 255
2.11858 -25 74.195 0 -1 0  255 255 255 255
-21.6671 -25 27.7935 0 -1 0  255 255 255 255
-36.8774 -25 1.17561 0 -1 0  255 255 255 255
-35.2553 -25 22.5944 0 -1 0  255 255 255 255
29.4213 -25 -21.4121 0 -1 0  255 255 255 255
5.78569 -25 18.4368 0 -1 0  255 255 255 255
22.0049 -25 -1.62726 0 -1 0  255 255 255 255
23.4336 -25 -9.20276 0 -1 0  255 255 255 255
-17.5594 -25 12.2525 0 -1 0  255 255 255 255
-19.3266 -25 -11.494 0 -1 0  255 255 255 255
33.2988 -25 -19.0581 0 -1 0  255 255 255 255
-3.83893 -25 -36.0159 0 -1 0  255 255 255 255
-5.87814 -25 -21.3402 0 -1 0  255 255 255 255
-34.7314 -25 -2.17154 0 -1 0  255 255 255 255
27.1271 -25 -9.2107 0 -1 0  255 255 255 255
15.7575 -25 -11.5153 0 -1 0  255 255 255 255
-17.1922 -25 -5.5542 0 -1 0  255 255 255 255
-5.54171 -25 -19.4468 0 -1 0  255 255 255 255
-72.4973 -25 3.41724 0 -1 0  255 255 255 255
13.8697 -25 14.401 0 -1 0  255 255 255 255
3.69098 -25 -17.6895 0 -1 0  255 255 255 255
-3.8262 -25 17.6151 0 -1 0  255 255 255 255
1.79913 -25 21.2775 0 -1 0  255 255 255 255
-36.882 -25 12.1187 0 -1 0  255 255 255 255
27.113 -25 -4.69964 0 -1 0  255 255 255 255
15.5306 -25 11.2698 0 -1 0  255 255 255 255
0.037307 -25 -31.6179 0 -1 0  255 255 255 255
38.6036 -25 -38.4888 0 -1 0  255 255 255 255
14.0319 -25 -14.424 0 -1 0  255 255 255 255
-5.88642 -25 -25.7265 0 -1 0  255 255 255 255
30.3787 -25 -67.1609 0 -1 0  255 255 255 255
52.0691 -25 8.95429 0 -1 0  255 255 255 255
-21.4081 -25 1.20374 0 -1 0  255 255 255 255
1.88495 -25 -28.551 0 -1 0  255 255 255 255
21.576 -25 7.9987 0 -1 0  255 255 255 255
25.4554 -25 -12.8349 0 -1 0  255 255 255 255
-52.1361 -25 -9.05101 0 -1 0  255 255 255 255
-26.9969 -25 -2.23858 0 -1 0  255 255 255 255
15.5957 -25 15.635 0 -1 0  255 255 255 255
-13.3008 -25 14.597 0 -1 0  255 255 255 255
-15.3867 -25 -18.1581 0 -1 0  255 255 255 255
19.3444 -25 -28.9929 0 -1 0  255 255 255 255
-21.5247 -25 21.1589 0 -1 0  255 255 255 255
-45.5111 -25 -17.5357 0 -1 0  255 255 255 255
21.2483 -25 1.0551 0 -1 0  255 255 255 255
-19.805 -25 4.44597 0 -1 0  255 255 255 255
-15.3302 -25 -11.1345 0 -1 0  255 255 255 255
-24.7202 -25 7.72815 0 -1 0  255 255 255 255
27.4269 -25 -18.0886 0 -1 0  255 255 255 255
-15.2833 -25 11.2406 0 -1 0  255 255 255 255
-7.70811 -25 -31.4458 0 -1 0  255 255 255 255
1.83889 -25 19.1729 0 -1 0  255 255 255 255
-0.034891 -25 -22.7183 0 -1 0  255 255 255 255
-31.6594 -25 40.3299 0 -1 0  255 255 255 255
-32.7709 -25 -1.03874 0 -1 0  255 255 255 255
-14.0902 -25 -14.5773 0 -1 0  255 255 255 255
31.4173 -25 -58.9814 0 -1 0  255 255 255 255
-52.5292 -25 12.2656 0 -1 0  255 255 255 255
19.5333 -25 18.0617 0 -1 0  255 255 255 255
31.1438 -25 24.7897 0 -1 0  255 255 255 255
36.8501 -25 -19.1268 0 -1 0  255 255 255 255
9.85946 -25 18.9616 0 -1 0  255 255 255 255
17.2883 -25 -7.77325 0 -1 0  255 255 255 255
27.4189 -25 15.7585 0 -1 0  255 255 255 255
-31.1241 -25 -25.049 0 -1 0  255 255 255 255
31.5063 -25 39.9571 0 -1 0  255 255 255 255
22.9331 -25 -15.9415 0 -1 0  255 255 255 255
17.3572 -25 -27.9038 0 -1 0  255 255 255 255
17.403 -25 -5.50946 0 -1 0  255 255 255 255
-42.1464 -25 56.3956 0 -1 0  255 255 255 255
-21.4569 -25 32.2583 0 -1 0  255 255 255 255
21.2221 -25 32.2176 0 -1 0  255 255 255 255
25.3044 -25 0.524727 0 -1 0  255 255 255 255
-13.7309 -25 -21.74 0 -1 0  255 255 255 255
29.1834 -25 21.0932 0 -1 0  255 255 255 255
-23.61 -25 17.8342 0 -1 0  255 255 255 255
-25.5302 -25 12.2935 0 -1 0  255 255 255 255
-42.1768 -25 51.685 0 -1 0  255 255 255 255
9.51295 -25 -32.3465 0 -1 0  255 255 255 255
-31.4797 -25 -58.9901 0 -1 0  255 255 255 255
-34.562 -25 -43.9277 0 -1 0  255 255 255 255
8.01849 -25 22.3697 0 -1 0  255 255 255 255
23.6136 -25 11.2726 0 -1 0  255 255 255 255
-1.86815 -25 39.3848 0 -1 0  255 255 255 255
-0.087607 -25 36.1561 0 -1 0  255 255 255 255
-30.4001 -25 -67.1633 0 -1 0  255 255 255 255
61.5111 -25 -45.5677 0 -1 0  255 255 255 255
-61.511 -25 -45.5677 0 -1 0  255 255 255 255
32.6956 -25 1.02472 0 -1 0  255 255 255 255
18.1791 -25 60.0328 0 -1 0  255 255 255 255
-6.01154 -25 64.817 0 -1 0  255 255 255 255
-34.9373 -25 -16.1032 0 -1 0  255 255 255 255
-35.023 -25 18.0627 0 -1 0  255 255 255 255
6.14728 -25 -35.0085 0 -1 0  255 255 255 255
11.9299 -25 22.6064 0 -1 0  255 255 255 255
-7.98887 -25 -24.2501 0 -1 0  255 255 255 255
1.87871 -25 27.7599 0 -1 0  255 255 255 255
42.1332 -25 56.3659 0 -1 0  255 255 255 255
-40.948 -25 59.8866 0 -1 0  255 255 255 255
45.4595 -25 17.5252 0 -1 0  255 255 255 255
-1.72406 -25 -28.3698 0 -1 0  255 255 255 255
-31.2837 -25 15.8807 0 -1 0  255 255 255 255
-23.1431 -25 -15.5603 0 -1 0  255 255 255 255
60.6317 -25 19.5792 0 -1 0  255 255 255 255
23.2759 -25 -4.7139 0 -1 0  255 255 255 255
-12.1237 -25 22.1714 0 -1 0  255 255 255 255
-17.4033 -25 38.5177 0 -1 0  255 255 255 255
-17.3839 -25 -38.6087 0 -1 0  255 255 255 255
-3.96866 -25 31.6113 0 -1 0  255 255 255 255
24.864 -25 -25.4667 0 -1 0  255 255 255 255
-1.96936 -25 32.7496 0 -1 0  255 255 255 255
-3.59621 -25 38.1892 0 -1 0  255 255 255 255
57.6449 -25 -57.8691 0 -1 0  255 255 255 255
-57.6449 -25 -57.8689 0 -1 0  255 255 255 255
17.0089 -25 -38.2561 0 -1 0  255 255 255 255
-32.877 -25 -5.49071 0 -1 0  255 255 255 255
18.9489 -25 -8.83296 0 -1 0  255 255 255 255
38.8188 -25 4.27717 0 -1 0  255 255 255 255
21.4487 -25 6.11141 0 -1 0  255 255 255 255
16.8081 -25 19.3878 0 -1 0  255 255 255 255
-17.5504 -25 28.036 0 -1 0  255 255 255 255
-30.9918 -25 -18.1013 0 -1 0  255 255 255 255
-38.5912 -25 -38.5077 0 -1 0  255 255 255 255
23.6278 -25 15.6146 0 -1 0  255 255 255 255
-0.036193 -25 22.5027 0 -1 0  255 255 255 255
1.90794 -25 -32.7408 0 -1 0  255 255 255 255
7.59792 -25 -17.8325 0 -1 0  255 255 255 255
-34.5609 -25 4.57756 0 -1 0  255 255 255 255
-29.3846 -25 -14.6885 0 -1 0  255 255 255 255
13.5756 -25 -27.647 0 -1 0  255 255 255 255
42.4516 -25 51.8233 0 -1 0  255 255 255 255
22.9396 -25 -65.8545 0 -1 0  255 255 255 255
23.456 -25 9.0109 0 -1 0  255 255 255 255
-60.6365 -25 -19.5894 0 -1 0  255 255 255 255
-38.855 -25 -4.31237 0 -1 0  255 255 255 255
-30.1857 -25 56.5604 0 -1 0  255 255 255 255
3.79082 -25 -31.7487 0 -1 0  255 255 255 255
35.2899 -25 25.3527 0 -1 0  255 255 255 255
-19.473 -25 11.1367 0 -1 0  255 255 255 255
-65.5512 -25 -10.096 0 -1 0  255 255 255 255
-2.25741 -25 27.9635 0 -1 0  255 255 255 255
3.66571 -25 -36.0826 0 -1 0  255 255 255 255
17.2554 -25 38.5398 0 -1 0  255 255 255 255
9.37123 -25 -26.3509 0 -1 0  255 255 255 255
-14.1235 -25 -56.7425 0 -1 0  255 255 255 255
34.7857 -25 16.209 0 -1 0  255 255 255 255
-25.217 -25 -11.8719 0 -1 0  255 255 255 255
-24.9949 -25 -1.31947 0 -1 0  255 255 255 255
36.0211 -25 -51.4403 0 -1 0  255 255 255 255
-36.0424 -25 -51.4527 0 -1 0  255 255 255 255
32.4007 -25 -5.53994 0 -1 0  255 255 255 255
-62.8605 -25 17.1685 0 -1 0  255 255 255 255
-25.9573 -25 63.5934 0 -1 0  255 255 255 255
61.5439 -25 45.4681 0 -1 0  255 255 255 255
21.102 -25 -32.2404 0 -1 0  255 255 255 255
-61.5112 -25 45.5658 0 -1 0  255 255 255 255
-23.2061 -25 11.3673 0 -1 0  255 255 255 255
-35.021 -25 15.8417 0 -1 0  255 255 255 255
-16.9953 -25 -21.3308 0 -1 0  255 255 255 255
-9.70503 -25 26.2742 0 -1 0  255 255 255 255
-17.6789 -25 14.4845 0 -1 0  255 255 255 255
53.3128 -25 12.8593 0 -1 0  255 255 255 255
29.7441 -25 -32.02 0 -1 0  255 255 255 255
18.5968 -25 -53.3042 0 -1 0  255 255 255 255
-3.86048 -25 24.1667 0 -1 0  255 255 255 255
3.69341 -25 22.579 0 -1 0  255 255 255 255
65.5477 -25 10.0712 0 -1 0  255 255 255 255
-18.9059 -25 -53.2844 0 -1 0  255 255 255 255
29.1756 -25 -42.3516 0 -1 0  255 255 255 255
31.238 -25 15.9256 0 -1 0  255 255 255 255
-21.4803 -25 -20.9067 0 -1 0  255 255 255 255
-39.9908 -25 5.31946 0 -1 0  255 255 255 255
-29.3774 -25 -12.3979 0 -1 0  255 255 255 255
-24.0011 -25 -8.99523 0 -1 0  255 255 255 255
-17.8953 -25 -14.7691 0 -1 0  255 255 255 255
-10.0047 -25 38.218 0 -1 0  255 255 255 255
4.16868 -25 43.1173 0 -1 0  255 255 255 255
33.0298 -25 -26.5281 0 -1 0  255 255 255 255
19.4703 -25 22.235 0 -1 0  255 255 255 255
10.0475 -25 25.1463 0 -1 0  255 255 255 255
17.7279 -25 7.86536 0 -1 0  255 255 255 255
-17.5561 -25 -25.5506 0 -1 0  255 255 255 255
37.4889 -25 -62.6382 0 -1 0  255 255 255 255
-11.6503 -25 35.0921 0 -1 0  255 255 255 255
-22.9975 -25 -65.8335 0 -1 0  255 255 255 255
25.9457 -25 63.8539 0 -1 0  255 255 255 255
-17.2485 -25 66.5677 0 -1 0  255 255 255 255
-53.4874 -25 -12.4133 0 -1 0  255 255 255 255
17.2919 -25 66.6153 0 -1 0  255 255 255 255
-24.6651 -25 -5.27068 0 -1 0  255 255 255 255
19.6395 -25 -16.2094 0 -1 0  255 255 255 255
-27.7491 -25 9.19868 0 -1 0  255 255 255 255
-69.3555 -25 20.8669 0 -1 0  255 255 255 255
62.9181 -25 -17.5848 0 -1 0  255 255 255 255
10.3213 -25 53.4577 0 -1 0  255 255 255 255
-13.9026 -25 18.6823 0 -1 0  255 255 255 255
34.9143 -25 -25.2494 0 -1 0  255 255 255 255
-37.514 -25 -62.6484 0 -1 0  255 255 255 255
-17.3278 -25 -40.6834 0 -1 0  255 255 255 255
7.33818 -25 28.9825 0 -1 0  255 255 255 255
69.4306 -25 -20.9245 0 -1 0  255 255 255 255
-0.032272 -25 -36.066 0 -1 0  255 255 255 255
-17.3819 -25 32.2462 0 -1 0  255 255 255 255
-22.734 -25 58.2442 0 -1 0  255 255 255 255
56.4384 -25 -9.17116 0 -1 0  255 255 255 255
11.4288 -25 -24.4164 0 -1 0  255 255 255 255
-61.7819 -25 -16.481 0 -1 0  255 255 255 255
-48.0853 -25 1.25478 0 -1 0  255 255 255 255
55.7612 -25 15.901 0 -1 0  255 255 255 255
-55.2863 -25 -16.1033 0 -1 0  255 255 255 255
-29.3969 -25 14.7872 0 -1 0  255 255 255 255
61.7794 -25 16.4451 0 -1 0  255 255 255 255
17.8444 -25 -21.3784 0 -1 0  255 255 255 255
31.2844 -25 -18.0511 0 -1 0  255 255 255 255
19.2403 -25 3.67702 0 -1 0  255 255 255 255
57.5937 -25 57.7489 0 -1 0  255 255 255 255
-57.5936 -25 57.7486 0 -1 0  255 255 255 255
34.9677 -25 -15.9535 0 -1 0  255 255 255 255
42.1372 -25 -9.72995 0 -1 0  255 255 255 255
68.4057 -25 -61.3616 0 -1 0  255 255 255 255
-68.4057 -25 -61.3616 0 -1 0  255 255 255 255
-13.7611 -25 27.7507 0 -1 0  255 255 255 255
-8.72577 -25 60.8317 0 -1 0  255 255 255 255
25.7517 -25 12.771 0 -1 0  255 255 255 255
27.7546 -25 4.85853 0 -1 0  255 255 255 255
-27.5086 -25 17.976 0 -1 0  255 255 255 255
-0.030418 -25 -38.3414 0 -1 0  255 255 255 255
-68.4056 -25 61.3618 0 -1 0  255 255 255 255
68.4056 -25 61.3618 0 -1 0  255 255 255 255
-15.0152 -25 -24.6673 0 -1 0  255 255 255 255
-33.1894 -25 14.7884 0 -1 0  255 255 255 255
21.6921 -25 -19.2109 0 -1 0  255 255 255 255
-36.4489 -25 7.60964 0 -1 0  255 255 255 255
-15.8222 -25 17.7365 0 -1 0  255 255 255 255
-21.1376 -25 -32.4758 0 -1 0  255 255 255 255
-60.4908 -25 19.5563 0 -1 0  255 255 255 255
8.50159 -25 61.3647 0 -1 0  255 255 255 255
-27.9893 -25 -41.736 0 -1 0  255 255 255 255
-34.7323 -25 -4.36412 0 -1 0  255 255 255 255
27.5115 -25 -22.408 0 -1 0  255 255 255 255
-24.9845 -25 18.9328 0 -1 0  255 255 255 255
8.3111 -25 -45.254 0 -1 0  255 255 255 255
34.6472 -25 4.3907 0 -1 0  255 255 255 255
24.022 -25 -42.49 0 -1 0  255 255 255 255
57.3709 -25 16.7122 0 -1 0  255 255 255 255
-57.3314 -25 -16.7356 0 -1 0  255 255 255 255
31.9757 -25 54.73 0 -1 0  255 255 255 255
-27.2964 -25 4.07273 0 -1 0  255 255 255 255
-33.2962 -25 -19.1774 0 -1 0  255 255 255 255
15.3987 -25 37.423 0 -1 0  255 255 255 255
-3.63769 -25 35.9999 0 -1 0  255 255 255 255
-31.3005 -25 18.0949 0 -1 0  255 255 255 255
22.6752 -25 42.249 0 -1 0  255 255 255 255
-13.9956 -25 61.0303 0 -1 0  255 255 255 255
13.1203 -25 26.1644 0 -1 0  255 255 255 255
9.49021 -25 39.1634 0 -1 0  255 255 255 255
29.2303 -25 19.0672 0 -1 0  255 255 255 255
-19.4004 -25 -29.2376 0 -1 0  255 255 255 255
33.0145 -25 14.9729 0 -1 0  255 255 255 255
68.5573 -25 3.3717 0 -1 0  255 255 255 255
45.1194 -25 -58.3988 0 -1 0  255 255 255 255
-22.6085 -25 -42.5276 0 -1 0  255 255 255 255
-48.5904 -25 -23.6234 0 -1 0  255 255 255 255
52.8893 -25 16.7247 0 -1 0  255 255 255 255
-68.5649 -25 -3.40035 0 -1 0  255 255 255 255
17.6081 -25 -25.7124 0 -1 0  255 255 255 255
23.4303 -25 -2.6791 0 -1 0  255 255 255 255
9.68309 -25 -39.2566 0 -1 0  255 255 255 255
49.3089 -25 12.9121 0 -1 0  255 255 255 255
-53.2489 -25 -17.0848 0 -1 0  255 255 255 255
17.4366 -25 -40.8898 0 -1 0  255 255 255 255
-22.9347 -25 29.1899 0 -1 0  255 255 255 255
36.678 -25 5.49231 0 -1 0  255 255 255 255
22.7166 -25 58.2221 0 -1 0  255 255 255 255
-43.9897 -25 5.56685 0 -1 0  255 255 255 255
15.8138 -25 -22.6161 0 -1 0  255 255 255 255
4.33163 -25 -43.0438 0 -1 0  255 255 255 255
-36.7028 -25 -5.42285 0 -1 0  255 255 255 255
-42.3978 -25 10.0159 0 -1 0  255 255 255 255
-23.9539 -25 -22.9166 0 -1 0  255 255 255 255
-42.5462 -25 -3.67457 0 -1 0  255 255 255 255
31.5495 -25 -34.1556 0 -1 0  255 255 255 255
6.14784 -25 -46.3801 0 -1 0  255 255 255 255
-33.1607 -25 -12.551 0 -1 0  255 255 255 255
17.2796 -25 40.6735 0 -1 0  255 255 255 255
-34.7137 -25 2.20673 0 -1 0  255 255 255 255
11.4979 -25 31.0298 0 -1 0  255 255 255 255
3.66039 -25 -24.2414 0 -1 0  255 255 255 255
-17.2867 -25 -11.8131 0 -1 0  255 255 255 255
-45.1208 -25 -58.4127 0 -1 0  255 255 255 255
-49.4673 -25 -19.4331 0 -1 0  255 255 255 255
-22.7453 -25 42.3124 0 -1 0  255 255 255 255
29.0393 -25 -7.99241 0 -1 0  255 255 255 255
-1.93126 -25 -34.8903 0 -1 0  255 255 255 255
4.02369 -25 -38.553 0 -1 0  255 255 255 255
65.2935 -25 24.8078 0 -1 0  255 255 255 255
-46.2304 -25 44.885 0 -1 0  255 255 255 255
-7.5973 -25 -29.1019 0 -1 0  255 255 255 255
30.5115 -25 -9.10453 0 -1 0  255 255 255 255
42.516 -25 3.64989 0 -1 0  255 255 255 255
60.4263 -25 -19.4819 0 -1 0  255 255 255 255
-51.1851 -25 -14.1398 0 -1 0  255 255 255 255
-1.59464 -25 70.9295 0 -1 0  255 255 255 255
-7.20166 -25 23.0195 0 -1 0  255 255 255 255
7.79913 -25 32.1148 0 -1 0  255 255 255 255
38.0797 -25 66.2244 0 -1 0  255 255 255 255
-65.2827 -25 -24.8152 0 -1 0  255 255 255 255
-13.1238 -25 -34.1052 0 -1 0  255 255 255 255
31.1745 -25 -15.8292 0 -1 0  255 255 255 255
27.925 -25 41.8304 0 -1 0  255 255 255 255
48.6165 -25 23.6536 0 -1 0  255 255 255 255
46.2708 -25 44.9381 0 -1 0  255 255 255 255
36.6106 -25 1.07254 0 -1 0  255 255 255 255
-31.2522 -25 -9.05778 0 -1 0  255 255 255 255
49.4277 -25 19.2873 0 -1 0  255 255 255 255
-19.251 -25 53.2695 0 -1 0  255 255 255 255
-25.3269 -25 1.46064 0 -1 0  255 255 255 255
-3.51328 -25 48.7462 0 -1 0  255 255 255 255
-31.4386 -25 22.5099 0 -1 0  255 255 255 255
-15.3526 -25 35.2863 0 -1 0  255 255 255 255
-38.7458 -25 -8.67469 0 -1 0  255 255 255 255
-33.4236 -25 -21.1985 0 -1 0  255 255 255 255
35.0567 -25 -18.1215 0 -1 0  255 255 255 255
48.3917 -25 -20.5174 0 -1 0  255 255 255 255
-15.3863 -25 64.0533 0 -1 0  255 255 255 255
-34.9255 -25 66.1818 0 -1 0  255 255 255 255
-25.1862 -25 -25.541 0 -1 0  255 255 255 255
-17.2486 -25 25.2535 0 -1 0  255 255 255 255
-28.0418 -25 41.9143 0 -1 0  255 255 255 255
-30.7239 -25 2.22765 0 -1 0  255 255 255 255
43.6772 -25 -5.38866 0 -1 0  255 255 255 255
-29.2284 -25 27.8162 0 -1 0  255 255 255 255
21.8947 -25 -8.28152 0 -1 0  255 255 255 255
-15.928 -25 -28.6948 0 -1 0  255 255 255 255
-22.7144 -25 -35.7774 0 -1 0  255 255 255 255
29.3269 -25 14.6969 0 -1 0  255 255 255 255
38.8284 -25 8.70702 0 -1 0  255 255 255 255
1.82863 -25 55.8219 0 -1 0  255 255 255 255
-9.57132 -25 -34.2622 0 -1 0  255 255 255 255
8.29427 -25 -55.5962 0 -1 0  255 255 255 255
13.0727 -25 -71.4697 0 -1 0  255 255 255 255
-33.2267 -25 19.1729 0 -1 0  255 255 255 255
50.0407 -25 -31.0675 0 -1 0  255 255 255 255
-40.4407 -25 -0.947892 0 -1 0  255 255 255 255
-2.15754 -25 73.9206 0 -1 0  255 255 255 255
14.2078 -25 -56.7438 0 -1 0  255 255 255 255
21.2749 -25 -55.0849 0 -1 0  255 255 255 255
44.2607 -25 -67.1784 0 -1 0  255 255 255 255
-5.05577 -25 -39.6784 0 -1 0  255 255 255 255
52.4941 -25 0.531418 0 -1 0  255 255 255 255
43.7973 -25 -1.36009 0 -1 0  255 255 255 255
-21.575 -25 -55.3346 0 -1 0  255 255 255 255
-9.6313 -25 -38.8925 0 -1 0  255 255 255 255
38.5709 -25 2.07763 0 -1 0  255 255 255 255
-0.321599 -25 38.3507 0 -1 0  255 255 255 255
-23.1545 -25 -4.22415 0 -1 0  255 255 255 255
-50.0634 -25 31.0732 0 -1 0  255 255 255 255
5.69433 -25 -21.0698 0 -1 0  255 255 255 255
40.2715 -25 -1.17467 0 -1 0  255 255 255 255
-13.0506 -25 -71.4793 0 -1 0  255 255 255 255
13.6348 -25 -32.0124 0 -1 0  255 255 255 255
69.8425 -25 -57.4726 0 -1 0  255 255 255 255
-69.8425 -25 -57.4726 0 -1 0  255 255 255 255
17.6486 -25 32.1083 0 -1 0  255 255 255 255
-17.4337 -25 40.7339 0 -1 0  255 255 255 255
44.8039 -25 24.7089 0 -1 0  255 255 255 255
1.63804 -25 52.6498 0 -1 0  255 255 255 255
-44.2728 -25 -67.184 0 -1 0  255 255 255 255
13.2511 -25 -21.2041 0 -1 0  255 255 255 255
-13.6129 -25 32.0389 0 -1 0  255 255 255 255
-46.2414 -25 -44.7373 0 -1 0  255 255 255 255
-33.1797 -25 -14.8074 0 -1 0  255 255 255 255
29.198 -25 27.8672 0 -1 0  255 255 255 255
-15.5124 -25 31.0522 0 -1 0  255 255 255 255
-22.9337 -25 35.8978 0 -1 0  255 255 255 255
-51.8284 -25 16.4689 0 -1 0  255 255 255 255
31.624 -25 23.0016 0 -1 0  255 255 255 255
33.5093 -25 19.1661 0 -1 0  255 255 255 255
25.0482 -25 25.3704 0 -1 0  255 255 255 255
-69.7404 -25 57.4103 0 -1 0  255 255 255 255
69.7404 -25 57.4103 0 -1 0  255 255 255 255
18.9926 -25 -10.8717 0 -1 0  255 255 255 255
22.7482 -25 35.9033 0 -1 0  255 255 255 255
-3.67274 -25 -38.1798 0 -1 0  255 255 255 255
36.5847 -25 -1.07757 0 -1 0  255 255 255 255
9.38248 -25 65.5428 0 -1 0  255 255 255 255
67.901 -25 -10.9495 0 -1 0  255 255 255 255
-36.6978 -25 -1.0795 0 -1 0  255 255 255 255
23.9029 -25 66.0871 0 -1 0  255 255 255 255
-28.5602 -25 -21.413 0 -1 0  255 255 255 255
-48.4131 -25 20.5361 0 -1 0  255 255 255 255
-3.34738 -25 -48.798 0 -1 0  255 255 255 255
31.0488 -25 -22.3683 0 -1 0  255 255 255 255
-24.0229 -25 66.0116 0 -1 0  255 255 255 255
21.4798 -25 12.3034 0 -1 0  255 255 255 255
-9.53042 -25 -27.9661 0 -1 0  255 255 255 255
9.87419 -25 -28.1415 0 -1 0  255 255 255 255
31.6777 -25 8.94298 0 -1 0  255 255 255 255
-14.6347 -25 -58.6269 0 -1 0  255 255 255 255
45.6366 -25 58.0909 0 -1 0  255 255 255 255
19.6072 -25 -22.7465 0 -1 0  255 255 255 255
-47.7797 -25 -68.6221 0 -1 0  255 255 255 255
5.74806 -25 -49.4773 0 -1 0  255 255 255 255
32.9533 -25 12.9243 0 -1 0  255 255 255 255
7.68036 -25 -52.0125 0 -1 0  255 255 255 255
17.5467 -25 25.5528 0 -1 0  255 255 255 255
51.7581 -25 -16.4329 0 -1 0  255 255 255 255
-29.6668 -25 21.596 0 -1 0  255 255 255 255
4.20411 -25 39.0999 0 -1 0  255 255 255 255
15.4734 -25 -28.8696 0 -1 0  255 255 255 255
-67.8881 -25 10.9461 0 -1 0  255 255 255 255
30.9722 -25 18.0759 0 -1 0  255 255 255 255
-40.9015 -25 18.482 0 -1 0  255 255 255 255
46.2998 -25 -44.7874 0 -1 0  255 255 255 255
-31.2279 -25 -11.3764 0 -1 0  255 255 255 255
23.4101 -25 24.1856 0 -1 0  255 255 255 255
-14.4116 -25 52.7159 0 -1 0  255 255 255 255
-38.6391 -25 -2.10421 0 -1 0  255 255 255 255
-13.0785 -25 66.4761 0 -1 0  255 255 255 255
-72.823 -25 0.09441 0 -1 0  255 255 255 255
5.81428 -25 -64.6558 0 -1 0  255 255 255 255
4.2178 -25 35.3565 0 -1 0  255 255 255 255
-44.1591 -25 1.22876 0 -1 0  255 255 255 255
23.5314 -25 -38.1321 0 -1 0  255 255 255 255
35.2155 -25 -21.8968 0 -1 0  255 255 255 255
-66.5376 -25 4.71182 0 -1 0  255 255 255 255
42.0429 -25 -2.31296 0 -1 0  255 255 255 255
-44.7706 -25 -24.7537 0 -1 0  255 255 255 255
37.0245 -25 -12.7985 0 -1 0  255 255 255 255
-45.7129 -25 58.0926 0 -1 0  255 255 255 255
47.7738 -25 -68.6186 0 -1 0  255 255 255 255
-21.2708 -25 12.071 0 -1 0  255 255 255 255
64.2679 -25 -8.50942 0 -1 0  255 255 255 255
-29.2028 -25 -27.9171 0 -1 0  255 255 255 255
-45.8109 -25 4.48452 0 -1 0  255 255 255 255
72.8205 -25 -0.115314 0 -1 0  255 255 255 255
14.0437 -25 67.2766 0 -1 0  255 255 255 255
-6.88237 -25 39.0526 0 -1 0  255 255 255 255
-29.4207 -25 5.46524 0 -1 0  255 255 255 255
66.5307 -25 -4.74537 0 -1 0  255 255 255 255
-64.257 -25 8.49199 0 -1 0  255 255 255 255
-42.061 -25 2.18077 0 -1 0  255 255 255 255
56.0557 -25 -12.9454 0 -1 0  255 255 255 255
0.172343 -25 24.3036 0 -1 0  255 255 255 255
21.1789 -25 -39.1533 0 -1 0  255 255 255 255
21.9529 -25 -12.8802 0 -1 0  255 255 255 255
-29.9716 -25 -44.3699 0 -1 0  255 255 255 255
-20.9474 -25 -12.3912 0 -1 0  255 255 255 255
-34.9432 -25 -11.4415 0 -1 0  255 255 255 255
-15.6462 -25 28.9272 0 -1 0  255 255 255 255
31.1118 -25 -25.1716 0 -1 0  255 255 255 255
34.3546 -25 -54.6556 0 -1 0  255 255 255 255
34.9277 -25 22.2457 0 -1 0  255 255 255 255
36.3822 -25 -66.2759 0 -1 0  255 255 255 255
-36.4033 -25 -66.2814 0 -1 0  255 255 255 255
-29.5166 -25 -8.15503 0 -1 0  255 255 255 255
-15.6627 -25 -35.2473 0 -1 0  255 255 255 255
38.2714 -25 -4.29173 0 -1 0  255 255 255 255
-27.102 -25 -49.3669 0 -1 0  255 255 255 255
-37.7279 -25 -45.8404 0 -1 0  255 255 255 255
-34.3936 -25 -54.6747 0 -1 0  255 255 255 255
27.0681 -25 -49.3319 0 -1 0  255 255 255 255
17.4062 -25 -32.1037 0 -1 0  255 255 255 255
-10.6551 -25 -56.5921 0 -1 0  255 255 255 255
18.8314 -25 28.8804 0 -1 0  255 255 255 255
37.738 -25 -45.9171 0 -1 0  255 255 255 255
-5.78055 -25 32.6623 0 -1 0  255 255 255 255
-29.1283 -25 -5.01954 0 -1 0  255 255 255 255
52.688 -25 48.6867 0 -1 0  255 255 255 255
-32.7696 -25 1.12874 0 -1 0  255 255 255 255
21.4625 -25 21.1299 0 -1 0  255 255 255 255
45.0771 -25 -22.179 0 -1 0  255 255 255 255
-7.91702 -25 -58.9783 0 -1 0  255 255 255 255
-35.3203 -25 24.7273 0 -1 0  255 255 255 255
44.2773 -25 -26.3754 0 -1 0  255 255 255 255
-39.0554 -25 -14.9614 0 -1 0  255 255 255 255
36.4617 -25 -5.29791 0 -1 0  255 255 255 255
34.405 -25 63.3966 0 -1 0  255 255 255 255
-34.8504 -25 11.4143 0 -1 0  255 255 255 255
38.577 -25 -23.3465 0 -1 0  255 255 255 255
29.9531 -25 44.2018 0 -1 0  255 255 255 255
-15.5482 -25 -31.0172 0 -1 0  255 255 255 255
34.886 -25 66.3469 0 -1 0  255 255 255 255
29.3791 -25 7.94385 0 -1 0  255 255 255 255
43.4482 -25 -41.7915 0 -1 0  255 255 255 255
23.6385 -25 -22.4662 0 -1 0  255 255 255 255
-45.1025 -25 22.4307 0 -1 0  255 255 255 255
26.6216 -25 -31.7283 0 -1 0  255 255 255 255
-21.0057 -25 -28.2694 0 -1 0  255 255 255 255
15.4206 -25 35.2496 0 -1 0  255 255 255 255
-52.6738 -25 48.6831 0 -1 0  255 255 255 255
-50.6239 -25 -45.0259 0 -1 0  255 255 255 255
41.8893 -25 -56.8251 0 -1 0  255 255 255 255
-57.0047 -25 -12.6046 0 -1 0  255 255 255 255
48.1674 -25 26.6243 0 -1 0  255 255 255 255
19.9544 -25 -18.1945 0 -1 0  255 255 255 255
-43.4511 -25 -41.7493 0 -1 0  255 255 255 255
-36.924 -25 15.3455 0 -1 0  255 255 255 255
14.6243 -25 -58.6049 0 -1 0  255 255 255 255
-44.2563 -25 26.9178 0 -1 0  255 255 255 255
32.6919 -25 -1.16974 0 -1 0  255 255 255 255
38.3731 -25 -2.19574 0 -1 0  255 255 255 255
-34.5916 -25 63.3939 0 -1 0  255 255 255 255
23.1014 -25 -28.989 0 -1 0  255 255 255 255
50.6262 -25 -45.0247 0 -1 0  255 255 255 255
-10.916 -25 -52.9314 0 -1 0  255 255 255 255
41.3225 -25 59.7835 0 -1 0  255 255 255 255
-50.6903 -25 45.1382 0 -1 0  255 255 255 255
57.0049 -25 12.5851 0 -1 0  255 255 255 255
50.6948 -25 45.1424 0 -1 0  255 255 255 255
-26.9744 -25 2.16561 0 -1 0  255 255 255 255
-25.6681 -25 44.1173 0 -1 0  255 255 255 255
-56.0062 -25 12.7114 0 -1 0  255 255 255 255
-28.3048 -25 -51.4217 0 -1 0  255 255 255 255
28.2619 -25 -51.4023 0 -1 0  255 255 255 255
56.5958 -25 -54.2876 0 -1 0  255 255 255 255
36.6409 -25 -15.0188 0 -1 0  255 255 255 255
-56.5963 -25 -54.2874 0 -1 0  255 255 255 255
30.8098 -25 -2.30158 0 -1 0  255 255 255 255
-47.6664 -25 68.5799 0 -1 0  255 255 255 255
-53.0623 -25 22.7912 0 -1 0  255 255 255 255
-29.4889 -25 25.6636 0 -1 0  255 255 255 255
-29.9811 -25 44.2375 0 -1 0  255 255 255 255
53.2408 -25 -22.9442 0 -1 0  255 255 255 255
65.6798 -25 -0.043161 0 -1 0  255 255 255 255
40.3769 -25 0.915321 0 -1 0  255 255 255 255
-41.8984 -25 -56.8647 0 -1 0  255 255 255 255
-36.8181 -25 26.3924 0 -1 0  255 255 255 255
40.052 -25 -7.26437 0 -1 0  255 255 255 255
-21.0522 -25 -40.7629 0 -1 0  255 255 255 255
-23.4782 -25 61.2142 0 -1 0  255 255 255 255
14.4832 -25 61.229 0 -1 0  255 255 255 255
40.8707 -25 -18.6618 0 -1 0  255 255 255 255
-13.7628 -25 -38.6452 0 -1 0  255 255 255 255
-15.6053 -25 -37.5252 0 -1 0  255 255 255 255
-45.0193 -25 48.6049 0 -1 0  255 255 255 255
27.4639 -25 -24.513 0 -1 0  255 255 255 255
-46.2488 -25 -1.83458 0 -1 0  255 255 255 255
-65.6917 -25 0.004872 0 -1 0  255 255 255 255
38.685 -25 -11.1522 0 -1 0  255 255 255 255
-19.1976 -25 35.3304 0 -1 0  255 255 255 255
39.3258 -25 14.5106 0 -1 0  255 255 255 255
52.6057 -25 -9.79249 0 -1 0  255 255 255 255
-41.3874 -25 -47.0652 0 -1 0  255 255 255 255
39.2474 -25 44.9213 0 -1 0  255 255 255 255
7.5025 -25 -31.7942 0 -1 0  255 255 255 255
19.9981 -25 69.9365 0 -1 0  255 255 255 255
-51.0543 -25 -36.1452 0 -1 0  255 255 255 255
21.0173 -25 40.7191 0 -1 0  255 255 255 255
-19.1421 -25 -35.4438 0 -1 0  255 255 255 255
-19.9602 -25 69.9707 0 -1 0  255 255 255 255
64.1793 -25 13.2926 0 -1 0  255 255 255 255
30.71 -25 -4.34984 0 -1 0  255 255 255 255
-64.1765 -25 -13.3178 0 -1 0  255 255 255 255
13.742 -25 34.145 0 -1 0  255 255 255 255
15.4855 -25 -30.9869 0 -1 0  255 255 255 255
45.0037 -25 48.6132 0 -1 0  255 255 255 255
23.5083 -25 61.213 0 -1 0  255 255 255 255
-13.5449 -25 49.8836 0 -1 0  255 255 255 255
42.5727 -25 -24.1752 0 -1 0  255 255 255 255
41.3718 -25 -47.0622 0 -1 0  255 255 255 255
-33.1396 -25 12.6434 0 -1 0  255 255 255 255
-42.225 -25 24.1771 0 -1 0  255 255 255 255
51.0988 -25 35.9388 0 -1 0  255 255 255 255
25.6263 -25 44.0489 0 -1 0  255 255 255 255
17.3831 -25 34.2365 0 -1 0  255 255 255 255
-59.3792 -25 -9.06997 0 -1 0  255 255 255 255
-4.24821 -25 44.612 0 -1 0  255 255 255 255
21.7385 -25 -21.31 0 -1 0  255 255 255 255
70.6688 -25 15.3177 0 -1 0  255 255 255 255
-12.043 -25 28.8028 0 -1 0  255 255 255 255
-19.17 -25 22.3483 0 -1 0  255 255 255 255
-0.020795 -25 42.5837 0 -1 0  255 255 255 255
-10.2425 -25 31.8453 0 -1 0  255 255 255 255
-43.8466 -25 67.1951 0 -1 0  255 255 255 255
59.3698 -25 9.03959 0 -1 0  255 255 255 255
-70.7804 -25 -15.3256 0 -1 0  255 255 255 255
-39.2712 -25 44.8916 0 -1 0  255 255 255 255
-38.619 -25 30.0722 0 -1 0  255 255 255 255
25.185 -25 20.9552 0 -1 0  255 255 255 255
42.3417 -25 1.82185 0 -1 0  255 255 255 255
-55.2503 -25 -13.6507 0 -1 0  255 255 255 255
11.2606 -25 28.959 0 -1 0  255 255 255 255
13.5811 -25 50.1511 0 -1 0  255 255 255 255
-48.1454 -25 -26.5865 0 -1 0  255 255 255 255
16.4671 -25 47.4724 0 -1 0  255 255 255 255
40.0603 -25 -5.33839 0 -1 0  255 255 255 255
21.0426 -25 34.4853 0 -1 0  255 255 255 255
-59.3938 -25 10.9248 0 -1 0  255 255 255 255
-44.8496 -25 -48.7189 0 -1 0  255 255 255 255
55.2929 -25 13.6978 0 -1 0  255 255 255 255
-49.7246 -25 8.9587 0 -1 0  255 255 255 255
25.4563 -25 -21.3016 0 -1 0  255 255 255 255
44.8591 -25 -48.7965 0 -1 0  255 255 255 255
-11.9171 -25 30.8876 0 -1 0  255 255 255 255
-24.6883 -25 51.2365 0 -1 0  255 255 255 255
-52.678 -25 -48.9275 0 -1 0  255 255 255 255
52.675 -25 -48.9275 0 -1 0  255 255 255 255
-18.8764 -25 31.1466 0 -1 0  255 255 255 255
-31.2478 -25 66.79 0 -1 0  255 255 255 255
59.725 -25 -11.1096 0 -1 0  255 255 255 255
29.2904 -25 5.96909 0 -1 0  255 255 255 255
53.5286 -25 10.2187 0 -1 0  255 255 255 255
15.3335 -25 -35.1433 0 -1 0  255 255 255 255
-21.053 -25 25.5777 0 -1 0  255 255 255 255
44.2403 -25 56.2215 0 -1 0  255 255 255 255
31.1806 -25 11.3551 0 -1 0  255 255 255 255
-11.6401 -25 37.0427 0 -1 0  255 255 255 255
-13.6464 -25 -31.9835 0 -1 0  255 255 255 255
41.9683 -25 -4.38525 0 -1 0  255 255 255 255
47.1737 -25 -35.1665 0 -1 0  255 255 255 255
-0.062005 -25 -42.5756 0 -1 0  255 255 255 255
20.2135 -25 9.32936 0 -1 0  255 255 255 255
-55.1798 -25 -19.9482 0 -1 0  255 255 255 255
-45.9872 -25 2.38398 0 -1 0  255 255 255 255
55.3003 -25 20.1492 0 -1 0  255 255 255 255
59.2917 -25 -41.4033 0 -1 0  255 255 255 255
-59.2914 -25 -41.4033 0 -1 0  255 255 255 255
-21.1276 -25 40.6426 0 -1 0  255 255 255 255
23.7296 -25 29.5355 0 -1 0  255 255 255 255
-54.6758 -25 -23.5388 0 -1 0  255 255 255 255
49.597 -25 10.6602 0 -1 0  255 255 255 255
-53.6092 -25 -10.2311 0 -1 0  255 255 255 255
59.071 -25 -62.2868 0 -1 0  255 255 255 255
-59.0707 -25 -62.2864 0 -1 0  255 255 255 255
-16.7249 -25 -47.1103 0 -1 0  255 255 255 255
16.6138 -25 -47.406 0 -1 0  255 255 255 255
-4.03391 -25 -44.7928 0 -1 0  255 255 255 255
41.4884 -25 48.0443 0 -1 0  255 255 255 255
-19.1691 -25 -31.2799 0 -1 0  255 255 255 255
34.3991 -25 -4.27015 0 -1 0  255 255 255 255
-52.2307 -25 1.33391 0 -1 0  255 255 255 255
-34.6315 -25 -9.56851 0 -1 0  255 255 255 255
19.3234 -25 -31.1211 0 -1 0  255 255 255 255
57.4436 -25 5.13067 0 -1 0  255 255 255 255
13.6216 -25 38.6687 0 -1 0  255 255 255 255
-52.8865 -25 10.0249 0 -1 0  255 255 255 255
1.77557 -25 -41.1748 0 -1 0  255 255 255 255
63.1299 -25 -49.6562 0 -1 0  255 255 255 255
-63.1298 -25 -49.6562 0 -1 0  255 255 255 255
45.2011 -25 20.3515 0 -1 0  255 255 255 255
-41.4759 -25 47.999 0 -1 0  255 255 255 255
-44.229 -25 56.2005 0 -1 0  255 255 255 255
59.3574 -25 41.4248 0 -1 0  255 255 255 255
-59.3567 -25 41.4249 0 -1 0  255 255 255 255
-42.378 -25 -1.83737 0 -1 0  255 255 255 255
-5.23578 -25 61.7479 0 -1 0  255 255 255 255
-57.4322 -25 -5.12055 0 -1 0  255 255 255 255
-50.2792 -25 -30.8544 0 -1 0  255 255 255 255
24.6476 -25 51.238 0 -1 0  255 255 255 255
21.7579 -25 72.397 0 -1 0  255 255 255 255
-4.93543 -25 54.8107 0 -1 0  255 255 255 255
50.2773 -25 30.8578 0 -1 0  255 255 255 255
54.6813 -25 23.5101 0 -1 0  255 255 255 255
54.4056 -25 -26.5989 0 -1 0  255 255 255 255
34.898 -25 10.6776 0 -1 0  255 255 255 255
-5.57717 -25 -32.3125 0 -1 0  255 255 255 255
-38.0304 -25 2.68729 0 -1 0  255 255 255 255
-21.7611 -25 72.4003 0 -1 0  255 255 255 255
9.96331 -25 -52.2354 0 -1 0  255 255 255 255
-56.6195 -25 54.2793 0 -1 0  255 255 255 255
-58.445 -25 -0.775893 0 -1 0  255 255 255 255
-54.4002 -25 26.6015 0 -1 0  255 255 255 255
23.3723 -25 22.1244 0 -1 0  255 255 255 255
53.5128 -25 -45.403 0 -1 0  255 255 255 255
59.0341 -25 62.2218 0 -1 0  255 255 255 255
-59.0338 -25 62.2214 0 -1 0  255 255 255 255
45.0017 -25 -63.6712 0 -1 0  255 255 255 255
-22.9508 -25 -31.4674 0 -1 0  255 255 255 255
-53.5128 -25 -45.4022 0 -1 0  255 255 255 255
-47.1683 -25 35.1347 0 -1 0  255 255 255 255
-71.3326 -25 13.6185 0 -1 0  255 255 255 255
56.6227 -25 54.2781 0 -1 0  255 255 255 255
-45.0178 -25 -63.6877 0 -1 0  255 255 255 255
-55.5585 -25 -50.0683 0 -1 0  255 255 255 255
55.5565 -25 -50.0686 0 -1 0  255 255 255 255
15.914 -25 29.2886 0 -1 0  255 255 255 255
-45.4133 -25 9.25521 0 -1 0  255 255 255 255
71.2775 -25 -13.5915 0 -1 0  255 255 255 255
-10.7196 -25 52.4709 0 -1 0  255 255 255 255
-29.5613 -25 8.37686 0 -1 0  255 255 255 255
-26.974 -25 24.3788 0 -1 0  255 255 255 255
27.4689 -25 -61.9597 0 -1 0  255 255 255 255
-62.7766 -25 49.5622 0 -1 0  255 255 255 255
62.776 -25 49.5618 0 -1 0  255 255 255 255
55.7874 -25 6.93943 0 -1 0  255 255 255 255
-40.2497 -25 1.00581 0 -1 0  255 255 255 255
-21.1982 -25 34.4814 0 -1 0  255 255 255 255
-45.1865 -25 -20.3941 0 -1 0  255 255 255 255
-21.0729 -25 -34.5528 0 -1 0  255 255 255 255
-17.3912 -25 -34.3801 0 -1 0  255 255 255 255
-8.36501 -25 64.1546 0 -1 0  255 255 255 255
-27.517 -25 -61.9608 0 -1 0  255 255 255 255
-55.8135 -25 -6.97309 0 -1 0  255 255 255 255
-13.4541 -25 34.0735 0 -1 0  255 255 255 255
17.3846 -25 -50.6149 0 -1 0  255 255 255 255
-51.3642 -25 -0.903722 0 -1 0  255 255 255 255
-16.7994 -25 47.1753 0 -1 0  255 255 255 255
-51.2273 -25 36.0025 0 -1 0  255 255 255 255
-34.072 -25 58.3674 0 -1 0  255 255 255 255
67.6305 -25 28.8162 0 -1 0  255 255 255 255
7.7926 -25 -38.9894 0 -1 0  255 255 255 255
34.1857 -25 -51.9508 0 -1 0  255 255 255 255
-67.7338 -25 14.4355 0 -1 0  255 255 255 255
66.8741 -25 -50.4384 0 -1 0  255 255 255 255
-66.8741 -25 -50.4384 0 -1 0  255 255 255 255
41.4682 -25 -64.2773 0 -1 0  255 255 255 255
34.0966 -25 58.3467 0 -1 0  255 255 255 255
67.734 -25 -14.4488 0 -1 0  255 255 255 255
51.2358 -25 -36.0039 0 -1 0  255 255 255 255
38.0864 -25 -31.5088 0 -1 0  255 255 255 255
-36.3809 -25 5.58059 0 -1 0  255 255 255 255
33.3579 -25 50.9148 0 -1 0  255 255 255 255
-41.4843 -25 -64.289 0 -1 0  255 255 255 255
7.12825 -25 52.4548 0 -1 0  255 255 255 255
-45.0183 -25 63.4566 0 -1 0  255 255 255 255
-33.3833 -25 50.9471 0 -1 0  255 255 255 255
15.4875 -25 41.67 0 -1 0  255 255 255 255
9.42455 -25 55.9102 0 -1 0  255 255 255 255
-67.6298 -25 -28.8211 0 -1 0  255 255 255 255
27.8223 -25 -34.9676 0 -1 0  255 255 255 255
55.6596 -25 50.0491 0 -1 0  255 255 255 255
13.3143 -25 46.7654 0 -1 0  255 255 255 255
64.752 -25 18.7582 0 -1 0  255 255 255 255
-39.9933 -25 7.36093 0 -1 0  255 255 255 255
-63.808 -25 13.1938 0 -1 0  255 255 255 255
-55.6518 -25 50.049 0 -1 0  255 255 255 255
-38.1007 -25 -31.5045 0 -1 0  255 255 255 255
34.9858 -25 8.85398 0 -1 0  255 255 255 255
68.4155 -25 14.6234 0 -1 0  255 255 255 255
-68.4217 -25 -14.6466 0 -1 0  255 255 255 255
-38.2549 -25 8.76182 0 -1 0  255 255 255 255
28.7299 -25 51.4945 0 -1 0  255 255 255 255
66.9273 -25 50.3861 0 -1 0  255 255 255 255
-66.9273 -25 50.3861 0 -1 0  255 255 255 255
-64.7519 -25 -18.779 0 -1 0  255 255 255 255
-28.7735 -25 51.5558 0 -1 0  255 255 255 255
-34.2094 -25 -51.9613 0 -1 0  255 255 255 255
57.9874 -25 1.19834 0 -1 0  255 255 255 255
-2.82792 -25 51.8684 0 -1 0  255 255 255 255
7.97898 -25 -28.9006 0 -1 0  255 255 255 255
47.7929 -25 68.6646 0 -1 0  255 255 255 255
-4.73278 -25 -69.1383 0 -1 0  255 255 255 255
63.8573 -25 -13.2385 0 -1 0  255 255 255 255
-31.2756 -25 9.44248 0 -1 0  255 255 255 255
-48.0384 -25 -13.4406 0 -1 0  255 255 255 255
-0.772027 -25 -56.6735 0 -1 0  255 255 255 255
38.0827 -25 31.5089 0 -1 0  255 255 255 255
48.5282 -25 -27.2571 0 -1 0  255 255 255 255
-21.3206 -25 -24.9879 0 -1 0  255 255 255 255
-38.4669 -25 23.1509 0 -1 0  255 255 255 255
-24.7821 -25 -32.706 0 -1 0  255 255 255 255
36.0508 -25 60.3191 0 -1 0  255 255 255 255
13.154 -25 31.546 0 -1 0  255 255 255 255
38.7061 -25 22.5869 0 -1 0  255 255 255 255
-13.3376 -25 -27.9125 0 -1 0  255 255 255 255
-48.5343 -25 27.2363 0 -1 0  255 255 255 255
11.9616 -25 -37.2993 0 -1 0  255 255 255 255
-23.6771 -25 24.4498 0 -1 0  255 255 255 255
1.65443 -25 41.262 0 -1 0  255 255 255 255
49.2105 -25 -9.44209 0 -1 0  255 255 255 255
-41.2933 -25 66.7623 0 -1 0  255 255 255 255
-19.1194 -25 -37.541 0 -1 0  255 255 255 255
17.257 -25 -34.014 0 -1 0  255 255 255 255
-47.3144 -25 16.7914 0 -1 0  255 255 255 255
12.3319 -25 -68.8783 0 -1 0  255 255 255 255
35.5561 -25 -62.1771 0 -1 0  255 255 255 255
-11.454 -25 61.9292 0 -1 0  255 255 255 255
69.466 -25 7.4761 0 -1 0  255 255 255 255
38.4795 -25 54.442 0 -1 0  255 255 255 255
35.0221 -25 -11.648 0 -1 0  255 255 255 255
-5.82403 -25 -64.4541 0 -1 0  255 255 255 255
34.4643 -25 -47.6678 0 -1 0  255 255 255 255
56.0634 -25 -21.0168 0 -1 0  255 255 255 255
-9.79144 -25 -31.7195 0 -1 0  255 255 255 255
-39.3701 -25 -51.903 0 -1 0  255 255 255 255
-12.3183 -25 -68.6988 0 -1 0  255 255 255 255
-27.5668 -25 68.045 0 -1 0  255 255 255 255
39.5454 -25 26.508 0 -1 0  255 255 255 255
-17.3395 -25 34.2383 0 -1 0  255 255 255 255
39.3479 -25 -51.8936 0 -1 0  255 255 255 255
69.52 -25 -0.141046 0 -1 0  255 255 255 255
-35.5839 -25 -62.1874 0 -1 0  255 255 255 255
1.60342 -25 -52.8132 0 -1 0  255 255 255 255
-18.6323 -25 74.0153 0 -1 0  255 255 255 255
-34.4932 -25 -47.7209 0 -1 0  255 255 255 255
28.2088 -25 -38.4075 0 -1 0  255 255 255 255
18.6347 -25 74.0161 0 -1 0  255 255 255 255
-69.5243 -25 0.116542 0 -1 0  255 255 255 255
27.4702 -25 68.0369 0 -1 0  255 255 255 255
-69.4674 -25 -7.50721 0 -1 0  255 255 255 255
-47.2078 -25 43.1742 0 -1 0  255 255 255 255
-41.0159 -25 -54.9514 0 -1 0  255 255 255 255
-41.3789 -25 -33.1781 0 -1 0  255 255 255 255
-13.4098 -25 -45.9295 0 -1 0  255 255 255 255
40.5602 -25 7.3287 0 -1 0  255 255 255 255
12.9869 -25 27.9118 0 -1 0  255 255 255 255
-54.7056 -25 -38.275 0 -1 0  255 255 255 255
54.7062 -25 -38.2749 0 -1 0  255 255 255 255
53.0211 -25 70.2511 0 -1 0  255 255 255 255
-17.4672 -25 -50.3183 0 -1 0  255 255 255 255
-0.390273 -25 56.8355 0 -1 0  255 255 255 255
19.0258 -25 37.4553 0 -1 0  255 255 255 255
20.0599 -25 -37.4181 0 -1 0  255 255 255 255
26.5246 -25 36.1258 0 -1 0  255 255 255 255
-41.9135 -25 4.23342 0 -1 0  255 255 255 255
-40.567 -25 -7.35754 0 -1 0  255 255 255 255
20.9647 -25 -69.7492 0 -1 0  255 255 255 255
47.2121 -25 43.1987 0 -1 0  255 255 255 255
44.1047 -25 67.3016 0 -1 0  255 255 255 255
-31.2499 -25 11.6094 0 -1 0  255 255 255 255
6.04918 -25 58.3984 0 -1 0  255 255 255 255
44.2227 -25 63.1064 0 -1 0  255 255 255 255
-37.591 -25 56.0529 0 -1 0  255 255 255 255
10.8707 -25 -31.1889 0 -1 0  255 255 255 255
41.3752 -25 33.1621 0 -1 0  255 255 255 255
41.0123 -25 -54.9111 0 -1 0  255 255 255 255
-26.9576 -25 -36.2198 0 -1 0  255 255 255 255
-54.7059 -25 38.2749 0 -1 0  255 255 255 255
54.7066 -25 38.2748 0 -1 0  255 255 255 255
53.4481 -25 4.3049 0 -1 0  255 255 255 255
-53.0258 -25 70.2559 0 -1 0  255 255 255 255
-56.1319 -25 20.6831 0 -1 0  255 255 255 255
-37.8403 -25 66.3495 0 -1 0  255 255 255 255
5.21222 -25 62.0892 0 -1 0  255 255 255 255
7.29166 -25 38.0831 0 -1 0  255 255 255 255
13.5455 -25 -33.8936 0 -1 0  255 255 255 255
-34.6914 -25 -29.3602 0 -1 0  255 255 255 255
23.2547 -25 -24.4086 0 -1 0  255 255 255 255
-17.8097 -25 -28.4665 0 -1 0  255 255 255 255
44.0212 -25 0.725844 0 -1 0  255 255 255 255
72.5229 -25 -7.93187 0 -1 0  255 255 255 255
-10.0448 -25 66.8648 0 -1 0  255 255 255 255
52.8543 -25 -70.213 0 -1 0  255 255 255 255
26.5992 -25 -68.2197 0 -1 0  255 255 255 255
60.7029 -25 -58.6889 0 -1 0  255 255 255 255
-60.7029 -25 -58.6889 0 -1 0  255 255 255 255
41.9952 -25 63.4988 0 -1 0  255 255 255 255
-44.2334 -25 -0.805322 0 -1 0  255 255 255 255
-19.144 -25 37.5073 0 -1 0  255 255 255 255
47.1697 -25 -16.815 0 -1 0  255 255 255 255
-72.5199 -25 7.90761 0 -1 0  255 255 255 255
12.5202 -25 60.6693 0 -1 0  255 255 255 255
19.139 -25 35.3951 0 -1 0  255 255 255 255
4.02527 -25 -69.161 0 -1 0  255 255 255 255
-52.8576 -25 -70.2173 0 -1 0  255 255 255 255
38.1412 -25 -9.39605 0 -1 0  255 255 255 255
49.3407 -25 -23.4875 0 -1 0  255 255 255 255
34.6871 -25 29.3825 0 -1 0  255 255 255 255
67.7184 -25 -43.663 0 -1 0  255 255 255 255
-67.7184 -25 -43.663 0 -1 0  255 255 255 255
7.96624 -25 58.9037 0 -1 0  255 255 255 255
-49.3644 -25 23.4873 0 -1 0  255 255 255 255
-11.0277 -25 -29.0283 0 -1 0  255 255 255 255
7.65729 -25 -35.8809 0 -1 0  255 255 255 255
-34.6976 -25 29.421 0 -1 0  255 255 255 255
26.9083 -25 28.1547 0 -1 0  255 255 255 255
-67.7207 -25 43.6624 0 -1 0  255 255 255 255
67.7207 -25 43.6624 0 -1 0  255 255 255 255
59.6406 -25 -48.701 0 -1 0  255 255 255 255
11.9484 -25 37.5552 0 -1 0  255 255 255 255
-26.6129 -25 -68.2288 0 -1 0  255 255 255 255
2.87121 -25 -46.9117 0 -1 0  255 255 255 255
-59.6409 -25 -48.7012 0 -1 0  255 255 255 255
-47.2133 -25 -43.0234 0 -1 0  255 255 255 255
-24.0544 -25 -46.5543 0 -1 0  255 255 255 255
57.0883 -25 -11.1691 0 -1 0  255 255 255 255
-53.6462 -25 45.313 0 -1 0  255 255 255 255
-10.7533 -25 -37.4688 0 -1 0  255 255 255 255
-41.7725 -25 63.2073 0 -1 0  255 255 255 255
31.4103 -25 67.0586 0 -1 0  255 255 255 255
-53.5122 -25 -4.42945 0 -1 0  255 255 255 255
24.0282 -25 -50.8797 0 -1 0  255 255 255 255
58.9144 -25 -50.7846 0 -1 0  255 255 255 255
44.992 -25 41.4684 0 -1 0  255 255 255 255
-58.9149 -25 -50.7849 0 -1 0  255 255 255 255
-26.5893 -25 36.1258 0 -1 0  255 255 255 255
27.8393 -25 24.6689 0 -1 0  255 255 255 255
-27.1171 -25 -24.5652 0 -1 0  255 255 255 255
-11.6501 -25 -49.2853 0 -1 0  255 255 255 255
15.4582 -25 -67.5999 0 -1 0  255 255 255 255
-39.5788 -25 -26.5204 0 -1 0  255 255 255 255
53.6489 -25 45.3045 0 -1 0  255 255 255 255
21.1695 -25 -26.0121 0 -1 0  255 255 255 255
24.2083 -25 -46.6759 0 -1 0  255 255 255 255
19.8158 -25 24.0795 0 -1 0  255 255 255 255
-35.151 -25 -45.6474 0 -1 0  255 255 255 255
-15.4025 -25 -41.6633 0 -1 0  255 255 255 255
26.4078 -25 49.2641 0 -1 0  255 255 255 255
50.5124 -25 -64.0383 0 -1 0  255 255 255 255
-60.7028 -25 58.6889 0 -1 0  255 255 255 255
60.7028 -25 58.6889 0 -1 0  255 255 255 255
-50.522 -25 -64.0452 0 -1 0  255 255 255 255
-10.4737 -25 74.1366 0 -1 0  255 255 255 255
-29.0899 -25 -25.197 0 -1 0  255 255 255 255
41.755 -25 30.2637 0 -1 0  255 255 255 255
-38.1046 -25 4.51726 0 -1 0  255 255 255 255
10.604 -25 74.0702 0 -1 0  255 255 255 255
47.2227 -25 -43.037 0 -1 0  255 255 255 255
44.7824 -25 -19.6175 0 -1 0  255 255 255 255
-44.9881 -25 41.4324 0 -1 0  255 255 255 255
-9.26303 -25 28.0599 0 -1 0  255 255 255 255
48.635 -25 -46.5422 0 -1 0  255 255 255 255
-48.6418 -25 -46.5434 0 -1 0  255 255 255 255
-33.0109 -25 6.15568 0 -1 0  255 255 255 255
15.6768 -25 -41.7889 0 -1 0  255 255 255 255
48.6671 -25 46.6214 0 -1 0  255 255 255 255
18.9346 -25 -43.9468 0 -1 0  255 255 255 255
47.5217 -25 16.3205 0 -1 0  255 255 255 255
-26.3802 -25 49.3781 0 -1 0  255 255 255 255
-57.2324 -25 10.885 0 -1 0  255 255 255 255
-21.0984 -25 -69.719 0 -1 0  255 255 255 255
-13.5003 -25 45.9708 0 -1 0  255 255 255 255
32.0727 -25 -28.1246 0 -1 0  255 255 255 255
-5.82946 -25 -57.9879 0 -1 0  255 255 255 255
-48.6714 -25 46.6101 0 -1 0  255 255 255 255
-58.5707 -25 21.7556 0 -1 0  255 255 255 255
-49.5139 -25 -10.5452 0 -1 0  255 255 255 255
37.5624 -25 56.4516 0 -1 0  255 255 255 255
35.2851 -25 -45.8072 0 -1 0  255 255 255 255
-44.8374 -25 19.5409 0 -1 0  255 255 255 255
45.6757 -25 -4.63501 0 -1 0  255 255 255 255
58.5353 -25 -21.6769 0 -1 0  255 255 255 255
24.4644 -25 -32.8272 0 -1 0  255 255 255 255
7.55163 -25 35.4152 0 -1 0  255 255 255 255
-7.64765 -25 -36.4413 0 -1 0  255 255 255 255
13.9377 -25 -39.0801 0 -1 0  255 255 255 255
-35.6282 -25 59.8363 0 -1 0  255 255 255 255
-15.4714 -25 -67.7069 0 -1 0  255 255 255 255
62.5209 -25 -21.8316 0 -1 0  255 255 255 255
47.6317 -25 14.2667 0 -1 0  255 255 255 255
0.329366 -25 -48.8359 0 -1 0  255 255 255 255
12.7765 -25 53.9414 0 -1 0  255 255 255 255
-24.6704 -25 32.7312 0 -1 0  255 255 255 255
-47.583 -25 -16.5045 0 -1 0  255 255 255 255
62.2433 -25 -65.2034 0 -1 0  255 255 255 255
-62.2433 -25 -65.2034 0 -1 0  255 255 255 255
