ply
format ascii 1.0
comment VCGLIB generated
element vertex 1134
property float x
property float y
property float z
property float nx
property float ny
property float nz
property uchar red
property uchar green
property uchar blue
property uchar alpha
element face 0
property list uchar int vertex_indices
end_header
13.1985 0 -1.21698 0 1 0  255 255 255 255
-13.1985 0 -1.21698 0 1 0  255 255 255 255
-13.2209 0 1.22432 0 1 0  255 255 255 255
13.2209 0 1.22432 0 1 0  255 255 255 255
-10.6863 0 -10.2536 0 1 0  255 255 255 255
10.6863 0 -10.2536 0 1 0  255 255 255 255
5.36515 0 -13.8007 0 1 0  255 255 255 255
-5.36515 0 -13.8007 0 1 0  255 255 255 255
6.20802 0 -11.7114 0 1 0  255 255 255 255
-6.20802 0 -11.7114 0 1 0  255 255 255 255
-8.45727 0 -10.181 0 1 0  255 255 255 255
8.45727 0 -10.181 0 1 0  255 255 255 255
12.6422 0 3.91739 0 1 0  255 255 255 255
-12.6422 0 3.91739 0 1 0  255 255 255 255
-1.21876 0 13.1789 0 1 0  255 255 255 255
1.21876 0 13.1789 0 1 0  255 255 255 255
-11.7053 0 6.18644 0 1 0  255 255 255 255
11.7053 0 6.18644 0 1 0  255 255 255 255
10.1953 0 -8.44715 0 1 0  255 255 255 255
-10.1953 0 -8.44715 0 1 0  255 255 255 255
3.90282 0 -12.6524 0 1 0  255 255 255 255
-3.90282 0 -12.6524 0 1 0  255 255 255 255
-0.744541 0 -14.135 0 1 0  255 255 255 255
13.3423 0 -4.72085 0 1 0  255 255 255 255
-13.3423 0 -4.72085 0 1 0  255 255 255 255
-9.46581 0 10.5181 0 1 0  255 255 255 255
9.46581 0 10.5181 0 1 0  255 255 255 255
-6.09424 0 12.7678 0 1 0  255 255 255 255
6.09424 0 12.7678 0 1 0  255 255 255 255
-14.1259 0 -0.74443 0 1 0  255 255 255 255
14.1259 0 -0.74443 0 1 0  255 255 255 255
-7.54613 0 11.8772 0 1 0  255 255 255 255
7.54613 0 11.8772 0 1 0  255 255 255 255
-8.0802 0 -11.5121 0 1 0  255 255 255 255
8.0802 0 -11.5121 0 1 0  255 255 255 255
13.844 0 -2.44473 0 1 0  255 255 255 255
-13.844 0 -2.44473 0 1 0  255 255 255 255
13.7268 0 3.05836 0 1 0  255 255 255 255
-13.7268 0 3.05836 0 1 0  255 255 255 255
3.05965 0 -13.7303 0 1 0  255 255 255 255
-3.05965 0 -13.7303 0 1 0  255 255 255 255
2.42569 0 13.8537 0 1 0  255 255 255 255
-2.42569 0 13.8537 0 1 0  255 255 255 255
11.5131 0 -8.08083 0 1 0  255 255 255 255
-11.5131 0 -8.08083 0 1 0  255 255 255 255
-11.853 0 7.55466 0 1 0  255 255 255 255
11.853 0 7.55466 0 1 0  255 255 255 255
14.721 0 1.81282 0 1 0  255 255 255 255
-14.721 0 1.81282 0 1 0  255 255 255 255
3.88295 0 14.2796 0 1 0  255 255 255 255
-3.88295 0 14.2796 0 1 0  255 255 255 255
-11.6939 0 9.04323 0 1 0  255 255 255 255
11.6939 0 9.04323 0 1 0  255 255 255 255
12.8129 0 -7.32622 0 1 0  255 255 255 255
-12.8129 0 -7.32622 0 1 0  255 255 255 255
1.85854 0 -14.6419 0 1 0  255 255 255 255
-6.61635 0 9.3287 0 1 0  255 255 255 255
6.05117 0 9.70257 0 1 0  255 255 255 255
6.61635 0 9.3287 0 1 0  255 255 255 255
-6.05117 0 9.70257 0 1 0  255 255 255 255
11.1505 0 -2.54267 0 1 0  255 255 255 255
-11.2795 0 -1.87738 0 1 0  255 255 255 255
11.2795 0 -1.87738 0 1 0  255 255 255 255
-11.1505 0 -2.54267 0 1 0  255 255 255 255
-2.58208 0 -11.1392 0 1 0  255 255 255 255
2.58208 0 -11.1392 0 1 0  255 255 255 255
-1.91796 0 -11.2746 0 1 0  255 255 255 255
1.91796 0 -11.2746 0 1 0  255 255 255 255
-9.30299 0 -6.6483 0 1 0  255 255 255 255
9.6822 0 -6.08645 0 1 0  255 255 255 255
9.30299 0 -6.6483 0 1 0  255 255 255 255
-9.6822 0 -6.08645 0 1 0  255 255 255 255
9.32822 0 6.61591 0 1 0  255 255 255 255
-9.70228 0 6.05053 0 1 0  255 255 255 255
-9.32822 0 6.61591 0 1 0  255 255 255 255
9.70228 0 6.05053 0 1 0  255 255 255 255
2.54253 0 11.1498 0 1 0  255 255 255 255
-1.87699 0 11.2791 0 1 0  255 255 255 255
-2.54253 0 11.1498 0 1 0  255 255 255 255
1.87699 0 11.2791 0 1 0  255 255 255 255
-11.1388 0 2.58223 0 1 0  255 255 255 255
11.1388 0 2.58223 0 1 0  255 255 255 255
11.274 0 1.91784 0 1 0  255 255 255 255
-11.274 0 1.91784 0 1 0  255 255 255 255
6.64829 0 -9.30267 0 1 0  255 255 255 255
-6.08618 0 -9.68184 0 1 0  255 255 255 255
6.08618 0 -9.68184 0 1 0  255 255 255 255
-6.64829 0 -9.30267 0 1 0  255 255 255 255
0.442078 0 -13.4631 0 1 0  255 255 255 255
-12.2685 0 -5.55996 0 1 0  255 255 255 255
12.2685 0 -5.55996 0 1 0  255 255 255 255
-9.83078 0 9.20626 0 1 0  255 255 255 255
9.83078 0 9.20626 0 1 0  255 255 255 255
4.37733 0 -13.5932 0 1 0  255 255 255 255
-4.37733 0 -13.5932 0 1 0  255 255 255 255
-4.74262 0 12.6039 0 1 0  255 255 255 255
4.74262 0 12.6039 0 1 0  255 255 255 255
-10.877 0 -9.24406 0 1 0  255 255 255 255
10.877 0 -9.24406 0 1 0  255 255 255 255
-13.4581 0 0.441813 0 1 0  255 255 255 255
13.4581 0 0.441813 0 1 0  255 255 255 255
12.7016 0 6.51021 0 1 0  255 255 255 255
-12.7016 0 6.51021 0 1 0  255 255 255 255
-1.15826 0 14.2356 0 1 0  255 255 255 255
1.15826 0 14.2356 0 1 0  255 255 255 255
13.5944 0 4.37851 0 1 0  255 255 255 255
-13.5944 0 4.37851 0 1 0  255 255 255 255
6.53186 0 -12.7126 0 1 0  255 255 255 255
-6.53186 0 -12.7126 0 1 0  255 255 255 255
-9.25451 0 -10.8911 0 1 0  255 255 255 255
9.25451 0 -10.8911 0 1 0  255 255 255 255
-14.7779 0 1.00743 0 1 0  255 255 255 255
14.7779 0 1.00743 0 1 0  255 255 255 255
1.08378 0 -14.8136 0 1 0  255 255 255 255
4.67668 0 14.0017 0 1 0  255 255 255 255
-4.67668 0 14.0017 0 1 0  255 255 255 255
-13.2644 0 -6.67801 0 1 0  255 255 255 255
13.2644 0 -6.67801 0 1 0  255 255 255 255
11.8046 0 -9.18878 0 1 0  255 255 255 255
-11.8046 0 -9.18878 0 1 0  255 255 255 255
-11.2463 0 9.6934 0 1 0  255 255 255 255
11.2463 0 9.6934 0 1 0  255 255 255 255
-13.0083 0 7.37731 0 1 0  255 255 255 255
13.0083 0 7.37731 0 1 0  255 255 255 255
-3.9575 0 -14.428 0 1 0  255 255 255 255
3.9575 0 -14.428 0 1 0  255 255 255 255
1.02954 0 -14.2601 0 1 0  255 255 255 255
-1.82786 0 14.8379 0 1 0  255 255 255 255
1.82786 0 14.8379 0 1 0  255 255 255 255
-12.7779 0 -6.4091 0 1 0  255 255 255 255
12.7779 0 -6.4091 0 1 0  255 255 255 255
14.4328 0 3.9431 0 1 0  255 255 255 255
-14.4328 0 3.9431 0 1 0  255 255 255 255
-14.2401 0 1.0195 0 1 0  255 255 255 255
14.2401 0 1.0195 0 1 0  255 255 255 255
-10.8101 0 9.35074 0 1 0  255 255 255 255
10.8101 0 9.35074 0 1 0  255 255 255 255
-4.50632 0 13.5477 0 1 0  255 255 255 255
4.50632 0 13.5477 0 1 0  255 255 255 255
-9.10396 0 -11.7351 0 1 0  255 255 255 255
9.10396 0 -11.7351 0 1 0  255 255 255 255
-7.39501 0 -12.8503 0 1 0  255 255 255 255
7.39501 0 -12.8503 0 1 0  255 255 255 255
11.8441 0 -4.40449 0 1 0  255 255 255 255
-11.8441 0 -4.40449 0 1 0  255 255 255 255
0.451364 0 -12.6387 0 1 0  255 255 255 255
-0.462996 0 -12.6278 0 1 0  255 255 255 255
-8.6017 0 9.25696 0 1 0  255 255 255 255
8.6017 0 9.25696 0 1 0  255 255 255 255
-11.5039 0 -5.25313 0 1 0  255 255 255 255
11.5039 0 -5.25313 0 1 0  255 255 255 255
-5.26025 0 11.4892 0 1 0  255 255 255 255
5.26025 0 11.4892 0 1 0  255 255 255 255
-12.6275 0 -0.462749 0 1 0  255 255 255 255
12.6275 0 -0.462749 0 1 0  255 255 255 255
9.25518 0 8.61803 0 1 0  255 255 255 255
-9.25518 0 8.61803 0 1 0  255 255 255 255
4.42043 0 11.8484 0 1 0  255 255 255 255
-4.42043 0 11.8484 0 1 0  255 255 255 255
12.638 0 0.449999 0 1 0  255 255 255 255
-12.638 0 0.449999 0 1 0  255 255 255 255
4.68564 0 -14.1465 0 1 0  255 255 255 255
-4.68564 0 -14.1465 0 1 0  255 255 255 255
11.2742 0 -9.73561 0 1 0  255 255 255 255
-11.2742 0 -9.73561 0 1 0  255 255 255 255
6.03152 0 -12.7674 0 1 0  255 255 255 255
-6.03152 0 -12.7674 0 1 0  255 255 255 255
-13.3032 0 6.69163 0 1 0  255 255 255 255
13.3032 0 6.69163 0 1 0  255 255 255 255
9.48855 0 -10.4555 0 1 0  255 255 255 255
-9.48855 0 -10.4555 0 1 0  255 255 255 255
-13.2883 0 4.76476 0 1 0  255 255 255 255
13.2883 0 4.76476 0 1 0  255 255 255 255
-1.11817 0 14.7788 0 1 0  255 255 255 255
1.05937 0 14.8332 0 1 0  255 255 255 255
-0.687078 0 14.0691 0 1 0  255 255 255 255
0.682848 0 14.0999 0 1 0  255 255 255 255
-14.1049 0 4.70608 0 1 0  255 255 255 255
14.1049 0 4.70608 0 1 0  255 255 255 255
-12.7589 0 6.02528 0 1 0  255 255 255 255
12.7589 0 6.02528 0 1 0  255 255 255 255
-10.4487 0 -9.48176 0 1 0  255 255 255 255
10.4487 0 -9.48176 0 1 0  255 255 255 255
-4.76151 0 -13.2825 0 1 0  255 255 255 255
4.76151 0 -13.2825 0 1 0  255 255 255 255
-9.72149 0 -11.2749 0 1 0  255 255 255 255
9.72149 0 -11.2749 0 1 0  255 255 255 255
-6.76854 0 -13.2413 0 1 0  255 255 255 255
6.76854 0 -13.2413 0 1 0  255 255 255 255
-13.8703 0 -5.3993 0 1 0  255 255 255 255
13.8703 0 -5.3993 0 1 0  255 255 255 255
10.3678 0 10.6914 0 1 0  255 255 255 255
-10.3678 0 10.6914 0 1 0  255 255 255 255
-0.334107 0 -14.8837 0 1 0  255 255 255 255
5.96742 0 13.6246 0 1 0  255 255 255 255
-5.96742 0 13.6246 0 1 0  255 255 255 255
-14.1844 0 -4.70774 0 1 0  255 255 255 255
14.1844 0 -4.70774 0 1 0  255 255 255 255
14.8677 0 -0.290828 0 1 0  255 255 255 255
-14.8677 0 -0.290828 0 1 0  255 255 255 255
9.78645 0 11.2932 0 1 0  255 255 255 255
-9.78645 0 11.2932 0 1 0  255 255 255 255
-1.09078 0 -14.906 0 1 0  255 255 255 255
-6.67613 0 13.368 0 1 0  255 255 255 255
6.67613 0 13.368 0 1 0  255 255 255 255
-12.4616 0 -4.66441 0 1 0  255 255 255 255
12.4616 0 -4.66441 0 1 0  255 255 255 255
-0.459497 0 -13.2969 0 1 0  255 255 255 255
9.07806 0 9.72806 0 1 0  255 255 255 255
-9.07806 0 9.72806 0 1 0  255 255 255 255
-0.402717 0 13.286 0 1 0  255 255 255 255
0.406015 0 13.282 0 1 0  255 255 255 255
-14.9053 0 -1.04282 0 1 0  255 255 255 255
14.9053 0 -1.04282 0 1 0  255 255 255 255
-5.51293 0 12.1082 0 1 0  255 255 255 255
5.51293 0 12.1082 0 1 0  255 255 255 255
12.4245 0 4.71569 0 1 0  255 255 255 255
-12.4245 0 4.71569 0 1 0  255 255 255 255
12.1142 0 5.45739 0 1 0  255 255 255 255
-12.1142 0 5.45739 0 1 0  255 255 255 255
13.2952 0 -0.458591 0 1 0  255 255 255 255
-13.2952 0 -0.458591 0 1 0  255 255 255 255
-9.11096 0 -9.67356 0 1 0  255 255 255 255
9.11096 0 -9.67356 0 1 0  255 255 255 255
9.67714 0 -9.10292 0 1 0  255 255 255 255
-9.67714 0 -9.10292 0 1 0  255 255 255 255
-5.45039 0 -12.1189 0 1 0  255 255 255 255
5.45039 0 -12.1189 0 1 0  255 255 255 255
4.71453 0 -12.4171 0 1 0  255 255 255 255
-4.71453 0 -12.4171 0 1 0  255 255 255 255
-12.5145 0 8.21295 0 1 0  255 255 255 255
12.5145 0 8.21295 0 1 0  255 255 255 255
0.27303 0 -14.2904 0 1 0  255 255 255 255
-13.0952 0 -5.72173 0 1 0  255 255 255 255
13.0952 0 -5.72173 0 1 0  255 255 255 255
12.3948 0 -8.40388 0 1 0  255 255 255 255
-12.3948 0 -8.40388 0 1 0  255 255 255 255
-10.2943 0 9.90954 0 1 0  255 255 255 255
10.2943 0 9.90954 0 1 0  255 255 255 255
5.22144 0 13.3024 0 1 0  255 255 255 255
-5.22144 0 13.3024 0 1 0  255 255 255 255
14.2846 0 0.265103 0 1 0  255 255 255 255
-14.2846 0 0.265103 0 1 0  255 255 255 255
-2.79626 0 14.6958 0 1 0  255 255 255 255
2.79626 0 14.6958 0 1 0  255 255 255 255
3.00827 0 -14.7116 0 1 0  255 255 255 255
-3.00827 0 -14.7116 0 1 0  255 255 255 255
14.5951 0 3.15238 0 1 0  255 255 255 255
-14.5951 0 3.15238 0 1 0  255 255 255 255
-14.7046 0 -2.88059 0 1 0  255 255 255 255
14.7046 0 -2.88059 0 1 0  255 255 255 255
0.317952 0 -13.0314 0 1 0  255 255 255 255
-11.9172 0 -5.28007 0 1 0  255 255 255 255
11.9172 0 -5.28007 0 1 0  255 255 255 255
8.31335 0 12.4538 0 1 0  255 255 255 255
-8.31335 0 12.4538 0 1 0  255 255 255 255
-7.76545 0 -10.7842 0 1 0  255 255 255 255
7.76545 0 -10.7842 0 1 0  255 255 255 255
9.43779 0 8.98902 0 1 0  255 255 255 255
-9.43779 0 8.98902 0 1 0  255 255 255 255
-12.9348 0 3.04743 0 1 0  255 255 255 255
12.9348 0 3.04743 0 1 0  255 255 255 255
-8.50801 0 -12.2702 0 1 0  255 255 255 255
8.50801 0 -12.2702 0 1 0  255 255 255 255
2.13438 0 13.1164 0 1 0  255 255 255 255
-2.13438 0 13.1164 0 1 0  255 255 255 255
-11.2983 0 7.00387 0 1 0  255 255 255 255
11.2983 0 7.00387 0 1 0  255 255 255 255
10.7948 0 -7.75834 0 1 0  255 255 255 255
-10.7948 0 -7.75834 0 1 0  255 255 255 255
-4.69286 0 12.1581 0 1 0  255 255 255 255
4.69286 0 12.1581 0 1 0  255 255 255 255
3.03712 0 -12.9427 0 1 0  255 255 255 255
-3.03712 0 -12.9427 0 1 0  255 255 255 255
13.1184 0 -2.13243 0 1 0  255 255 255 255
-13.1184 0 -2.13243 0 1 0  255 255 255 255
-6.98871 0 11.3029 0 1 0  255 255 255 255
6.98871 0 11.3029 0 1 0  255 255 255 255
-13.0275 0 0.316851 0 1 0  255 255 255 255
13.0275 0 0.316851 0 1 0  255 255 255 255
6.27593 0 9.42253 0 1 0  255 255 255 255
-6.27593 0 9.42253 0 1 0  255 255 255 255
0.616393 0 -14.9415 0 1 0  255 255 255 255
-11.1068 0 -2.19228 0 1 0  255 255 255 255
11.1068 0 -2.19228 0 1 0  255 255 255 255
2.22497 0 -11.1001 0 1 0  255 255 255 255
-2.22497 0 -11.1001 0 1 0  255 255 255 255
9.40358 0 -6.30336 0 1 0  255 255 255 255
-9.40358 0 -6.30336 0 1 0  255 255 255 255
-9.42204 0 6.27551 0 1 0  255 255 255 255
9.42204 0 6.27551 0 1 0  255 255 255 255
-2.19213 0 11.1063 0 1 0  255 255 255 255
2.19213 0 11.1063 0 1 0  255 255 255 255
11.0997 0 2.22491 0 1 0  255 255 255 255
-11.0997 0 2.22491 0 1 0  255 255 255 255
-6.30319 0 -9.4033 0 1 0  255 255 255 255
6.30319 0 -9.4033 0 1 0  255 255 255 255
-14.9146 0 0.56436 0 1 0  255 255 255 255
14.9146 0 0.56436 0 1 0  255 255 255 255
13.5615 0 -6.28968 0 1 0  255 255 255 255
-13.5615 0 -6.28968 0 1 0  255 255 255 255
5.18548 0 13.9971 0 1 0  255 255 255 255
-5.18548 0 13.9971 0 1 0  255 255 255 255
-11.0276 0 10.1306 0 1 0  255 255 255 255
11.0276 0 10.1306 0 1 0  255 255 255 255
-4.07201 0 -11.9356 0 1 0  255 255 255 255
4.07201 0 -11.9356 0 1 0  255 255 255 255
5.58705 0 -11.32 0 1 0  255 255 255 255
-5.58705 0 -11.32 0 1 0  255 255 255 255
9.47583 0 -8.3271 0 1 0  255 255 255 255
-9.47583 0 -8.3271 0 1 0  255 255 255 255
-8.32038 0 -9.49364 0 1 0  255 255 255 255
8.32038 0 -9.49364 0 1 0  255 255 255 255
-11.3196 0 5.56762 0 1 0  255 255 255 255
11.3196 0 5.56762 0 1 0  255 255 255 255
-0.829208 0 12.5967 0 1 0  255 255 255 255
0.81158 0 12.5887 0 1 0  255 255 255 255
-11.9551 0 4.05419 0 1 0  255 255 255 255
11.9551 0 4.05419 0 1 0  255 255 255 255
0.620014 0 14.9407 0 1 0  255 255 255 255
14.0814 0 -1.26126 0 1 0  255 255 255 255
-14.0814 0 -1.26126 0 1 0  255 255 255 255
-14.0367 0 5.15339 0 1 0  255 255 255 255
14.0367 0 5.15339 0 1 0  255 255 255 255
-13.4917 0 -4.25061 0 1 0  255 255 255 255
13.4917 0 -4.25061 0 1 0  255 255 255 255
-1.23559 0 -14.0921 0 1 0  255 255 255 255
6.55412 0 12.5273 0 1 0  255 255 255 255
-6.55412 0 12.5273 0 1 0  255 255 255 255
-10.116 0 -11.0197 0 1 0  255 255 255 255
10.116 0 -11.0197 0 1 0  255 255 255 255
-6.30746 0 -13.5641 0 1 0  255 255 255 255
6.30746 0 -13.5641 0 1 0  255 255 255 255
9.08823 0 10.8316 0 1 0  255 255 255 255
-9.08823 0 10.8316 0 1 0  255 255 255 255
14.0117 0 -0.040552 0 1 0  255 255 255 255
-14.0117 0 -0.040552 0 1 0  255 255 255 255
10.6028 0 8.32423 0 1 0  255 255 255 255
-10.6028 0 8.32423 0 1 0  255 255 255 255
5.40013 0 12.9322 0 1 0  255 255 255 255
-5.40013 0 12.9322 0 1 0  255 255 255 255
-11.7895 0 -6.58994 0 1 0  255 255 255 255
11.7895 0 -6.58994 0 1 0  255 255 255 255
12.9657 0 -5.32852 0 1 0  255 255 255 255
-12.9657 0 -5.32852 0 1 0  255 255 255 255
-0.039827 0 -14.0183 0 1 0  255 255 255 255
10.9232 0 7.71756 0 1 0  255 255 255 255
-10.9232 0 7.71756 0 1 0  255 255 255 255
-9.88367 0 9.9389 0 1 0  255 255 255 255
9.88367 0 9.9389 0 1 0  255 255 255 255
-11.293 0 -7.10589 0 1 0  255 255 255 255
11.293 0 -7.10589 0 1 0  255 255 255 255
5.81524 0 -13.1447 0 1 0  255 255 255 255
-5.81524 0 -13.1447 0 1 0  255 255 255 255
2.96006 0 13.0085 0 1 0  255 255 255 255
-2.96006 0 13.0085 0 1 0  255 255 255 255
3.67568 0 12.9944 0 1 0  255 255 255 255
-3.67568 0 12.9944 0 1 0  255 255 255 255
2.24127 0 -13.1608 0 1 0  255 255 255 255
-2.24127 0 -13.1608 0 1 0  255 255 255 255
1.59554 0 -13.4213 0 1 0  255 255 255 255
-1.59644 0 -13.431 0 1 0  255 255 255 255
13.15 0 2.2441 0 1 0  255 255 255 255
-13.15 0 2.2441 0 1 0  255 255 255 255
-9.91817 0 -10.4009 0 1 0  255 255 255 255
9.91817 0 -10.4009 0 1 0  255 255 255 255
13.0176 0 -2.96586 0 1 0  255 255 255 255
-13.0176 0 -2.96586 0 1 0  255 255 255 255
3.90821 0 -13.7445 0 1 0  255 255 255 255
-3.90821 0 -13.7445 0 1 0  255 255 255 255
-7.71936 0 10.8899 0 1 0  255 255 255 255
7.71936 0 10.8899 0 1 0  255 255 255 255
-7.10588 0 -11.2974 0 1 0  255 255 255 255
7.10588 0 -11.2974 0 1 0  255 255 255 255
-13.4039 0 5.18228 0 1 0  255 255 255 255
13.4039 0 5.18228 0 1 0  255 255 255 255
13.0192 0 -3.66519 0 1 0  255 255 255 255
-13.0192 0 -3.66519 0 1 0  255 255 255 255
13.4071 0 1.58106 0 1 0  255 255 255 255
-13.4071 0 1.58106 0 1 0  255 255 255 255
0.358944 0 14.358 0 1 0  255 255 255 255
-0.320421 0 14.3567 0 1 0  255 255 255 255
11.1979 0 -8.87635 0 1 0  255 255 255 255
-11.1979 0 -8.87635 0 1 0  255 255 255 255
-13.1366 0 5.83113 0 1 0  255 255 255 255
13.1366 0 5.83113 0 1 0  255 255 255 255
6.59425 0 -11.7863 0 1 0  255 255 255 255
-6.59425 0 -11.7863 0 1 0  255 255 255 255
-10.412 0 -9.92224 0 1 0  255 255 255 255
10.412 0 -9.92224 0 1 0  255 255 255 255
5.92499 0 -12.0649 0 1 0  255 255 255 255
-5.92499 0 -12.0649 0 1 0  255 255 255 255
-5.1789 0 -13.4168 0 1 0  255 255 255 255
5.1789 0 -13.4168 0 1 0  255 255 255 255
12.4772 0 6.95415 0 1 0  255 255 255 255
-12.4772 0 6.95415 0 1 0  255 255 255 255
12.711 0 -4.35466 0 1 0  255 255 255 255
-12.711 0 -4.35466 0 1 0  255 255 255 255
-4.3396 0 -12.7178 0 1 0  255 255 255 255
4.3396 0 -12.7178 0 1 0  255 255 255 255
-8.35165 0 10.598 0 1 0  255 255 255 255
8.35165 0 10.598 0 1 0  255 255 255 255
8.8805 0 -10.0867 0 1 0  255 255 255 255
-8.8805 0 -10.0867 0 1 0  255 255 255 255
-10.0898 0 -8.87521 0 1 0  255 255 255 255
10.0898 0 -8.87521 0 1 0  255 255 255 255
-12.7174 0 4.34433 0 1 0  255 255 255 255
12.7174 0 4.34433 0 1 0  255 255 255 255
8.31937 0 -10.6575 0 1 0  255 255 255 255
-8.31937 0 -10.6575 0 1 0  255 255 255 255
-12.0606 0 5.92548 0 1 0  255 255 255 255
12.0606 0 5.92548 0 1 0  255 255 255 255
-0.84215 0 -13.4084 0 1 0  255 255 255 255
-6.6952 0 11.7648 0 1 0  255 255 255 255
6.6952 0 11.7648 0 1 0  255 255 255 255
-0.834969 0 13.4054 0 1 0  255 255 255 255
0.854368 0 13.4119 0 1 0  255 255 255 255
8.31738 0 11.7481 0 1 0  255 255 255 255
-8.31738 0 11.7481 0 1 0  255 255 255 255
7.6386 0 -12.1405 0 1 0  255 255 255 255
-7.6386 0 -12.1405 0 1 0  255 255 255 255
-13.9915 0 -3.19152 0 1 0  255 255 255 255
13.9915 0 -3.19152 0 1 0  255 255 255 255
-1.67403 0 14.1764 0 1 0  255 255 255 255
1.67403 0 14.1764 0 1 0  255 255 255 255
-13.0293 0 3.60765 0 1 0  255 255 255 255
13.0293 0 3.60765 0 1 0  255 255 255 255
-14.2405 0 1.63324 0 1 0  255 255 255 255
14.2405 0 1.63324 0 1 0  255 255 255 255
-13.4308 0 -1.68362 0 1 0  255 255 255 255
13.4308 0 -1.68362 0 1 0  255 255 255 255
2.40971 0 -14.1462 0 1 0  255 255 255 255
-2.39804 0 -14.1264 0 1 0  255 255 255 255
-5.21131 0 -12.5813 0 1 0  255 255 255 255
5.21131 0 -12.5813 0 1 0  255 255 255 255
-14.1351 0 2.40821 0 1 0  255 255 255 255
14.1351 0 2.40821 0 1 0  255 255 255 255
1.65288 0 13.4178 0 1 0  255 255 255 255
-1.65288 0 13.4178 0 1 0  255 255 255 255
-12.145 0 -7.64119 0 1 0  255 255 255 255
12.145 0 -7.64119 0 1 0  255 255 255 255
-9.63013 0 -9.6301 0 1 0  255 255 255 255
9.63013 0 -9.6301 0 1 0  255 255 255 255
-11.7102 0 8.29037 0 1 0  255 255 255 255
11.7102 0 8.29037 0 1 0  255 255 255 255
-3.17842 0 13.9893 0 1 0  255 255 255 255
3.17842 0 13.9893 0 1 0  255 255 255 255
-12.5837 0 5.21234 0 1 0  255 255 255 255
12.5837 0 5.21234 0 1 0  255 255 255 255
-8.88641 0 10.0752 0 1 0  255 255 255 255
8.88641 0 10.0752 0 1 0  255 255 255 255
-11.7609 0 6.69758 0 1 0  255 255 255 255
11.7609 0 6.69758 0 1 0  255 255 255 255
13.7364 0 3.87795 0 1 0  255 255 255 255
-13.7364 0 3.87795 0 1 0  255 255 255 255
-3.58088 0 -13.0534 0 1 0  255 255 255 255
3.58088 0 -13.0534 0 1 0  255 255 255 255
0.02662 0 13.5838 0 1 0  255 255 255 255
-1.62918 0 -14.2715 0 1 0  255 255 255 255
-10.6888 0 -8.30302 0 1 0  255 255 255 255
10.6888 0 -8.30302 0 1 0  255 255 255 255
1.63038 0 -14.2085 0 1 0  255 255 255 255
-3.9227 0 13.7827 0 1 0  255 255 255 255
3.9227 0 13.7827 0 1 0  255 255 255 255
5.9068 0 12.0643 0 1 0  255 255 255 255
-5.9068 0 12.0643 0 1 0  255 255 255 255
-13.407 0 -0.836129 0 1 0  255 255 255 255
13.407 0 -0.836129 0 1 0  255 255 255 255
-13.8094 0 -3.95679 0 1 0  255 255 255 255
13.8094 0 -3.95679 0 1 0  255 255 255 255
-8.88955 0 -11.2166 0 1 0  255 255 255 255
8.88955 0 -11.2166 0 1 0  255 255 255 255
12.5041 0 -6.94591 0 1 0  255 255 255 255
-12.5041 0 -6.94591 0 1 0  255 255 255 255
-11.934 0 -4.02479 0 1 0  255 255 255 255
11.934 0 -4.02479 0 1 0  255 255 255 255
0.854846 0 -12.5614 0 1 0  255 255 255 255
-0.848075 0 -12.5659 0 1 0  255 255 255 255
-11.2108 0 8.89519 0 1 0  255 255 255 255
11.2108 0 8.89519 0 1 0  255 255 255 255
11.2775 0 -5.58395 0 1 0  255 255 255 255
-11.2775 0 -5.58395 0 1 0  255 255 255 255
-14.2267 0 -1.72149 0 1 0  255 255 255 255
14.2267 0 -1.72149 0 1 0  255 255 255 255
-9.47462 0 8.27812 0 1 0  255 255 255 255
9.47462 0 8.27812 0 1 0  255 255 255 255
-4.02595 0 11.9223 0 1 0  255 255 255 255
4.02595 0 11.9223 0 1 0  255 255 255 255
12.5552 0 0.842872 0 1 0  255 255 255 255
-12.5552 0 0.842872 0 1 0  255 255 255 255
12.5469 0 -0.852595 0 1 0  255 255 255 255
-12.5469 0 -0.852595 0 1 0  255 255 255 255
-5.58949 0 11.2656 0 1 0  255 255 255 255
5.58949 0 11.2656 0 1 0  255 255 255 255
-11.716 0 -3.12819 0 1 0  255 255 255 255
11.716 0 -3.12819 0 1 0  255 255 255 255
8.28529 0 9.48546 0 1 0  255 255 255 255
-8.28529 0 9.48546 0 1 0  255 255 255 255
7.37355 0 9.627 0 1 0  255 255 255 255
-7.37355 0 9.627 0 1 0  255 255 255 255
-1.5935 0 -12.0209 0 1 0  255 255 255 255
1.5935 0 -12.0209 0 1 0  255 255 255 255
-6.97276 0 -12.5682 0 1 0  255 255 255 255
6.97276 0 -12.5682 0 1 0  255 255 255 255
-6.07742 0 10.4892 0 1 0  255 255 255 255
6.07742 0 10.4892 0 1 0  255 255 255 255
10.4958 0 -6.07234 0 1 0  255 255 255 255
-10.4958 0 -6.07234 0 1 0  255 255 255 255
-6.97517 0 12.5096 0 1 0  255 255 255 255
6.97517 0 12.5096 0 1 0  255 255 255 255
12.0162 0 -1.60079 0 1 0  255 255 255 255
-12.0162 0 -1.60079 0 1 0  255 255 255 255
-9.62652 0 7.37282 0 1 0  255 255 255 255
9.62652 0 7.37282 0 1 0  255 255 255 255
-3.11806 0 -11.7121 0 1 0  255 255 255 255
3.11806 0 -11.7121 0 1 0  255 255 255 255
3.12757 0 11.715 0 1 0  255 255 255 255
-3.12757 0 11.715 0 1 0  255 255 255 255
-0.694546 0 14.9264 0 1 0  255 255 255 255
9.62719 0 -7.36257 0 1 0  255 255 255 255
-9.62719 0 -7.36257 0 1 0  255 255 255 255
-12.02 0 1.59367 0 1 0  255 255 255 255
12.02 0 1.59367 0 1 0  255 255 255 255
-8.93819 0 11.2414 0 1 0  255 255 255 255
8.93819 0 11.2414 0 1 0  255 255 255 255
-10.4862 0 6.0768 0 1 0  255 255 255 255
10.4862 0 6.0768 0 1 0  255 255 255 255
-6.07196 0 -10.4935 0 1 0  255 255 255 255
6.07196 0 -10.4935 0 1 0  255 255 255 255
-1.60137 0 12.0133 0 1 0  255 255 255 255
1.60137 0 12.0133 0 1 0  255 255 255 255
-7.36223 0 -9.62698 0 1 0  255 255 255 255
7.36223 0 -9.62698 0 1 0  255 255 255 255
11.7116 0 3.11777 0 1 0  255 255 255 255
-11.7116 0 3.11777 0 1 0  255 255 255 255
-13.5278 0 6.35292 0 1 0  255 255 255 255
13.5278 0 6.35292 0 1 0  255 255 255 255
-11.0483 0 -10.0719 0 1 0  255 255 255 255
11.0483 0 -10.0719 0 1 0  255 255 255 255
5.0819 0 -14.0677 0 1 0  255 255 255 255
-5.0819 0 -14.0677 0 1 0  255 255 255 255
-14.944 0 -1.4562 0 1 0  255 255 255 255
14.944 0 -1.4562 0 1 0  255 255 255 255
7.08602 0 13.2312 0 1 0  255 255 255 255
-7.08602 0 13.2312 0 1 0  255 255 255 255
6.55686 0 10.0665 0 1 0  255 255 255 255
-6.55686 0 10.0665 0 1 0  255 255 255 255
-11.8087 0 -2.20526 0 1 0  255 255 255 255
11.8087 0 -2.20526 0 1 0  255 255 255 255
2.48148 0 -11.753 0 1 0  255 255 255 255
-2.48148 0 -11.753 0 1 0  255 255 255 255
-9.90826 0 -6.78997 0 1 0  255 255 255 255
9.90826 0 -6.78997 0 1 0  255 255 255 255
-3.19579 0 -14.0864 0 1 0  255 255 255 255
3.19579 0 -14.0864 0 1 0  255 255 255 255
10.0644 0 6.55536 0 1 0  255 255 255 255
-10.0644 0 6.55536 0 1 0  255 255 255 255
-2.20479 0 11.8066 0 1 0  255 255 255 255
2.20479 0 11.8066 0 1 0  255 255 255 255
-11.7514 0 2.48117 0 1 0  255 255 255 255
11.7514 0 2.48117 0 1 0  255 255 255 255
6.78929 0 -9.90727 0 1 0  255 255 255 255
-6.78929 0 -9.90727 0 1 0  255 255 255 255
-13.3979 0 0.858017 0 1 0  255 255 255 255
13.3979 0 0.858017 0 1 0  255 255 255 255
4.33452 0 12.7075 0 1 0  255 255 255 255
-4.33452 0 12.7075 0 1 0  255 255 255 255
-10.0829 0 8.86823 0 1 0  255 255 255 255
10.0829 0 8.86823 0 1 0  255 255 255 255
-12.0532 0 -5.92265 0 1 0  255 255 255 255
12.0532 0 -5.92265 0 1 0  255 255 255 255
-7.63146 0 -10.3337 0 1 0  255 255 255 255
7.63146 0 -10.3337 0 1 0  255 255 255 255
12.4675 0 3.09604 0 1 0  255 255 255 255
-12.4675 0 3.09604 0 1 0  255 255 255 255
0.859535 0 -13.4042 0 1 0  255 255 255 255
1.91068 0 12.7033 0 1 0  255 255 255 255
-1.91068 0 12.7033 0 1 0  255 255 255 255
11.0053 0 6.62659 0 1 0  255 255 255 255
-11.0053 0 6.62659 0 1 0  255 255 255 255
10.3339 0 -7.63196 0 1 0  255 255 255 255
-10.3339 0 -7.63196 0 1 0  255 255 255 255
3.09665 0 -12.4682 0 1 0  255 255 255 255
-3.09665 0 -12.4682 0 1 0  255 255 255 255
12.7046 0 -1.91032 0 1 0  255 255 255 255
-12.7046 0 -1.91032 0 1 0  255 255 255 255
-6.62683 0 11.0071 0 1 0  255 255 255 255
6.62683 0 11.0071 0 1 0  255 255 255 255
-11.7885 0 -8.34491 0 1 0  255 255 255 255
11.7885 0 -8.34491 0 1 0  255 255 255 255
1.53152 0 -14.8964 0 1 0  255 255 255 255
-9.50049 0 11.6189 0 1 0  255 255 255 255
9.50049 0 11.6189 0 1 0  255 255 255 255
-14.2679 0 -2.40672 0 1 0  255 255 255 255
14.2679 0 -2.40672 0 1 0  255 255 255 255
-14.3757 0 -4.31857 0 1 0  255 255 255 255
14.3757 0 -4.31857 0 1 0  255 255 255 255
-1.52576 0 -14.9316 0 1 0  255 255 255 255
12.2137 0 7.69908 0 1 0  255 255 255 255
-12.2137 0 7.69908 0 1 0  255 255 255 255
-7.69853 0 12.2289 0 1 0  255 255 255 255
7.69853 0 12.2289 0 1 0  255 255 255 255
13.1684 0 -7.12876 0 1 0  255 255 255 255
-13.1684 0 -7.12876 0 1 0  255 255 255 255
-12.4938 0 1.53953 0 1 0  255 255 255 255
12.4938 0 1.53953 0 1 0  255 255 255 255
3.35892 0 12.1321 0 1 0  255 255 255 255
-3.35892 0 12.1321 0 1 0  255 255 255 255
-9.86846 0 7.76122 0 1 0  255 255 255 255
9.86846 0 7.76122 0 1 0  255 255 255 255
-12.6338 0 -5.98683 0 1 0  255 255 255 255
12.6338 0 -5.98683 0 1 0  255 255 255 255
-10.9544 0 -6.20377 0 1 0  255 255 255 255
10.9544 0 -6.20377 0 1 0  255 255 255 255
0.695766 0 -13.9644 0 1 0  255 255 255 255
1.49773 0 -12.4008 0 1 0  255 255 255 255
-1.49757 0 -12.4005 0 1 0  255 255 255 255
12.0298 0 -3.36194 0 1 0  255 255 255 255
-12.0298 0 -3.36194 0 1 0  255 255 255 255
-12.3994 0 -1.46564 0 1 0  255 255 255 255
12.3994 0 -1.46564 0 1 0  255 255 255 255
10.3648 0 9.38003 0 1 0  255 255 255 255
-10.3648 0 9.38003 0 1 0  255 255 255 255
-12.1148 0 -4.68325 0 1 0  255 255 255 255
12.1148 0 -4.68325 0 1 0  255 255 255 255
-6.09913 0 10.895 0 1 0  255 255 255 255
6.09913 0 10.895 0 1 0  255 255 255 255
7.70956 0 9.82757 0 1 0  255 255 255 255
-7.70956 0 9.82757 0 1 0  255 255 255 255
-4.69977 0 13.1625 0 1 0  255 255 255 255
4.69977 0 13.1625 0 1 0  255 255 255 255
-0.309271 0 -12.9842 0 1 0  255 255 255 255
8.96292 0 9.40044 0 1 0  255 255 255 255
-8.96292 0 9.40044 0 1 0  255 255 255 255
-12.2698 0 -2.77794 0 1 0  255 255 255 255
12.2698 0 -2.77794 0 1 0  255 255 255 255
-2.12879 0 -12.398 0 1 0  255 255 255 255
2.12879 0 -12.398 0 1 0  255 255 255 255
-10.6202 0 -6.72354 0 1 0  255 255 255 255
10.6202 0 -6.72354 0 1 0  255 255 255 255
6.72609 0 10.6274 0 1 0  255 255 255 255
-6.72609 0 10.6274 0 1 0  255 255 255 255
-10.277 0 7.26051 0 1 0  255 255 255 255
10.277 0 7.26051 0 1 0  255 255 255 255
-2.75504 0 12.2629 0 1 0  255 255 255 255
2.75504 0 12.2629 0 1 0  255 255 255 255
-13.9578 0 0.694782 0 1 0  255 255 255 255
13.9578 0 0.694782 0 1 0  255 255 255 255
-12.3834 0 2.14744 0 1 0  255 255 255 255
12.3834 0 2.14744 0 1 0  255 255 255 255
12.4012 0 -2.1389 0 1 0  255 255 255 255
-12.4012 0 -2.1389 0 1 0  255 255 255 255
6.71009 0 -10.6372 0 1 0  255 255 255 255
-6.71009 0 -10.6372 0 1 0  255 255 255 255
2.76924 0 -12.2747 0 1 0  255 255 255 255
-2.76924 0 -12.2747 0 1 0  255 255 255 255
-10.2801 0 -7.25528 0 1 0  255 255 255 255
10.2801 0 -7.25528 0 1 0  255 255 255 255
2.43193 0 14.231 0 1 0  255 255 255 255
-2.43193 0 14.231 0 1 0  255 255 255 255
7.26203 0 10.273 0 1 0  255 255 255 255
-7.26203 0 10.273 0 1 0  255 255 255 255
10.6115 0 6.72851 0 1 0  255 255 255 255
-10.6115 0 6.72851 0 1 0  255 255 255 255
2.15548 0 12.3781 0 1 0  255 255 255 255
-2.15548 0 12.3781 0 1 0  255 255 255 255
12.2604 0 2.74536 0 1 0  255 255 255 255
-12.2604 0 2.74536 0 1 0  255 255 255 255
7.22812 0 -10.2764 0 1 0  255 255 255 255
-7.22812 0 -10.2764 0 1 0  255 255 255 255
5.25425 0 11.8771 0 1 0  255 255 255 255
-5.25425 0 11.8771 0 1 0  255 255 255 255
11.6372 0 9.42922 0 1 0  255 255 255 255
-11.6372 0 9.42922 0 1 0  255 255 255 255
12.9829 0 -0.30877 0 1 0  255 255 255 255
-12.9829 0 -0.30877 0 1 0  255 255 255 255
11.6196 0 -9.55031 0 1 0  255 255 255 255
-11.6196 0 -9.55031 0 1 0  255 255 255 255
-14.9164 0 1.36109 0 1 0  255 255 255 255
14.9164 0 1.36109 0 1 0  255 255 255 255
-14.1238 0 3.18046 0 1 0  255 255 255 255
14.1238 0 3.18046 0 1 0  255 255 255 255
4.27764 0 14.3486 0 1 0  255 255 255 255
-4.27764 0 14.3486 0 1 0  255 255 255 255
-1.46523 0 12.3978 0 1 0  255 255 255 255
1.46523 0 12.3978 0 1 0  255 255 255 255
12.0147 0 3.39064 0 1 0  255 255 255 255
-12.0147 0 3.39064 0 1 0  255 255 255 255
-7.73032 0 -9.8026 0 1 0  255 255 255 255
7.73032 0 -9.8026 0 1 0  255 255 255 255
8.1542 0 -12.6445 0 1 0  255 255 255 255
-8.1542 0 -12.6445 0 1 0  255 255 255 255
6.11064 0 -10.8901 0 1 0  255 255 255 255
-6.11064 0 -10.8901 0 1 0  255 255 255 255
10.8933 0 6.0985 0 1 0  255 255 255 255
-10.8933 0 6.0985 0 1 0  255 255 255 255
-4.36089 0 -14.401 0 1 0  255 255 255 255
4.36089 0 -14.401 0 1 0  255 255 255 255
8.33876 0 -11.8204 0 1 0  255 255 255 255
-8.33876 0 -11.8204 0 1 0  255 255 255 255
9.80306 0 -7.73049 0 1 0  255 255 255 255
-9.80306 0 -7.73049 0 1 0  255 255 255 255
3.39072 0 -12.0154 0 1 0  255 255 255 255
-3.39072 0 -12.0154 0 1 0  255 255 255 255
4.78776 0 -11.5532 0 1 0  255 255 255 255
-4.78776 0 -11.5532 0 1 0  255 255 255 255
8.84171 0 -8.84485 0 1 0  255 255 255 255
-8.84171 0 -8.84485 0 1 0  255 255 255 255
-11.5556 0 4.78394 0 1 0  255 255 255 255
11.5556 0 4.78394 0 1 0  255 255 255 255
-0.002485 0 12.5072 0 1 0  255 255 255 255
-13.2637 0 7.07255 0 1 0  255 255 255 255
13.2637 0 7.07255 0 1 0  255 255 255 255
-0.012752 0 15.0463 0 1 0  255 255 255 255
-13.875 0 5.76775 0 1 0  255 255 255 255
13.875 0 5.76775 0 1 0  255 255 255 255
-7.2836 0 10.9044 0 1 0  255 255 255 255
7.2836 0 10.9044 0 1 0  255 255 255 255
12.873 0 -2.57354 0 1 0  255 255 255 255
-12.873 0 -2.57354 0 1 0  255 255 255 255
-2.54684 0 -12.8778 0 1 0  255 255 255 255
2.54684 0 -12.8778 0 1 0  255 255 255 255
-14.7798 0 2.68485 0 1 0  255 255 255 255
14.7798 0 2.68485 0 1 0  255 255 255 255
-10.9172 0 -7.28205 0 1 0  255 255 255 255
10.9172 0 -7.28205 0 1 0  255 255 255 255
10.9155 0 7.2869 0 1 0  255 255 255 255
-10.9155 0 7.2869 0 1 0  255 255 255 255
-2.56875 0 12.8673 0 1 0  255 255 255 255
2.56875 0 12.8673 0 1 0  255 255 255 255
12.8704 0 2.55085 0 1 0  255 255 255 255
-12.8704 0 2.55085 0 1 0  255 255 255 255
-7.28036 0 -10.9193 0 1 0  255 255 255 255
7.28036 0 -10.9193 0 1 0  255 255 255 255
-1.45945 0 14.9507 0 1 0  255 255 255 255
1.45078 0 14.9556 0 1 0  255 255 255 255
-10.6373 0 -10.6028 0 1 0  255 255 255 255
10.6373 0 -10.6028 0 1 0  255 255 255 255
3.16448 0 14.6855 0 1 0  255 255 255 255
-3.16448 0 14.6855 0 1 0  255 255 255 255
-14.3642 0 4.3802 0 1 0  255 255 255 255
14.3642 0 4.3802 0 1 0  255 255 255 255
-12.3643 0 -3.1819 0 1 0  255 255 255 255
12.3643 0 -3.1819 0 1 0  255 255 255 255
-1.79181 0 -12.6403 0 1 0  255 255 255 255
1.79195 0 -12.6406 0 1 0  255 255 255 255
-10.9173 0 -6.54892 0 1 0  255 255 255 255
10.9173 0 -6.54892 0 1 0  255 255 255 255
-10.2808 0 7.67122 0 1 0  255 255 255 255
10.2808 0 7.67122 0 1 0  255 255 255 255
7.67111 0 10.2056 0 1 0  255 255 255 255
-7.67111 0 10.2056 0 1 0  255 255 255 255
-3.08856 0 12.3496 0 1 0  255 255 255 255
3.08856 0 12.3496 0 1 0  255 255 255 255
12.5912 0 1.87253 0 1 0  255 255 255 255
-12.5912 0 1.87253 0 1 0  255 255 255 255
-2.14167 0 -14.8781 0 1 0  255 255 255 255
6.46195 0 -10.9786 0 1 0  255 255 255 255
-6.46195 0 -10.9786 0 1 0  255 255 255 255
-6.34643 0 13.6553 0 1 0  255 255 255 255
6.34643 0 13.6553 0 1 0  255 255 255 255
-9.53481 0 -11.587 0 1 0  255 255 255 255
9.53481 0 -11.587 0 1 0  255 255 255 255
3.63373 0 14.6117 0 1 0  255 255 255 255
-3.63373 0 14.6117 0 1 0  255 255 255 255
14.9018 0 2.19177 0 1 0  255 255 255 255
-14.9018 0 2.19177 0 1 0  255 255 255 255
-5.70247 0 -13.8719 0 1 0  255 255 255 255
5.70247 0 -13.8719 0 1 0  255 255 255 255
-12.3515 0 8.53661 0 1 0  255 255 255 255
12.3515 0 8.53661 0 1 0  255 255 255 255
-7.18151 0 -13.1637 0 1 0  255 255 255 255
7.18151 0 -13.1637 0 1 0  255 255 255 255
-11.9096 0 -2.77775 0 1 0  255 255 255 255
11.9096 0 -2.77775 0 1 0  255 255 255 255
-7.12403 0 9.94 0 1 0  255 255 255 255
7.12403 0 9.94 0 1 0  255 255 255 255
-1.99122 0 -12.0654 0 1 0  255 255 255 255
1.99122 0 -12.0654 0 1 0  255 255 255 255
-10.1974 0 11.1046 0 1 0  255 255 255 255
10.1974 0 11.1046 0 1 0  255 255 255 255
-10.3814 0 -6.45872 0 1 0  255 255 255 255
10.3814 0 -6.45872 0 1 0  255 255 255 255
-9.93977 0 7.12287 0 1 0  255 255 255 255
9.93977 0 7.12287 0 1 0  255 255 255 255
2.77349 0 11.907 0 1 0  255 255 255 255
-2.77349 0 11.907 0 1 0  255 255 255 255
-12.0617 0 1.99419 0 1 0  255 255 255 255
12.0617 0 1.99419 0 1 0  255 255 255 255
6.45592 0 -10.3828 0 1 0  255 255 255 255
-6.45592 0 -10.3828 0 1 0  255 255 255 255
-14.569 0 -3.70211 0 1 0  255 255 255 255
14.569 0 -3.70211 0 1 0  255 255 255 255
-0.957772 0 -14.4703 0 1 0  255 255 255 255
13.7306 0 -4.64827 0 1 0  255 255 255 255
-13.7306 0 -4.64827 0 1 0  255 255 255 255
-15.0357 0 -0.635007 0 1 0  255 255 255 255
15.0357 0 -0.635007 0 1 0  255 255 255 255
9.54576 0 10.904 0 1 0  255 255 255 255
-9.54576 0 10.904 0 1 0  255 255 255 255
-6.41916 0 12.9891 0 1 0  255 255 255 255
6.41916 0 12.9891 0 1 0  255 255 255 255
-14.4541 0 -0.959614 0 1 0  255 255 255 255
14.4541 0 -0.959614 0 1 0  255 255 255 255
6.48795 0 10.3877 0 1 0  255 255 255 255
-6.48795 0 10.3877 0 1 0  255 255 255 255
14.1773 0 -5.14632 0 1 0  255 255 255 255
-14.1773 0 -5.14632 0 1 0  255 255 255 255
-12.0764 0 -1.99811 0 1 0  255 255 255 255
12.0764 0 -1.99811 0 1 0  255 255 255 255
-12.0781 0 8.98199 0 1 0  255 255 255 255
12.0781 0 8.98199 0 1 0  255 255 255 255
2.77488 0 -11.9205 0 1 0  255 255 255 255
-2.77488 0 -11.9205 0 1 0  255 255 255 255
-9.95087 0 -7.12511 0 1 0  255 255 255 255
9.95087 0 -7.12511 0 1 0  255 255 255 255
-10.3848 0 6.48718 0 1 0  255 255 255 255
10.3848 0 6.48718 0 1 0  255 255 255 255
2.01939 0 12.0764 0 1 0  255 255 255 255
-2.01939 0 12.0764 0 1 0  255 255 255 255
-11.9297 0 2.75559 0 1 0  255 255 255 255
11.9297 0 2.75559 0 1 0  255 255 255 255
7.11098 0 -9.96707 0 1 0  255 255 255 255
-7.11098 0 -9.96707 0 1 0  255 255 255 255
-11.3239 0 8.22688 0 1 0  255 255 255 255
11.3239 0 8.22688 0 1 0  255 255 255 255
-11.9252 0 -7.2959 0 1 0  255 255 255 255
11.9252 0 -7.2959 0 1 0  255 255 255 255
1.31667 0 -14.004 0 1 0  255 255 255 255
-7.79857 0 -12.8961 0 1 0  255 255 255 255
7.79857 0 -12.8961 0 1 0  255 255 255 255
-3.26612 0 13.5883 0 1 0  255 255 255 255
3.26612 0 13.5883 0 1 0  255 255 255 255
-12.6303 0 -8.11578 0 1 0  255 255 255 255
12.6303 0 -8.11578 0 1 0  255 255 255 255
2.17889 0 -13.8118 0 1 0  255 255 255 255
-2.1824 0 -13.8229 0 1 0  255 255 255 255
0.057618 0 -13.6818 0 1 0  255 255 255 255
-12.618 0 -5.2893 0 1 0  255 255 255 255
12.618 0 -5.2893 0 1 0  255 255 255 255
-9.00552 0 12.0215 0 1 0  255 255 255 255
9.00552 0 12.0215 0 1 0  255 255 255 255
-13.6074 0 -3.27361 0 1 0  255 255 255 255
13.6074 0 -3.27361 0 1 0  255 255 255 255
13.8012 0 2.17974 0 1 0  255 255 255 255
-13.8012 0 2.17974 0 1 0  255 255 255 255
-0.451511 0 12.4764 0 1 0  255 255 255 255
0.46565 0 12.4765 0 1 0  255 255 255 255
-7.28672 0 -11.926 0 1 0  255 255 255 255
7.28672 0 -11.926 0 1 0  255 255 255 255
-14.0086 0 1.32577 0 1 0  255 255 255 255
14.0086 0 1.32577 0 1 0  255 255 255 255
11.7043 0 4.34409 0 1 0  255 255 255 255
-11.7043 0 4.34409 0 1 0  255 255 255 255
11.3478 0 5.20441 0 1 0  255 255 255 255
-11.3478 0 5.20441 0 1 0  255 255 255 255
8.2355 0 11.3264 0 1 0  255 255 255 255
-8.2355 0 11.3264 0 1 0  255 255 255 255
-9.71472 0 9.6327 0 1 0  255 255 255 255
9.71472 0 9.6327 0 1 0  255 255 255 255
12.4328 0 -6.57468 0 1 0  255 255 255 255
-12.4328 0 -6.57468 0 1 0  255 255 255 255
-4.13226 0 13.4526 0 1 0  255 255 255 255
4.13226 0 13.4526 0 1 0  255 255 255 255
-8.49202 0 -9.15047 0 1 0  255 255 255 255
8.49202 0 -9.15047 0 1 0  255 255 255 255
9.15036 0 -8.49191 0 1 0  255 255 255 255
-9.15036 0 -8.49191 0 1 0  255 255 255 255
11.5548 0 -8.89709 0 1 0  255 255 255 255
-11.5548 0 -8.89709 0 1 0  255 255 255 255
-5.20395 0 -11.3468 0 1 0  255 255 255 255
5.20395 0 -11.3468 0 1 0  255 255 255 255
4.34359 0 -11.703 0 1 0  255 255 255 255
-4.34359 0 -11.703 0 1 0  255 255 255 255
3.7946 0 -14.0883 0 1 0  255 255 255 255
-3.7946 0 -14.0883 0 1 0  255 255 255 255
-0.700264 0 -15.0721 0 1 0  255 255 255 255
-5.18114 0 12.6592 0 1 0  255 255 255 255
5.18114 0 12.6592 0 1 0  255 255 255 255
-10.8483 0 8.96636 0 1 0  255 255 255 255
10.8483 0 8.96636 0 1 0  255 255 255 255
-13.6763 0 0.057592 0 1 0  255 255 255 255
13.6763 0 0.057592 0 1 0  255 255 255 255
-7.84842 0 -11.2467 0 1 0  255 255 255 255
7.84842 0 -11.2467 0 1 0  255 255 255 255
13.3937 0 2.94703 0 1 0  255 255 255 255
-13.3937 0 2.94703 0 1 0  255 255 255 255
2.40274 0 13.5019 0 1 0  255 255 255 255
-2.40274 0 13.5019 0 1 0  255 255 255 255
-11.5549 0 7.38675 0 1 0  255 255 255 255
11.5549 0 7.38675 0 1 0  255 255 255 255
-11.2466 0 -7.84903 0 1 0  255 255 255 255
11.2466 0 -7.84903 0 1 0  255 255 255 255
-7.38771 0 11.5587 0 1 0  255 255 255 255
7.38771 0 11.5587 0 1 0  255 255 255 255
13.5046 0 -2.40219 0 1 0  255 255 255 255
-13.5046 0 -2.40219 0 1 0  255 255 255 255
2.94809 0 -13.3949 0 1 0  255 255 255 255
-2.94809 0 -13.3949 0 1 0  255 255 255 255
-5.55512 0 -13.4893 0 1 0  255 255 255 255
5.55512 0 -13.4893 0 1 0  255 255 255 255
-11.6213 0 -2.54099 0 1 0  255 255 255 255
11.6213 0 -2.54099 0 1 0  255 255 255 255
-7.65483 0 12.9191 0 1 0  255 255 255 255
7.65483 0 12.9191 0 1 0  255 255 255 255
2.09964 0 -11.7086 0 1 0  255 255 255 255
-2.09964 0 -11.7086 0 1 0  255 255 255 255
10.013 0 -6.42057 0 1 0  255 255 255 255
-10.013 0 -6.42057 0 1 0  255 255 255 255
9.76338 0 6.79406 0 1 0  255 255 255 255
-9.76338 0 6.79406 0 1 0  255 255 255 255
2.54008 0 11.6196 0 1 0  255 255 255 255
-2.54008 0 11.6196 0 1 0  255 255 255 255
-11.707 0 2.09988 0 1 0  255 255 255 255
11.707 0 2.09988 0 1 0  255 255 255 255
-6.41972 0 -10.0125 0 1 0  255 255 255 255
6.41972 0 -10.0125 0 1 0  255 255 255 255
-12.9149 0 -7.71508 0 1 0  255 255 255 255
12.9149 0 -7.71508 0 1 0  255 255 255 255
6.79507 0 9.76447 0 1 0  255 255 255 255
-6.79507 0 9.76447 0 1 0  255 255 255 255
-10.3368 0 -10.29 0 1 0  255 255 255 255
10.3368 0 -10.29 0 1 0  255 255 255 255
-13.4636 0 5.61191 0 1 0  255 255 255 255
13.4636 0 5.61191 0 1 0  255 255 255 255
-0.036237 0 14.5817 0 1 0  255 255 255 255
8.92855 0 -12.1474 0 1 0  255 255 255 255
-8.92855 0 -12.1474 0 1 0  255 255 255 255
12.6367 0 7.26655 0 1 0  255 255 255 255
-12.6367 0 7.26655 0 1 0  255 255 255 255
-7.83884 0 11.2444 0 1 0  255 255 255 255
7.83884 0 11.2444 0 1 0  255 255 255 255
13.3553 0 -3.01407 0 1 0  255 255 255 255
-13.3553 0 -3.01407 0 1 0  255 255 255 255
-2.32617 0 -13.4911 0 1 0  255 255 255 255
2.32546 0 -13.4889 0 1 0  255 255 255 255
-11.5689 0 -7.30613 0 1 0  255 255 255 255
11.5689 0 -7.30613 0 1 0  255 255 255 255
-12.0217 0 6.37648 0 1 0  255 255 255 255
12.0217 0 6.37648 0 1 0  255 255 255 255
11.2008 0 7.88554 0 1 0  255 255 255 255
-11.2008 0 7.88554 0 1 0  255 255 255 255
-10.492 0 -8.66697 0 1 0  255 255 255 255
10.492 0 -8.66697 0 1 0  255 255 255 255
-2.6653 0 -14.7854 0 1 0  255 255 255 255
2.6653 0 -14.7854 0 1 0  255 255 255 255
-3.99258 0 -13.0109 0 1 0  255 255 255 255
3.99258 0 -13.0109 0 1 0  255 255 255 255
-14.8623 0 -2.10421 0 1 0  255 255 255 255
14.8623 0 -2.10421 0 1 0  255 255 255 255
2.98913 0 13.3535 0 1 0  255 255 255 255
-2.98913 0 13.3535 0 1 0  255 255 255 255
-0.521154 0 -14.4483 0 1 0  255 255 255 255
-7.07029 0 10.5695 0 1 0  255 255 255 255
7.07029 0 10.5695 0 1 0  255 255 255 255
13.4793 0 2.34735 0 1 0  255 255 255 255
-13.4793 0 2.34735 0 1 0  255 255 255 255
-8.44551 0 -11.1249 0 1 0  255 255 255 255
8.44551 0 -11.1249 0 1 0  255 255 255 255
-13.54 0 -5.05115 0 1 0  255 255 255 255
13.54 0 -5.05115 0 1 0  255 255 255 255
12.4764 0 -2.49129 0 1 0  255 255 255 255
-12.4764 0 -2.49129 0 1 0  255 255 255 255
-7.3284 0 -11.5574 0 1 0  255 255 255 255
7.3284 0 -11.5574 0 1 0  255 255 255 255
13.5021 0 3.53357 0 1 0  255 255 255 255
-13.5021 0 3.53357 0 1 0  255 255 255 255
-2.4725 0 -12.4791 0 1 0  255 255 255 255
2.4725 0 -12.4791 0 1 0  255 255 255 255
-1.90194 0 13.8272 0 1 0  255 255 255 255
1.90194 0 13.8272 0 1 0  255 255 255 255
12.0464 0 7.05702 0 1 0  255 255 255 255
-12.0464 0 7.05702 0 1 0  255 255 255 255
-10.5719 0 -7.05985 0 1 0  255 255 255 255
10.5719 0 -7.05985 0 1 0  255 255 255 255
-11.1296 0 -8.43468 0 1 0  255 255 255 255
11.1296 0 -8.43468 0 1 0  255 255 255 255
-7.06249 0 12.0598 0 1 0  255 255 255 255
7.06249 0 12.0598 0 1 0  255 255 255 255
3.53268 0 -13.5115 0 1 0  255 255 255 255
-3.53268 0 -13.5115 0 1 0  255 255 255 255
13.8264 0 -1.92683 0 1 0  255 255 255 255
-13.8264 0 -1.92683 0 1 0  255 255 255 255
10.5794 0 7.08171 0 1 0  255 255 255 255
-10.5794 0 7.08171 0 1 0  255 255 255 255
-2.48197 0 12.4616 0 1 0  255 255 255 255
2.48197 0 12.4616 0 1 0  255 255 255 255
12.4624 0 2.47571 0 1 0  255 255 255 255
-12.4624 0 2.47571 0 1 0  255 255 255 255
7.05551 0 -10.5735 0 1 0  255 255 255 255
-7.05551 0 -10.5735 0 1 0  255 255 255 255
2.18102 0 -14.8788 0 1 0  255 255 255 255
9.84987 0 10.562 0 1 0  255 255 255 255
-9.84987 0 10.562 0 1 0  255 255 255 255
-5.98811 0 13.1385 0 1 0  255 255 255 255
5.98811 0 13.1385 0 1 0  255 255 255 255
-1.87828 0 14.4495 0 1 0  255 255 255 255
1.87828 0 14.4495 0 1 0  255 255 255 255
6.33496 0 -12.0068 0 1 0  255 255 255 255
-6.33496 0 -12.0068 0 1 0  255 255 255 255
8.67474 0 -10.4817 0 1 0  255 255 255 255
-8.67474 0 -10.4817 0 1 0  255 255 255 255
-14.4271 0 -0.505175 0 1 0  255 255 255 255
14.4271 0 -0.505175 0 1 0  255 255 255 255
-13.0032 0 4.00322 0 1 0  255 255 255 255
13.0032 0 4.00322 0 1 0  255 255 255 255
-1.27574 0 13.5447 0 1 0  255 255 255 255
1.27772 0 13.5453 0 1 0  255 255 255 255
14.6721 0 3.58856 0 1 0  255 255 255 255
-14.6721 0 3.58856 0 1 0  255 255 255 255
-10.5551 0 8.67959 0 1 0  255 255 255 255
10.5551 0 8.67959 0 1 0  255 255 255 255
5.55506 0 -12.8662 0 1 0  255 255 255 255
-5.55506 0 -12.8662 0 1 0  255 255 255 255
12.0584 0 -6.42946 0 1 0  255 255 255 255
-12.0584 0 -6.42946 0 1 0  255 255 255 255
1.32417 0 -13.6 0 1 0  255 255 255 255
-1.27402 0 -13.6196 0 1 0  255 255 255 255
3.97944 0 13.0699 0 1 0  255 255 255 255
-3.97944 0 13.0699 0 1 0  255 255 255 255
-13.07 0 -4.03544 0 1 0  255 255 255 255
13.07 0 -4.03544 0 1 0  255 255 255 255
-13.5953 0 1.32418 0 1 0  255 255 255 255
13.5953 0 1.32418 0 1 0  255 255 255 255
3.37598 0 -12.3099 0 1 0  255 255 255 255
-3.37598 0 -12.3099 0 1 0  255 255 255 255
13.6088 0 -1.26187 0 1 0  255 255 255 255
-13.6088 0 -1.26187 0 1 0  255 255 255 255
10.0809 0 -7.82943 0 1 0  255 255 255 255
-10.0809 0 -7.82943 0 1 0  255 255 255 255
-6.37421 0 12.0902 0 1 0  255 255 255 255
6.37421 0 12.0902 0 1 0  255 255 255 255
11.091 0 6.31737 0 1 0  255 255 255 255
-11.091 0 6.31737 0 1 0  255 255 255 255
7.82981 0 -10.0795 0 1 0  255 255 255 255
-7.82981 0 -10.0795 0 1 0  255 255 255 255
9.7615 0 -10.0556 0 1 0  255 255 255 255
-9.7615 0 -10.0556 0 1 0  255 255 255 255
12.3086 0 3.37657 0 1 0  255 255 255 255
-12.3086 0 3.37657 0 1 0  255 255 255 255
1.59069 0 12.6639 0 1 0  255 255 255 255
-1.59069 0 12.6639 0 1 0  255 255 255 255
-11.3585 0 -2.86907 0 1 0  255 255 255 255
11.3585 0 -2.86907 0 1 0  255 255 255 255
6.99742 0 9.39592 0 1 0  255 255 255 255
-6.99742 0 9.39592 0 1 0  255 255 255 255
1.69601 0 -11.5915 0 1 0  255 255 255 255
-1.69601 0 -11.5915 0 1 0  255 255 255 255
5.97333 0 10.0031 0 1 0  255 255 255 255
-5.97333 0 10.0031 0 1 0  255 255 255 255
-8.72482 0 10.5158 0 1 0  255 255 255 255
8.72482 0 10.5158 0 1 0  255 255 255 255
11.5273 0 -1.6906 0 1 0  255 255 255 255
-11.5273 0 -1.6906 0 1 0  255 255 255 255
10.0598 0 -6.00269 0 1 0  255 255 255 255
-10.0598 0 -6.00269 0 1 0  255 255 255 255
2.8493 0 -11.2965 0 1 0  255 255 255 255
-2.8493 0 -11.2965 0 1 0  255 255 255 255
-9.39533 0 6.99685 0 1 0  255 255 255 255
9.39533 0 6.99685 0 1 0  255 255 255 255
9.3461 0 -6.95526 0 1 0  255 255 255 255
-9.3461 0 -6.95526 0 1 0  255 255 255 255
-2.86871 0 11.3575 0 1 0  255 255 255 255
2.86871 0 11.3575 0 1 0  255 255 255 255
-13.221 0 -5.07568 0 1 0  255 255 255 255
13.221 0 -5.07568 0 1 0  255 255 255 255
-10.0023 0 5.97294 0 1 0  255 255 255 255
10.0023 0 5.97294 0 1 0  255 255 255 255
11.5907 0 1.69599 0 1 0  255 255 255 255
-11.5907 0 1.69599 0 1 0  255 255 255 255
-1.69057 0 11.5265 0 1 0  255 255 255 255
1.69057 0 11.5265 0 1 0  255 255 255 255
-6.00237 0 -10.0592 0 1 0  255 255 255 255
6.00237 0 -10.0592 0 1 0  255 255 255 255
11.296 0 2.84911 0 1 0  255 255 255 255
-11.296 0 2.84911 0 1 0  255 255 255 255
-6.95503 0 -9.34587 0 1 0  255 255 255 255
6.95503 0 -9.34587 0 1 0  255 255 255 255
-13.0261 0 5.1705 0 1 0  255 255 255 255
13.0261 0 5.1705 0 1 0  255 255 255 255
-0.372235 0 -14.1588 0 1 0  255 255 255 255
14.0692 0 3.79 0 1 0  255 255 255 255
-14.0692 0 3.79 0 1 0  255 255 255 255
-14.6701 0 -3.23293 0 1 0  255 255 255 255
14.6701 0 -3.23293 0 1 0  255 255 255 255
-5.15644 0 -13.0273 0 1 0  255 255 255 255
5.15644 0 -13.0273 0 1 0  255 255 255 255
-0.159972 0 13.964 0 1 0  255 255 255 255
-9.74832 0 10.2682 0 1 0  255 255 255 255
9.74832 0 10.2682 0 1 0  255 255 255 255
0.235594 0 13.9918 0 1 0  255 255 255 255
-10.0624 0 -9.74999 0 1 0  255 255 255 255
10.0624 0 -9.74999 0 1 0  255 255 255 255
-12.8568 0 5.56719 0 1 0  255 255 255 255
12.8568 0 5.56719 0 1 0  255 255 255 255
-14.4752 0 -2.08009 0 1 0  255 255 255 255
14.4752 0 -2.08009 0 1 0  255 255 255 255
10.8131 0 10.4671 0 1 0  255 255 255 255
-10.8131 0 10.4671 0 1 0  255 255 255 255
-5.75568 0 12.9326 0 1 0  255 255 255 255
5.75568 0 12.9326 0 1 0  255 255 255 255
-14.1481 0 -0.369082 0 1 0  255 255 255 255
14.1481 0 -0.369082 0 1 0  255 255 255 255
-6.3179 0 11.094 0 1 0  255 255 255 255
6.3179 0 11.094 0 1 0  255 255 255 255
12.6668 0 -1.59178 0 1 0  255 255 255 255
-12.6668 0 -1.59178 0 1 0  255 255 255 255
10.5993 0 7.90287 0 1 0  255 255 255 255
-10.5993 0 7.90287 0 1 0  255 255 255 255
-8.82283 -0.96012 -6.71659 0 -1 0  255 255 255 255
8.8407 -0.96012 -6.74642 0 -1 0  255 255 255 255
4.0692 -0.96012 10.3342 0 -1 0  255 255 255 255
-4.0692 -0.96012 10.3342 0 -1 0  255 255 255 255
-11.0958 -0.96012 1.0948 0 -1 0  255 255 255 255
11.0958 -0.96012 1.0948 0 -1 0  255 255 255 255
-1.94315 -0.96012 -10.9792 0 -1 0  255 255 255 255
5.5331 -0.96012 -9.6488 0 -1 0  255 255 255 255
7.79558 -0.96012 7.93386 0 -1 0  255 255 255 255
-7.79558 -0.96012 7.93386 0 -1 0  255 255 255 255
-5.77998 -0.96012 -9.49024 0 -1 0  255 255 255 255
-10.7042 -0.96012 -2.99709 0 -1 0  255 255 255 255
10.7042 -0.96012 -2.99709 0 -1 0  255 255 255 255
-0.023233 -0.96012 11.0938 0 -1 0  255 255 255 255
1.94728 -0.96012 -11.2143 0 -1 0  255 255 255 255
-10.2714 -0.96012 4.90416 0 -1 0  255 255 255 255
10.2714 -0.96012 4.90416 0 -1 0  255 255 255 255
8.24133 -0.96012 -9.48585 0 -1 0  255 255 255 255
6.90706 -0.96012 10.4973 0 -1 0  255 255 255 255
-6.90706 -0.96012 10.4973 0 -1 0  255 255 255 255
-8.43524 -0.96012 -9.33643 0 -1 0  255 255 255 255
-11.3181 -0.96012 -5.65045 0 -1 0  255 255 255 255
11.2281 -0.96012 -5.64373 0 -1 0  255 255 255 255
-4.44245 -0.96012 -11.8058 0 -1 0  255 255 255 255
-12.514 -0.96012 -1.13388 0 -1 0  255 255 255 255
