ply
format ascii 1.0
comment VCGLIB generated
element vertex 739
property float x
property float y
property float z
property float nx
property float ny
property float nz
property uchar red
property uchar green
property uchar blue
property uchar alpha
element face 0
property list uchar int vertex_indices
end_header
-0.560557 73.4397 22.3339 0.889654 0.456635 0  255 255 255 255
-3.40909 75.9173 21.4624 0.32892 0.944358 0  255 255 255 255
-2.92144 75.7186 20.9167 0.424913 0.905234 0  255 255 255 255
-3.01108 75.7596 20.3308 0.407267 0.913309 0  255 255 255 255
-2.7887 75.6539 19.6948 0.451044 0.892502 0  255 255 255 255
-2.53196 75.5148 18.9555 0.501583 0.865109 0  255 255 255 255
-2.852 75.6853 18.4009 0.438582 0.898691 0  255 255 255 255
-2.72888 75.6232 17.7317 0.462819 0.886453 0  255 255 255 255
-2.52281 75.5094 17.0093 0.503383 0.864063 0  255 255 255 255
-2.88036 75.6991 16.4839 0.432999 0.901394 0  255 255 255 255
-2.81674 75.668 15.8086 0.445525 0.89527 0  255 255 255 255
-2.73797 75.6279 14.9932 0.46103 0.887385 0  255 255 255 255
-2.63923 75.5752 14.1534 0.480466 0.877013 0  255 255 255 255
-2.45668 75.4702 13.415 0.516402 0.856346 0  255 255 255 255
-2.79479 75.657 12.898 0.449844 0.893107 0  255 255 255 255
-2.68392 75.5994 12.2614 0.471669 0.881775 0  255 255 255 255
-2.47815 75.4831 11.5933 0.512174 0.858881 0  255 255 255 255
-2.80349 75.6614 11.0932 0.448132 0.893967 0  255 255 255 255
-2.69762 75.6067 10.4954 0.468973 0.883213 0  255 255 255 255
-2.5544 75.5277 9.88888 0.497165 0.867656 0  255 255 255 255
-2.84304 75.681 9.25213 0.440347 0.897828 0  255 255 255 255
-3.14252 75.816 8.5161 0.381394 0.924413 0  255 255 255 255
-0.405534 73.1089 21.5447 0.92017 0.391518 0  255 255 255 255
-0.676169 73.6523 20.9751 0.866896 0.498489 0  255 255 255 255
-0.604176 73.5228 20.1872 0.881068 0.47299 0  255 255 255 255
-0.542137 73.4035 19.495 0.89328 0.449501 0  255 255 255 255
-0.686442 73.6701 18.9175 0.864874 0.50199 0  255 255 255 255
-0.519067 73.357 18.3719 0.897822 0.44036 0  255 255 255 255
-0.57951 73.4763 17.7167 0.885923 0.463832 0  255 255 255 255
-0.692345 73.6803 17.002 0.863712 0.503986 0  255 255 255 255
-0.502289 73.3225 16.4783 0.901124 0.433561 0  255 255 255 255
-0.533435 73.3861 15.8055 0.894993 0.44608 0  255 255 255 255
-0.574061 73.4658 14.9918 0.886996 0.461777 0  255 255 255 255
-0.627804 73.5663 14.153 0.876417 0.481554 0  255 255 255 255
-0.734365 73.7509 13.4153 0.85544 0.517902 0  255 255 255 255
-0.547285 73.4137 12.8989 0.892267 0.451509 0  255 255 255 255
-0.606021 73.5262 12.263 0.880705 0.473666 0  255 255 255 255
-0.724314 73.7343 11.5956 0.857418 0.51462 0  255 255 255 255
-0.544778 73.4087 11.0956 0.89276 0.450532 0  255 255 255 255
-0.601835 73.5184 10.4886 0.881529 0.472131 0  255 255 255 255
-0.700916 73.6949 9.78874 0.862024 0.506867 0  255 255 255 255
-0.446726 73.2031 9.3185 0.912062 0.410053 0  255 255 255 255
-0.380545 73.0491 8.60056 0.92509 0.379749 0  255 255 255 255
-0.325883 72.9102 7.78746 0.93585 0.352399 0  255 255 255 255
-0.974103 74.1113 23.8653 0.808247 0.588843 0  255 255 255 255
-2.08613 75.224 6.64591 0.589345 0.807881 0  255 255 255 255
-1.45477 74.6787 23.9554 0.713628 0.700525 0  255 255 255 255
-1.47673 74.7009 6.57054 0.709305 0.704902 0  255 255 255 255
-3.55231 75.9649 7.23783 0.300727 0.95371 0  255 255 255 255
-0.098851 72.1173 22.8542 0.980541 0.196314 0  255 255 255 255
-3.81631 76.0403 23.526 0.248758 0.968566 0  255 255 255 255
-0.148763 72.3404 6.85235 0.970716 0.24023 0  255 255 255 255
-1.61248 74.8325 24.6748 0.682582 0.730809 0  255 255 255 255
-1.34152 74.5595 5.81549 0.735922 0.677066 0  255 255 255 255
-2.94371 75.729 24.674 0.420529 0.907279 0  255 255 255 255
-0.452942 73.2168 5.77169 0.910838 0.412764 0  255 255 255 255
-0.795692 73.8497 24.6026 0.843368 0.537337 0  255 255 255 255
-2.35904 75.4098 5.88809 0.535622 0.844458 0  255 255 255 255
-0.75408 73.7832 23.1099 0.851559 0.524259 0  255 255 255 255
-2.40774 75.4404 7.32332 0.526035 0.850463 0  255 255 255 255
-3.72342 76.0155 24.706 0.267044 0.963684 0  255 255 255 255
-0.178192 72.4537 5.74349 0.964923 0.262534 0  255 255 255 255
-0.384461 73.0586 24.6201 0.924319 0.381622 0  255 255 255 255
-3.15032 75.8192 5.82897 0.379859 0.925045 0  255 255 255 255
-4.07624 76.0998 7.80399 0.19759 0.980285 0  255 255 255 255
-3.99002 76.0817 22.8681 0.214563 0.97671 0  255 255 255 255
-0.114487 72.1924 7.4708 0.977463 0.211106 0  255 255 255 255
-4.44009 76.1595 23.4487 0.125967 0.992034 0  255 255 255 255
-0.038359 71.7431 6.97835 0.992449 0.122658 0  255 255 255 255
-4.32878 76.1441 7.1319 0.147879 0.989005 0  255 255 255 255
-0.033226 71.7001 23.3556 0.99346 0.114185 0  255 255 255 255
-2.21362 75.3141 24.6839 0.564248 0.825605 0  255 255 255 255
-0.857553 73.9444 5.78053 0.83119 0.555988 0  255 255 255 255
-1.8705 75.0577 23.3893 0.631791 0.775139 0  255 255 255 255
-1.01372 74.165 7.18107 0.800449 0.599401 0  255 255 255 255
-4.47164 76.1634 6.45911 0.119756 0.992803 0  255 255 255 255
-0.031949 71.6888 23.9744 0.993711 0.111977 0  255 255 255 255
-4.62429 76.1795 24.0461 0.089707 0.995968 0  255 255 255 255
-0.019501 71.5647 6.40955 0.996161 0.087538 0  255 255 255 255
-1.78343 74.9851 8.1276 0.648931 0.760847 0  255 255 255 255
-3.77858 76.0305 8.34446 0.256185 0.966628 0  255 255 255 255
-0.222234 72.6061 22.2071 0.956253 0.292541 0  255 255 255 255
-3.56114 75.9676 20.6781 0.298989 0.954256 0  255 255 255 255
-0.314687 72.8802 20.7017 0.938054 0.34649 0  255 255 255 255
-0.809955 73.8719 21.7039 0.84056 0.541718 0  255 255 255 255
-2.38872 75.4285 21.6479 0.529779 0.848136 0  255 255 255 255
-3.53407 75.9591 19.9001 0.304316 0.952571 0  255 255 255 255
-0.282701 72.791 19.838 0.94435 0.328942 0  255 255 255 255
-3.36269 75.9009 18.9858 0.338053 0.941127 0  255 255 255 255
-3.4475 75.9305 18.0442 0.321359 0.946957 0  255 255 255 255
-3.34862 75.8958 17.0928 0.340823 0.940127 0  255 255 255 255
-3.49529 75.9465 16.1812 0.31195 0.950098 0  255 255 255 255
-3.48503 75.9431 15.3325 0.313971 0.949433 0  255 255 255 255
-3.42025 75.9212 14.4495 0.326723 0.94512 0  255 255 255 255
-3.28525 75.8724 13.4788 0.353297 0.935511 0  255 255 255 255
-3.39501 75.9124 12.5508 0.331692 0.943388 0  255 255 255 255
-3.28773 75.8733 11.6358 0.35281 0.935695 0  255 255 255 255
-3.38243 75.908 10.7576 0.334168 0.942513 0  255 255 255 255
-3.24706 75.8578 9.95985 0.360815 0.932637 0  255 255 255 255
-0.309148 72.8651 18.9303 0.939144 0.343523 0  255 255 255 255
-0.273221 72.7636 18.0216 0.946216 0.323535 0  255 255 255 255
-0.30583 72.856 17.083 0.939797 0.341733 0  255 255 255 255
-0.254426 72.7075 16.1767 0.949916 0.312505 0  255 255 255 255
-0.257815 72.7178 15.3305 0.949249 0.314526 0  255 255 255 255
-0.280116 72.7836 14.4488 0.944859 0.327477 0  255 255 255 255
-0.329759 72.9204 13.4791 0.935087 0.354419 0  255 255 255 255
-0.290016 72.8119 12.5523 0.94291 0.333047 0  255 255 255 255
-0.329649 72.9202 11.6395 0.935108 0.354362 0  255 255 255 255
-0.293425 72.8215 10.7668 0.942239 0.334941 0  255 255 255 255
-0.336133 72.9372 9.98088 0.933832 0.357712 0  255 255 255 255
-0.125645 72.2428 9.27351 0.975267 0.221031 0  255 255 255 255
-3.94841 76.0724 9.14373 0.222754 0.974875 0  255 255 255 255
-0.893883 73.998 8.94474 0.824039 0.566533 0  255 255 255 255
-2.30761 75.3768 20.461 0.545746 0.837951 0  255 255 255 255
-2.00056 75.1602 9.44374 0.60619 0.79532 0  255 255 255 255
-1.04408 74.2051 20.5109 0.794473 0.607299 0  255 255 255 255
-2.08342 75.2221 19.53 0.589879 0.807492 0  255 255 255 255
-0.96716 74.1018 19.5975 0.809614 0.586962 0  255 255 255 255
-2.24817 75.3375 18.282 0.557447 0.830213 0  255 255 255 255
-0.865211 73.9558 18.2677 0.829683 0.558235 0  255 255 255 255
-2.05013 75.1975 17.5529 0.59643 0.802665 0  255 255 255 255
-1.00501 74.1533 17.5462 0.802163 0.597105 0  255 255 255 255
-2.27571 75.3558 16.3214 0.552027 0.833827 0  255 255 255 255
-0.845956 73.927 16.3179 0.833473 0.55256 0  255 255 255 255
-2.11913 75.2479 15.5313 0.582848 0.812581 0  255 255 255 255
-0.954466 74.0842 15.5299 0.812113 0.5835 0  255 255 255 255
-2.0557 75.2017 14.6756 0.595335 0.803477 0  255 255 255 255
-1.0018 74.149 14.6751 0.802796 0.596254 0  255 255 255 255
-1.98971 75.1519 13.8995 0.608325 0.793688 0  255 255 255 255
-1.05298 74.2167 13.8994 0.792721 0.609585 0  255 255 255 255
-2.2103 75.3118 12.7779 0.564901 0.825158 0  255 255 255 255
-0.894599 73.999 12.7786 0.823898 0.566738 0  255 255 255 255
-2.02834 75.1813 12.1042 0.60072 0.79946 0  255 255 255 255
-1.02702 74.1826 12.1052 0.797831 0.602881 0  255 255 255 255
-2.22473 75.3216 10.978 0.56206 0.827096 0  255 255 255 255
-0.888359 73.9899 10.9817 0.825126 0.564948 0  255 255 255 255
-2.05472 75.2009 10.2875 0.595528 0.803334 0  255 255 255 255
-1.0143 74.1657 10.3103 0.800334 0.599554 0  255 255 255 255
-4.16971 76.1178 22.0278 0.17919 0.983814 0  255 255 255 255
-0.098794 72.117 8.29296 0.980552 0.196257 0  255 255 255 255
-2.29542 75.3688 8.55471 0.548146 0.836383 0  255 255 255 255
-0.096535 72.1056 21.3441 0.980997 0.194022 0  255 255 255 255
-1.06134 74.2275 21.1982 0.791074 0.61172 0  255 255 255 255
-1.1885 74.3854 24.4996 0.766042 0.64279 0  255 255 255 255
-1.80026 74.9994 6.00001 0.645618 0.76366 0  255 255 255 255
-1.07682 74.2475 9.68244 0.788028 0.615639 0  255 255 255 255
-1.95286 75.1234 18.8323 0.61558 0.788075 0  255 255 255 255
-1.07876 74.2499 18.8353 0.787646 0.616128 0  255 255 255 255
-1.94814 75.1197 16.8646 0.616508 0.787348 0  255 255 255 255
-1.08244 74.2546 16.8611 0.786921 0.617054 0  255 255 255 255
-1.91306 75.092 13.2735 0.623413 0.781892 0  255 255 255 255
-1.11431 74.2949 13.2737 0.780648 0.624971 0  255 255 255 255
-1.92804 75.1039 11.4786 0.620465 0.784234 0  255 255 255 255
-1.10573 74.2841 11.48 0.782336 0.622857 0  255 255 255 255
-1.68979 74.9032 22.4188 0.667364 0.744732 0  255 255 255 255
-1.24736 74.4543 8.06432 0.754457 0.656349 0  255 255 255 255
-2.17081 75.2845 7.8657 0.572676 0.819782 0  255 255 255 255
-1.03125 74.1882 22.4185 0.796998 0.603982 0  255 255 255 255
-3.36511 75.9018 7.8731 0.337577 0.941298 0  255 255 255 255
-3.25777 75.8619 22.3422 0.358706 0.933451 0  255 255 255 255
-4.38862 76.1527 8.38352 0.136099 0.990695 0  255 255 255 255
-0.048259 71.8186 22.148 0.9905 0.137511 0  255 255 255 255
-0.078504 72.0096 20.3195 0.984546 0.175124 0  255 255 255 255
-0.074959 71.9895 19.3925 0.985244 0.171154 0  255 255 255 255
-0.073395 71.9804 18.4737 0.985552 0.169372 0  255 255 255 255
-0.079685 72.0162 11.1463 0.984314 0.176426 0  255 255 255 255
-0.072449 71.9749 17.5515 0.985738 0.168285 0  255 255 255 255
-4.18605 76.1207 11.1391 0.175975 0.984395 0  255 255 255 255
-0.06998 71.9603 16.6319 0.986224 0.165413 0  255 255 255 255
-0.066041 71.9365 15.7287 0.987 0.160722 0  255 255 255 255
-0.068659 71.9524 14.8287 0.986484 0.163855 0  255 255 255 255
-0.075472 71.9924 13.907 0.985143 0.171734 0  255 255 255 255
-0.077607 72.0046 12.9759 0.984723 0.174128 0  255 255 255 255
-0.078201 72.0079 12.0548 0.984606 0.174787 0  255 255 255 255
-4.19562 76.1224 12.0527 0.174091 0.98473 0  255 255 255 255
-4.19868 76.123 12.9753 0.173489 0.984836 0  255 255 255 255
-4.21012 76.125 13.9071 0.171236 0.98523 0  255 255 255 255
-4.24947 76.1316 14.8295 0.163491 0.986545 0  255 255 255 255
-4.26521 76.1342 15.7306 0.160392 0.987053 0  255 255 255 255
-4.24218 76.1304 16.6361 0.164926 0.986306 0  255 255 255 255
-4.23072 76.1285 17.5605 0.16718 0.985926 0  255 255 255 255
-4.23479 76.1292 18.4913 0.166381 0.986062 0  255 255 255 255
-4.25591 76.1327 19.4114 0.162223 0.986754 0  255 255 255 255
-4.28872 76.138 20.2981 0.155763 0.987794 0  255 255 255 255
-0.565924 73.4501 7.3137 0.888598 0.458687 0  255 255 255 255
-1.92583 75.1022 24.1096 0.620899 0.783891 0  255 255 255 255
-1.03824 74.1974 6.3805 0.795623 0.605792 0  255 255 255 255
-4.25783 76.133 21.1589 0.161844 0.986816 0  255 255 255 255
-4.14439 76.1131 10.2201 0.184176 0.982893 0  255 255 255 255
-0.086308 72.0524 10.2479 0.98301 0.183551 0  255 255 255 255
-1.7242 74.9338 21.7169 0.660591 0.750746 0  255 255 255 255
-48.4107 1.8857 2.18816 -0.529675 -0.628798 -0.56926  255 255 255 255
-48.2181 2.4956 1.49017 -0.491746 -0.50874 -0.70666  255 255 255 255
-48.1897 0.920044 3.53032 -0.486171 -0.818889 -0.305055  255 255 255 255
-48.0736 3.15769 1.00917 -0.463307 -0.378407 -0.801345  255 255 255 255
-47.1347 0.744417 2.8422 -0.278483 -0.853461 -0.440513  255 255 255 255
-49.8857 3.2011 2.86121 -0.820021 -0.369862 -0.436769  255 255 255 255
-47.3069 3.11321 0.673203 -0.312384 -0.387163 -0.86748  255 255 255 255
-47.4903 0.580215 3.52293 -0.34848 -0.885784 -0.306509  255 255 255 255
-50.2058 3.15373 3.67507 -0.883024 -0.379187 -0.27656  255 255 255 255
-47.201 3.80621 0.390607 -0.291542 -0.250746 -0.923109  255 255 255 255
-46.8456 0.310838 3.74042 -0.221578 -0.938811 -0.263697  255 255 255 255
-50.477 3.84859 3.79112 -0.936413 -0.242402 -0.253716  255 255 255 255
-47.1497 4.38409 0.255272 -0.281442 -0.13699 -0.94975  255 255 255 255
-46.8027 4.62529 0.137585 -0.213124 -0.089509 -0.972916  255 255 255 255
-46.5942 0.114413 4.45942 -0.172087 -0.977478 -0.122161  255 255 255 255
-50.6815 4.17 4.47858 -0.976675 -0.179133 -0.11839  255 255 255 255
-46.2719 4.59379 0.053528 -0.10864 -0.09571 -0.989463  255 255 255 255
-49.3716 3.28265 2.03993 -0.718811 -0.353808 -0.59844  255 255 255 255
-49.3723 1.97647 3.39617 -0.718955 -0.61093 -0.331463  255 255 255 255
-47.5179 1.20886 2.32533 -0.353917 -0.762036 -0.542258  255 255 255 255
-49.2678 4.21827 1.54778 -0.698395 -0.169631 -0.695319  255 255 255 255
-47.4316 2.44304 1.0896 -0.336928 -0.519087 -0.785512  255 255 255 255
-49.8438 2.53726 3.55198 -0.81178 -0.500539 -0.300791  255 255 255 255
-48.5999 3.98402 1.04126 -0.566908 -0.215744 -0.795028  255 255 255 255
-46.5828 2.44883 0.821024 -0.169847 -0.517947 -0.838381  255 255 255 255
-47.9 3.81217 0.670146 -0.429125 -0.249572 -0.868082  255 255 255 255
-49.2287 1.50802 4.22176 -0.690683 -0.703146 -0.168945  255 255 255 255
-46.8736 0.49777 3.21486 -0.227088 -0.902014 -0.367154  255 255 255 255
-50.2628 3.724 3.25505 -0.894256 -0.266929 -0.359242  255 255 255 255
-46.5708 0.907912 2.3094 -0.167477 -0.821277 -0.545394  255 255 255 255
-49.2538 2.41966 2.58176 -0.695631 -0.52369 -0.491779  255 255 255 255
-49.8083 4.14231 2.21414 -0.804778 -0.184585 -0.564146  255 255 255 255
-50.036 2.51619 4.3018 -0.849603 -0.504686 -0.153188  255 255 255 255
-48.034 0.658587 4.12981 -0.455514 -0.870357 -0.187046  255 255 255 255
-46.5162 3.18008 0.436421 -0.156726 -0.374 -0.91409  255 255 255 255
-47.7365 4.43216 0.462604 -0.396953 -0.127527 -0.908936  255 255 255 255
-50.4029 3.23533 4.3912 -0.921822 -0.363124 -0.135591  255 255 255 255
-47.4728 0.372258 4.32426 -0.345046 -0.926721 -0.148768  255 255 255 255
-48.6233 0.995588 4.2464 -0.571514 -0.804018 -0.164094  255 255 255 255
-50.1479 4.09405 2.7936 -0.871642 -0.194085 -0.450078  255 255 255 255
-46.3284 0.391645 3.22107 -0.119754 -0.922904 -0.365932  255 255 255 255
-50.4006 4.38137 3.23332 -0.92138 -0.137526 -0.363519  255 255 255 255
-46.5318 0.609609 2.80779 -0.159806 -0.879998 -0.447286  255 255 255 255
-46.2463 0.197207 3.78085 -0.103594 -0.96118 -0.255738  255 255 255 255
-50.6016 4.50653 3.79646 -0.960946 -0.112887 -0.252665  255 255 255 255
-48.2867 1.28962 2.87743 -0.505263 -0.746137 -0.433577  255 255 255 255
-46.4927 4.00514 0.175512 -0.152108 -0.211586 -0.96545  255 255 255 255
-46.7282 1.36873 1.7609 -0.198463 -0.730565 -0.653367  255 255 255 255
-48.8476 2.63803 1.90806 -0.615672 -0.480702 -0.624398  255 255 255 255
-49.6655 2.03423 4.09865 -0.776665 -0.59956 -0.193179  255 255 255 255
-46.7171 1.86169 1.27806 -0.196272 -0.633526 -0.748413  255 255 255 255
-49.6211 2.51241 3.08127 -0.767942 -0.505431 -0.393451  255 255 255 255
-48.7771 3.26802 1.44991 -0.601782 -0.356689 -0.714585  255 255 255 255
-46.2254 1.52992 1.48167 -0.099481 -0.698834 -0.708332  255 255 255 255
-48.8619 1.74653 2.88388 -0.618481 -0.656195 -0.432307  255 255 255 255
-47.5346 1.82217 1.63035 -0.357209 -0.641306 -0.679064  255 255 255 255
-47.7427 0.909861 3.00031 -0.398164 -0.820893 -0.409389  255 255 255 255
-49.3089 4.79109 1.49633 -0.706478 -0.056871 -0.705447  255 255 255 255
-48.3248 4.47101 0.761391 -0.512762 -0.11988 -0.85012  255 255 255 255
-48.7994 1.35894 3.50607 -0.606185 -0.732493 -0.309829  255 255 255 255
-2.30914 74.1775 2.11677 0.545445 0.601861 -0.583312  255 255 255 255
-2.57618 73.7734 1.54495 0.492879 0.522328 -0.695876  255 255 255 255
-1.08308 73.5248 3.0681 0.786795 0.473395 -0.396044  255 255 255 255
-2.76266 73.232 1.083 0.456169 0.415739 -0.786811  255 255 255 255
-0.887992 72.741 2.71236 0.825198 0.3191 -0.466072  255 255 255 255
-3.33623 75.2827 2.74816 0.343262 0.819431 -0.459024  255 255 255 255
-3.49231 73.209 0.730109 0.312537 0.411228 -0.856278  255 255 255 255
-3.19096 75.5906 3.57952 0.371858 0.880045 -0.295369  255 255 255 255
-3.54599 72.5893 0.465414 0.301971 0.28923 -0.908383  255 255 255 255
-0.322989 72.1974 3.65999 0.936419 0.212089 -0.27953  255 255 255 255
-3.87345 75.8713 3.74753 0.237509 0.935302 -0.262298  255 255 255 255
-3.95742 72.2104 0.24707 0.22098 0.21465 -0.951364  255 255 255 255
-4.56023 72.3709 0.183929 0.102317 0.246238 -0.963794  255 255 255 255
-0.116055 71.9861 4.43538 0.977155 0.17049 -0.126894  255 255 255 255
-4.17607 76.0808 4.46361 0.177939 0.976532 -0.121336  255 255 255 255
-4.44197 71.7469 0.079374 0.125596 0.123414 -0.984375  255 255 255 255
-1.58424 73.0546 1.94255 0.688142 0.380817 -0.617608  255 255 255 255
-1.16816 72.6562 2.22621 0.770046 0.302397 -0.561769  255 255 255 255
-2.02972 74.5636 2.92502 0.600448 0.677871 -0.424208  255 255 255 255
-1.78893 72.6114 1.50913 0.647849 0.293574 -0.702927  255 255 255 255
-3.64887 74.4603 1.53024 0.281719 0.657536 -0.698771  255 255 255 255
-2.56328 75.177 3.34403 0.495417 0.798615 -0.341725  255 255 255 255
-3.38 73.9116 1.19109 0.334646 0.54952 -0.765533  255 255 255 255
-3.52843 74.8488 1.99856 0.305427 0.73401 -0.606583  255 255 255 255
-2.25494 72.5856 1.12054 0.556115 0.288512 -0.779421  255 255 255 255
-4.22065 73.7829 0.84006 0.169163 0.524185 -0.834634  255 255 255 255
-2.90828 72.5824 0.726688 0.427505 0.287879 -0.856951  255 255 255 255
-0.575088 72.1088 2.95057 0.886794 0.19464 -0.41918  255 255 255 255
-1.32929 74.2368 3.65723 0.738328 0.613539 -0.280073  255 255 255 255
-3.78266 75.654 3.19149 0.255383 0.892512 -0.371754  255 255 255 255
-0.918978 72.0111 2.30542 0.819099 0.175407 -0.546177  255 255 255 255
-2.49472 75.4057 4.2108 0.508913 0.843642 -0.171102  255 255 255 255
-4.22943 75.2195 2.20303 0.167435 0.806991 -0.566332  255 255 255 255
-4.26457 72.9819 0.424368 0.160517 0.36651 -0.916463  255 255 255 255
-3.24136 75.7988 4.34901 0.361936 0.92103 -0.143896  255 255 255 255
-0.389906 72.8906 4.25875 0.923247 0.348541 -0.161663  255 255 255 255
-1.63452 73.7709 2.45171 0.678245 0.521826 -0.51738  255 255 255 255
-3.18446 71.8861 0.429582 0.373137 0.150812 -0.915437  255 255 255 255
-0.783469 73.5914 3.96714 0.845774 0.486494 -0.219067  255 255 255 255
-0.375222 71.6371 3.23499 0.926137 0.101796 -0.36319  255 255 255 255
-4.40859 75.794 3.20676 0.132167 0.920086 -0.368747  255 255 255 255
-4.15763 75.5406 2.7533 0.181568 0.870206 -0.458012  255 255 255 255
-0.198807 71.6163 3.76316 0.960865 0.097691 -0.259221  255 255 255 255
-4.51833 75.9985 3.77941 0.110564 0.960328 -0.256021  255 255 255 255
-2.78459 74.7459 2.36148 0.451853 0.713759 -0.535142  255 255 255 255
-3.81398 71.621 0.185863 0.249218 0.098623 -0.963413  255 255 255 255
-1.35434 72.2459 1.81531 0.733398 0.221634 -0.642656  255 255 255 255
-1.88352 74.8941 3.92032 0.629229 0.742938 -0.228284  255 255 255 255
-4.10939 74.2918 1.23243 0.191064 0.624377 -0.757396  255 255 255 255
-2.02114 73.6105 1.87891 0.602139 0.490263 -0.630136  255 255 255 255
-2.13682 73.1639 1.4791 0.579365 0.402347 -0.708839  255 255 255 255
-2.65808 74.9747 2.82571 0.476756 0.758803 -0.443758  255 255 255 255
-1.4861 74.051 3.00644 0.707461 0.576964 -0.40818  255 255 255 255
-4.26923 74.7482 1.61801 0.1596 0.714208 -0.681494  255 255 255 255
-3.0146 74.356 1.75304 0.406575 0.637012 -0.654914  255 255 255 255
-1.23988 73.1664 2.45853 0.75593 0.402835 -0.516037  255 255 255 255
-0.610729 72.867 3.41264 0.879778 0.343893 -0.328221  255 255 255 255
-2.36946 71.8834 0.851929 0.533572 0.150274 -0.832297  255 255 255 255
-1.74976 71.9389 1.33228 0.655558 0.161195 -0.737739  255 255 255 255
-1.40811 74.5693 4.42723 0.722813 0.678992 -0.128498  255 255 255 255
-1.03294 74.122 4.43514 0.796665 0.590941 -0.126941  255 255 255 255
-49.2665 67.2472 1.4429 -0.698136 0 -0.715965  255 255 255 255
-49.2896 65.7778 1.46556 -0.702682 0 -0.711504  255 255 255 255
-49.2577 64.8155 1.43433 -0.696403 0 -0.717651  255 255 255 255
-49.2721 63.8254 1.44835 -0.699235 0 -0.714892  255 255 255 255
-49.2863 62.8086 1.4623 -0.702033 0 -0.712145  255 255 255 255
-49.296 61.8168 1.47185 -0.703933 0 -0.710267  255 255 255 255
-49.3024 60.7705 1.4782 -0.705192 0 -0.709016  255 255 255 255
-49.3057 59.9519 1.48153 -0.705851 0 -0.70836  255 255 255 255
-49.3082 59.0413 1.48398 -0.706335 0 -0.707877  255 255 255 255
-49.3098 58.0605 1.48557 -0.706649 0 -0.707565  255 255 255 255
-49.3107 57.0896 1.48654 -0.706839 0 -0.707374  255 255 255 255
-49.3113 56.0591 1.48712 -0.706954 0 -0.70726  255 255 255 255
-49.3116 55.2526 1.4874 -0.70701 0 -0.707204  255 255 255 255
-49.3118 54.3576 1.4876 -0.707048 0 -0.707166  255 255 255 255
-49.3119 53.4031 1.48772 -0.707072 0 -0.707142  255 255 255 255
-49.312 52.4744 1.48779 -0.707086 0 -0.707128  255 255 255 255
-49.312 51.5121 1.48783 -0.707094 0 -0.70712  255 255 255 255
-49.3121 50.5789 1.48786 -0.707099 0 -0.707114  255 255 255 255
-49.3121 49.6089 1.48787 -0.707102 0 -0.707111  255 255 255 255
-49.3121 48.6586 1.48788 -0.707104 0 -0.707109  255 255 255 255
-49.3121 47.623 1.48789 -0.707105 0 -0.707108  255 255 255 255
-49.3121 46.763 1.48789 -0.707106 0 -0.707108  255 255 255 255
-49.3121 45.8032 1.4879 -0.707106 0 -0.707107  255 255 255 255
-49.3121 44.795 1.4879 -0.707107 0 -0.707107  255 255 255 255
-49.3121 43.7918 1.4879 -0.707107 0 -0.707107  255 255 255 255
-49.3121 42.6934 1.4879 -0.707107 0 -0.707107  255 255 255 255
-49.3121 41.8106 1.4879 -0.707107 0 -0.707107  255 255 255 255
-49.3121 41.0158 1.4879 -0.707107 0 -0.707107  255 255 255 255
-49.3121 40.0953 1.4879 -0.707107 0 -0.707107  255 255 255 255
-49.3121 39.075 1.4879 -0.707107 0 -0.707107  255 255 255 255
-49.3121 38.0359 1.4879 -0.707107 0 -0.707107  255 255 255 255
-49.3121 36.8588 1.4879 -0.707107 0 -0.707107  255 255 255 255
-49.3121 35.8592 1.4879 -0.707107 0 -0.707107  255 255 255 255
-49.3121 34.8961 1.4879 -0.707107 0 -0.707107  255 255 255 255
-49.3121 33.9438 1.4879 -0.707107 0 -0.707107  255 255 255 255
-49.3121 32.9957 1.4879 -0.707107 0 -0.707107  255 255 255 255
-49.3121 32.0498 1.4879 -0.707107 0 -0.707107  255 255 255 255
-49.3121 31.1052 1.4879 -0.707107 0 -0.707107  255 255 255 255
-49.3121 30.1618 1.4879 -0.707107 0 -0.707107  255 255 255 255
-49.3121 29.2196 1.4879 -0.707107 0 -0.707107  255 255 255 255
-49.3121 28.2789 1.4879 -0.707107 0 -0.707107  255 255 255 255
-49.3121 27.3401 1.4879 -0.707107 0 -0.707107  255 255 255 255
-49.3121 26.4042 1.4879 -0.707107 0 -0.707107  255 255 255 255
-49.3121 25.4724 1.4879 -0.707107 0 -0.707107  255 255 255 255
-49.3121 24.5466 1.4879 -0.707106 0 -0.707107  255 255 255 255
-49.3121 23.6299 1.48789 -0.707106 0 -0.707108  255 255 255 255
-49.3121 22.728 1.48788 -0.707104 0 -0.707109  255 255 255 255
-49.3121 21.8519 1.48787 -0.707102 0 -0.707111  255 255 255 255
-49.3121 21.0213 1.48786 -0.707099 0 -0.707115  255 255 255 255
-49.312 20.2446 1.48784 -0.707094 0 -0.707119  255 255 255 255
-49.312 19.3351 1.48781 -0.707089 0 -0.707125  255 255 255 255
-49.312 18.3236 1.4878 -0.707088 0 -0.707126  255 255 255 255
-49.3121 17.2948 1.48791 -0.707108 0 -0.707105  255 255 255 255
-49.3125 16.1346 1.48833 -0.707193 0 -0.707021  255 255 255 255
-49.3134 15.1565 1.4892 -0.707364 0 -0.70685  255 255 255 255
-49.315 14.2245 1.49081 -0.707679 0 -0.706534  255 255 255 255
-49.3176 13.3181 1.49345 -0.708197 0 -0.706014  255 255 255 255
-49.3216 12.4391 1.49745 -0.708982 0 -0.705226  255 255 255 255
-49.3274 11.5993 1.50323 -0.710112 0 -0.704089  255 255 255 255
-49.3361 10.8168 1.5121 -0.711839 0 -0.702343  255 255 255 255
-49.3567 10.1094 1.53306 -0.715887 0 -0.698217  255 255 255 255
-49.3165 8.98126 1.49229 -0.707971 0 -0.706242  255 255 255 255
-49.0664 68.7131 1.25796 -0.658741 0 -0.75237  255 255 255 255
-49.5869 66.5704 1.78548 -0.761192 0 -0.648527  255 255 255 255
-49.4514 9.54276 1.63284 -0.734532 0 -0.678574  255 255 255 255
-49.1665 7.51086 1.34794 -0.678438 0 -0.734658  255 255 255 255
-49.917 69.5266 2.21789 -0.826179 0 -0.563408  255 255 255 255
-49.9779 6.46245 2.30925 -0.838161 0 -0.545423  255 255 255 255
-50.5058 7.37506 3.37644 -0.942095 0 -0.335346  255 255 255 255
-47.7606 68.6116 0.427846 -0.401684 0 -0.915778  255 255 255 255
-47.9561 7.65499 0.518617 -0.440179 0 -0.89791  255 255 255 255
-50.3671 69.6093 3.02795 -0.914782 0 -0.403948  255 255 255 255
-50.4559 6.62183 3.24219 -0.932266 0 -0.361774  255 255 255 255
-47.8508 69.4751 0.468483 -0.419449 0 -0.907779  255 255 255 255
-47.9934 6.84358 0.537101 -0.447525 0 -0.894271  255 255 255 255
-50.6332 69.677 3.78893 -0.967166 0 -0.254147  255 255 255 255
-50.6904 6.49432 4.03062 -0.978432 0 -0.206572  255 255 255 255
-47.0366 69.6819 0.173568 -0.259165 0 -0.965833  255 255 255 255
-47.0912 6.64544 0.188563 -0.269925 0 -0.962881  255 255 255 255
-50.7167 70.47 4.16378 -0.983601 0 -0.180357  255 255 255 255
-50.7599 5.8302 4.44306 -0.992108 0 -0.125383  255 255 255 255
-46.6511 70.4706 0.086066 -0.183295 0 -0.983058  255 255 255 255
-46.6684 5.76379 0.089306 -0.186684 0 -0.98242  255 255 255 255
-50.0192 68.3764 2.37384 -0.846298 0 -0.532709  255 255 255 255
-49.9953 8.1715 2.3363 -0.841601 0 -0.540099  255 255 255 255
-48.1363 67.9103 0.611459 -0.475651 0 -0.879634  255 255 255 255
-48.2864 8.15972 0.695929 -0.505194 0 -0.863006  255 255 255 255
-50.3878 67.0731 3.0755 -0.918859 0 -0.394586  255 255 255 255
-50.1793 66.5268 2.64661 -0.877807 0 -0.479014  255 255 255 255
-50.2878 65.9255 2.85705 -0.899175 0 -0.437589  255 255 255 255
-50.2054 65.2827 2.69509 -0.882948 0 -0.469471  255 255 255 255
-50.0756 64.5551 2.46557 -0.857399 0 -0.514652  255 255 255 255
-50.2588 63.9926 2.79836 -0.893461 0 -0.449142  255 255 255 255
-50.2004 63.3165 2.68569 -0.881962 0 -0.471321  255 255 255 255
-50.0873 62.5883 2.48519 -0.859707 0 -0.510788  255 255 255 255
-50.2792 62.048 2.83941 -0.897477 0 -0.441062  255 255 255 255
-50.2413 61.3641 2.76385 -0.890013 0 -0.455935  255 255 255 255
-50.1804 60.546 2.64867 -0.878028 0 -0.478609  255 255 255 255
-50.0723 59.786 2.46004 -0.856745 0 -0.515741  255 255 255 255
-50.2605 59.2463 2.80169 -0.89379 0 -0.448486  255 255 255 255
-50.2058 58.5742 2.69589 -0.883032 0 -0.469313  255 255 255 255
-50.0947 57.8536 2.49763 -0.861157 0 -0.50834  255 255 255 255
-50.2833 57.3228 2.84785 -0.898292 0 -0.439399  255 255 255 255
-50.2447 56.6457 2.77053 -0.890685 0 -0.45462  255 255 255 255
-50.1824 55.8361 2.65229 -0.878416 0 -0.477896  255 255 255 255
-50.0724 55.0858 2.46026 -0.856771 0 -0.515698  255 255 255 255
-50.2577 54.5499 2.79619 -0.893246 0 -0.449569  255 255 255 255
-50.1992 53.8875 2.68351 -0.881732 0 -0.47175  255 255 255 255
-50.0812 53.1849 2.4749 -0.858499 0 -0.512816  255 255 255 255
-50.2609 52.6511 2.80253 -0.893873 0 -0.448321  255 255 255 255
-50.2013 51.9935 2.68736 -0.882138 0 -0.470992  255 255 255 255
-50.0827 51.2919 2.47747 -0.858801 0 -0.512309  255 255 255 255
-50.2624 50.7583 2.80553 -0.894169 0 -0.44773  255 255 255 255
-50.2035 50.1001 2.69153 -0.882575 0 -0.470172  255 255 255 255
-50.0874 49.3962 2.48536 -0.859726 0 -0.510756  255 255 255 255
-50.2687 48.8697 2.81812 -0.895405 0 -0.445252  255 255 255 255
-50.2177 48.2254 2.71835 -0.885368 0 -0.464892  255 255 255 255
-50.1368 47.6138 2.5704 -0.869453 0 -0.494016  255 255 255 255
-50.2279 47.091 2.73793 -0.88738 0 -0.461038  255 255 255 255
-50.1004 46.5167 2.50738 -0.862286 0 -0.506422  255 255 255 255
-50.2707 45.9862 2.82222 -0.895807 0 -0.444444  255 255 255 255
-50.2148 45.3201 2.71289 -0.884803 0 -0.465966  255 255 255 255
-50.1049 44.5914 2.51506 -0.863172 0 -0.50491  255 255 255 255
-50.2962 44.0605 2.87436 -0.900826 0 -0.434181  255 255 255 255
-50.2666 43.3695 2.81393 -0.894995 0 -0.446077  255 255 255 255
-50.2278 42.5283 2.73782 -0.887369 0 -0.46106  255 255 255 255
-50.1767 41.6528 2.64195 -0.877307 0 -0.47993  255 255 255 255
-50.0738 40.8707 2.46255 -0.857042 0 -0.515246  255 255 255 255
-50.2644 40.3288 2.80956 -0.894566 0 -0.446937  255 255 255 255
-50.2135 39.6369 2.71049 -0.884553 0 -0.466439  255 255 255 255
-50.1088 38.883 2.52173 -0.863939 0 -0.503597  255 255 255 255
-50.3046 38.3457 2.89188 -0.90248 0 -0.430732  255 255 255 255
-50.2833 37.6303 2.84779 -0.898286 0 -0.439411  255 255 255 255
-50.2634 36.7507 2.80756 -0.894369 0 -0.447331  255 255 255 255
-50.2542 35.8167 2.78918 -0.892549 0 -0.45095  255 255 255 255
-50.2501 34.8714 2.78111 -0.891745 0 -0.452537  255 255 255 255
-50.2482 33.9249 2.77746 -0.891381 0 -0.453255  255 255 255 255
-50.2473 32.9789 2.77576 -0.89121 0 -0.453591  255 255 255 255
-50.2469 32.0339 2.77494 -0.891128 0 -0.453752  255 255 255 255
-50.2467 31.0897 2.77453 -0.891087 0 -0.453833  255 255 255 255
-50.2466 30.1463 2.77429 -0.891063 0 -0.45388  255 255 255 255
-50.2465 29.2039 2.7741 -0.891043 0 -0.453918  255 255 255 255
-50.2464 28.2626 2.77383 -0.891017 0 -0.45397  255 255 255 255
-50.2461 27.323 2.77336 -0.89097 0 -0.454062  255 255 255 255
-50.2456 26.3856 2.77242 -0.890876 0 -0.454247  255 255 255 255
-50.2447 25.4513 2.77049 -0.890682 0 -0.454627  255 255 255 255
-50.2426 24.5213 2.76651 -0.890281 0 -0.455412  255 255 255 255
-50.2384 23.5973 2.75825 -0.889447 0 -0.457038  255 255 255 255
-50.2295 22.6811 2.74106 -0.8877 0 -0.460422  255 255 255 255
-50.2106 21.7755 2.70494 -0.883977 0 -0.467531  255 255 255 255
-50.1687 20.8894 2.62742 -0.875735 0 -0.482791  255 255 255 255
-50.0697 20.1081 2.45584 -0.856247 0 -0.516566  255 255 255 255
-50.2619 19.5712 2.80455 -0.894072 0 -0.447923  255 255 255 255
-50.212 18.8821 2.70753 -0.884246 0 -0.467022  255 255 255 255
-50.1078 18.1328 2.51994 -0.863733 0 -0.503949  255 255 255 255
-50.3037 17.5988 2.89002 -0.902305 0 -0.431099  255 255 255 255
-50.2824 16.8899 2.84589 -0.898102 0 -0.439786  255 255 255 255
-50.262 16.0215 2.80487 -0.894104 0 -0.44786  255 255 255 255
-50.2517 15.1043 2.78428 -0.892062 0 -0.451913  255 255 255 255
-50.2449 14.1835 2.77097 -0.89073 0 -0.454533  255 255 255 255
-50.2369 13.2723 2.7554 -0.889159 0 -0.457599  255 255 255 255
-50.2225 12.3776 2.72759 -0.88632 0 -0.463072  255 255 255 255
-50.1933 11.5097 2.67247 -0.880566 0 -0.473923  255 255 255 255
-50.1355 10.6957 2.56805 -0.86919 0 -0.494478  255 255 255 255
-50.0385 9.96448 2.40482 -0.850107 0 -0.52661  255 255 255 255
-50.2556 9.50303 2.79196 -0.892826 0 -0.450401  255 255 255 255
-50.3163 8.82211 2.9165 -0.904777 0 -0.425886  255 255 255 255
-47.6544 67.2952 0.382701 -0.380781 0 -0.924665  255 255 255 255
-47.8346 66.4469 0.461054 -0.41627 0 -0.909241  255 255 255 255
-48.0652 65.7257 0.573742 -0.461657 0 -0.887059  255 255 255 255
-47.9305 65.151 0.506149 -0.435137 0 -0.900364  255 255 255 255
-48.2083 64.5526 0.651123 -0.489815 0 -0.871826  255 255 255 255
-47.9124 63.9942 0.497468 -0.431583 0 -0.902073  255 255 255 255
-48.0473 63.3181 0.564467 -0.458131 0 -0.888885  255 255 255 255
-48.2658 62.5892 0.683959 -0.501147 0 -0.865362  255 255 255 255
-47.9249 62.0486 0.503439 -0.434031 0 -0.900898  255 255 255 255
-48.0099 61.3644 0.545385 -0.450769 0 -0.892641  255 255 255 255
-48.1333 60.5462 0.609843 -0.475062 0 -0.879952  255 255 255 255
-48.3276 59.7861 0.72032 -0.513307 0 -0.858205  255 255 255 255
-47.9895 59.2464 0.535151 -0.446757 0 -0.894655  255 255 255 255
-48.0979 58.5742 0.590877 -0.468081 0 -0.883686  255 255 255 255
-48.298 57.8536 0.702774 -0.507488 0 -0.861659  255 255 255 255
-47.9491 57.3229 0.515187 -0.438799 0 -0.898585  255 255 255 255
-48.0273 56.6457 0.554221 -0.454197 0 -0.890901  255 255 255 255
-48.1463 55.8361 0.616868 -0.477615 0 -0.878569  255 255 255 255
-48.3388 55.0858 0.727032 -0.51551 0 -0.856884  255 255 255 255
-48.0031 54.5499 0.541973 -0.449436 0 -0.893312  255 255 255 255
-48.116 53.8875 0.600545 -0.471656 0 -0.881783  255 255 255 255
-48.3248 53.1849 0.718627 -0.51275 0 -0.858538  255 255 255 255
-47.9972 52.6511 0.539007 -0.448274 0 -0.893896  255 255 255 255
-48.1125 51.9935 0.598649 -0.470958 0 -0.882156  255 255 255 255
-48.3224 51.2919 0.717217 -0.512285 0 -0.858816  255 255 255 255
-47.9944 50.7583 0.537581 -0.447714 0 -0.894177  255 255 255 255
-48.1084 50.1001 0.596486 -0.470159 0 -0.882582  255 255 255 255
-48.3146 49.3962 0.712569 -0.510748 0 -0.859731  255 255 255 255
-47.9818 48.8697 0.531326 -0.445246 0 -0.895408  255 255 255 255
-48.0816 48.2254 0.582322 -0.464888 0 -0.88537  255 255 255 255
-48.2296 47.6138 0.663172 -0.494013 0 -0.869454  255 255 255 255
-48.0621 47.091 0.572102 -0.461036 0 -0.887382  255 255 255 255
-48.2926 46.5167 0.699584 -0.506421 0 -0.862287  255 255 255 255
-47.9778 45.9862 0.5293 -0.444443 0 -0.895807  255 255 255 255
-48.0871 45.3201 0.585201 -0.465966 0 -0.884803  255 255 255 255
-48.2849 44.5914 0.695084 -0.504909 0 -0.863173  255 255 255 255
-47.9256 44.0605 0.503806 -0.434181 0 -0.900826  255 255 255 255
-47.9861 43.3695 0.533427 -0.446077 0 -0.894995  255 255 255 255
-48.0622 42.5283 0.572165 -0.46106 0 -0.887369  255 255 255 255
-48.158 41.6528 0.623282 -0.47993 0 -0.877307  255 255 255 255
-48.3374 40.8707 0.726225 -0.515246 0 -0.857042  255 255 255 255
-47.9904 40.3288 0.535606 -0.446937 0 -0.894566  255 255 255 255
-48.0895 39.6369 0.58647 -0.466439 0 -0.884553  255 255 255 255
-48.2783 38.883 0.69119 -0.503597 0 -0.863939  255 255 255 255
-47.9081 38.3457 0.495403 -0.430732 0 -0.90248  255 255 255 255
-47.9522 37.6303 0.516706 -0.439411 0 -0.898286  255 255 255 255
-47.9924 36.7507 0.536608 -0.447331 0 -0.894369  255 255 255 255
-48.0108 35.8167 0.54585 -0.45095 0 -0.892549  255 255 255 255
-48.0189 34.8714 0.549933 -0.452537 0 -0.891745  255 255 255 255
-48.0225 33.9249 0.551786 -0.453255 0 -0.891381  255 255 255 255
-48.0242 32.9789 0.552653 -0.453591 0 -0.89121  255 255 255 255
-48.0251 32.0339 0.55307 -0.453752 0 -0.891128  255 255 255 255
-48.0255 31.0897 0.55328 -0.453833 0 -0.891087  255 255 255 255
-48.0257 30.1463 0.553401 -0.45388 0 -0.891063  255 255 255 255
-48.0259 29.2039 0.5535 -0.453918 0 -0.891043  255 255 255 255
-48.0262 28.2626 0.553633 -0.45397 0 -0.891017  255 255 255 255
-48.0266 27.323 0.553872 -0.454062 0 -0.89097  255 255 255 255
-48.0276 26.3856 0.554351 -0.454247 0 -0.890876  255 255 255 255
-48.0295 25.4513 0.555334 -0.454626 0 -0.890682  255 255 255 255
-48.0335 24.5213 0.55737 -0.45541 0 -0.890282  255 255 255 255
-48.0417 23.5973 0.561601 -0.457035 0 -0.889449  255 255 255 255
-48.0589 22.6811 0.570469 -0.460417 0 -0.887703  255 255 255 255
-48.095 21.7755 0.589371 -0.467521 0 -0.883982  255 255 255 255
-48.1725 20.8894 0.631214 -0.482773 0 -0.875745  255 255 255 255
-48.344 20.1081 0.730178 -0.516538 0 -0.856264  255 255 255 255
-47.9953 19.5711 0.538024 -0.447888 0 -0.89409  255 255 255 255
-48.0923 18.882 0.587915 -0.466978 0 -0.884269  255 255 255 255
-48.2798 18.1327 0.692102 -0.503904 0 -0.863759  255 255 255 255
-47.9098 17.5986 0.496212 -0.431066 0 -0.90232  255 255 255 255
-47.9542 16.8895 0.517693 -0.439808 0 -0.898092  255 255 255 255
-47.9961 16.0208 0.53842 -0.448043 0 -0.894012  255 255 255 255
-48.0184 15.1029 0.549705 -0.452449 0 -0.89179  255 255 255 255
-48.0351 14.1811 0.558177 -0.455721 0 -0.890123  255 255 255 255
-48.0561 13.2679 0.569019 -0.459866 0 -0.887988  255 255 255 255
-48.0923 12.3695 0.587916 -0.466979 0 -0.884268  255 255 255 255
-48.1591 11.4962 0.623874 -0.480143 0 -0.87719  255 255 255 255
-48.2774 10.6819 0.690658 -0.503417 0 -0.864044  255 255 255 255
-48.4325 10.0313 0.784794 -0.533955 0 -0.845513  255 255 255 255
-48.2343 9.39712 0.665839 -0.494936 0 -0.868929  255 255 255 255
-48.0612 8.75004 0.571639 -0.46086 0 -0.887473  255 255 255 255
-50.4291 68.2741 3.17447 -0.926983 0 -0.375104  255 255 255 255
-50.4227 8.02435 3.15873 -0.925723 0 -0.378202  255 255 255 255
-48.7884 6.75309 1.03137 -0.604012 0 -0.796975  255 255 255 255
-48.6228 69.3772 0.911075 -0.571425 0 -0.820654  255 255 255 255
-49.4015 6.66114 1.57963 -0.724714 0 -0.68905  255 255 255 255
-49.2969 69.4762 1.47272 -0.704106 0 -0.710095  255 255 255 255
-50.7019 68.0577 4.08637 -0.980684 0 -0.195596  255 255 255 255
-50.6815 7.80627 3.98918 -0.976674 0 -0.214728  255 255 255 255
-47.2155 69.0251 0.225133 -0.294399 0 -0.955683  255 255 255 255
-47.3175 7.50927 0.25772 -0.314469 0 -0.949268  255 255 255 255
-50.5592 68.9237 3.53455 -0.952601 0 -0.304223  255 255 255 255
-50.6383 7.08456 3.80862 -0.968176 0 -0.250272  255 255 255 255
-49.5177 5.83119 1.70603 -0.747584 0 -0.664167  255 255 255 255
-49.4668 70.3011 1.64952 -0.737552 0 -0.675291  255 255 255 255
-50.2966 5.78458 2.8751 -0.900896 0 -0.434035  255 255 255 255
-50.1668 70.2164 2.62398 -0.875362 0 -0.483468  255 255 255 255
-48.4788 5.95109 0.814419 -0.543079 0 -0.839681  255 255 255 255
-48.4058 70.259 0.768074 -0.528707 0 -0.848804  255 255 255 255
-50.603 5.81515 3.67895 -0.961216 0 -0.275798  255 255 255 255
-50.4527 70.3688 3.23398 -0.931637 0 -0.363389  255 255 255 255
-47.6763 5.89398 0.391784 -0.385094 0 -0.922877  255 255 255 255
-47.6271 70.3544 0.37157 -0.375416 0 -0.926856  255 255 255 255
-48.4495 68.5937 0.795611 -0.537312 0 -0.843384  255 255 255 255
-48.5124 7.49419 0.83628 -0.549676 0 -0.835378  255 255 255 255
-46.8951 68.3124 0.137786 -0.231324 0 -0.972877  255 255 255 255
-49.9276 5.64764 2.23348 -0.828264 0 -0.560338  255 255 255 255
-49.8744 70.4568 2.15635 -0.817787 0 -0.575521  255 255 255 255
-50.7455 68.9815 4.33765 -0.989265 0 -0.146132  255 255 255 255
-50.7582 7.12506 4.43003 -0.991781 0 -0.127947  255 255 255 255
-46.491 69.0439 0.058852 -0.151776 0 -0.988415  255 255 255 255
-46.4845 7.31742 0.057848 -0.150482 0 -0.988613  255 255 255 255
-49.5799 68.8311 1.77729 -0.759814 0 -0.650141  255 255 255 255
-49.7491 7.35216 1.98608 -0.793139 0 -0.60904  255 255 255 255
-46.327 69.7212 0.036394 -0.119486 0 -0.992836  255 255 255 255
-46.3404 6.54339 0.038026 -0.122126 0 -0.992515  255 255 255 255
-50.7653 69.7076 4.48702 -0.993164 0 -0.116728  255 255 255 255
-50.7783 6.48797 4.61119 -0.995733 0 -0.092285  255 255 255 255
-49.2064 8.2958 1.38521 -0.686298 0 -0.72732  255 255 255 255
-50.5258 67.6193 3.43365 -0.946028 0 -0.324084  255 255 255 255
-47.0617 67.6016 0.180396 -0.264123 0 -0.964489  255 255 255 255
-47.6273 8.26381 0.371643 -0.375452 0 -0.926842  255 255 255 255
-50.4992 66.3259 3.35791 -0.940789 0 -0.338993  255 255 255 255
-46.7797 66.7853 0.111758 -0.208603 0 -0.978  255 255 255 255
-48.5093 67.0767 0.83429 -0.54908 0 -0.83577  255 255 255 255
-49.926 67.2709 2.23111 -0.827948 0 -0.560805  255 255 255 255
-50.5215 65.5131 3.42094 -0.945167 0 -0.326587  255 255 255 255
-47.2933 65.6551 0.24976 -0.309699 0 -0.950835  255 255 255 255
-50.4767 64.5795 3.29677 -0.936365 0 -0.351029  255 255 255 255
-50.5158 63.6239 3.4047 -0.944056 0 -0.329784  255 255 255 255
-50.4825 62.6575 3.31219 -0.937497 0 -0.347994  255 255 255 255
-50.5327 61.7228 3.45373 -0.947373 0 -0.320132  255 255 255 255
-50.5212 60.8402 3.42019 -0.945116 0 -0.326735  255 255 255 255
-50.4745 59.8532 3.29075 -0.935919 0 -0.352215  255 255 255 255
-50.5168 58.8931 3.40764 -0.944258 0 -0.329205  255 255 255 255
-50.4849 57.9296 3.31864 -0.937967 0 -0.346724  255 255 255 255
-50.5343 57.0024 3.45852 -0.947691 0 -0.319188  255 255 255 255
-50.522 56.126 3.42264 -0.945283 0 -0.326252  255 255 255 255
-50.4737 55.1468 3.28876 -0.935772 0 -0.352606  255 255 255 255
-50.5132 54.1929 3.39726 -0.943544 0 -0.331248  255 255 255 255
-50.475 53.2362 3.29212 -0.936021 0 -0.351945  255 255 255 255
-50.5142 52.2957 3.4002 -0.943747 0 -0.33067  255 255 255 255
-50.476 51.3435 3.29479 -0.936218 0 -0.35142  255 255 255 255
-50.5153 50.4048 3.40337 -0.943965 0 -0.330046  255 255 255 255
-50.478 49.4544 3.3001 -0.93661 0 -0.350375  255 255 255 255
-50.517 48.5239 3.4082 -0.944297 0 -0.329094  255 255 255 255
-50.4726 47.5907 3.28577 -0.93555 0 -0.353195  255 255 255 255
-50.4753 46.5745 3.29283 -0.936074 0 -0.351804  255 255 255 255
-50.5206 45.6427 3.41855 -0.945005 0 -0.327057  255 255 255 255
-50.4916 44.6825 3.33682 -0.939282 0 -0.343145  255 255 255 255
-50.5449 43.7568 3.49047 -0.949786 0 -0.3129  255 255 255 255
-50.5428 42.887 3.48396 -0.949363 0 -0.31418  255 255 255 255
-50.5221 41.9743 3.42284 -0.945296 0 -0.326213  255 255 255 255
-50.4759 40.9589 3.29461 -0.936205 0 -0.351454  255 255 255 255
-50.5209 39.9828 3.41948 -0.945068 0 -0.326874  255 255 255 255
-50.4948 38.9951 3.3456 -0.939912 0 -0.341418  255 255 255 255
-50.5528 38.0534 3.51447 -0.951329 0 -0.308176  255 255 255 255
-50.5591 37.1684 3.53418 -0.952578 0 -0.304295  255 255 255 255
-50.5568 36.2529 3.52694 -0.952121 0 -0.305721  255 255 255 255
-50.5544 35.3177 3.51963 -0.951658 0 -0.307159  255 255 255 255
-50.553 34.3752 3.51525 -0.951379 0 -0.308022  255 255 255 255
-50.5523 33.4309 3.51293 -0.951231 0 -0.308478  255 255 255 255
-50.5519 32.4864 3.51176 -0.951156 0 -0.308709  255 255 255 255
-50.5517 31.5423 3.51116 -0.951118 0 -0.308827  255 255 255 255
-50.5516 30.5986 3.51084 -0.951098 0 -0.30889  255 255 255 255
-50.5515 29.6556 3.51062 -0.951084 0 -0.308932  255 255 255 255
-50.5514 28.7133 3.5104 -0.95107 0 -0.308977  255 255 255 255
-50.5513 27.772 3.51003 -0.951046 0 -0.309049  255 255 255 255
-50.5511 26.8321 3.50933 -0.951001 0 -0.309188  255 255 255 255
-50.5506 25.8939 3.50789 -0.950909 0 -0.30947  255 255 255 255
-50.5497 24.9583 3.50495 -0.95072 0 -0.31005  255 255 255 255
-50.5477 24.0258 3.49887 -0.95033 0 -0.311246  255 255 255 255
-50.5436 23.0964 3.48636 -0.949519 0 -0.313708  255 255 255 255
-50.535 22.1678 3.4606 -0.947829 0 -0.318779  255 255 255 255
-50.5166 21.2267 3.40691 -0.944209 0 -0.329348  255 255 255 255
-50.4729 20.2028 3.28648 -0.935602 0 -0.353056  255 255 255 255
-50.5196 19.2279 3.41546 -0.944794 0 -0.327666  255 255 255 255
-50.4939 18.2436 3.34332 -0.939749 0 -0.341866  255 255 255 255
-50.5522 17.3064 3.51261 -0.951211 0 -0.308541  255 255 255 255
-50.5584 16.428 3.53186 -0.952432 0 -0.304751  255 255 255 255
-50.5555 15.5224 3.52294 -0.951868 0 -0.306508  255 255 255 255
-50.5518 14.6015 3.51152 -0.951141 0 -0.308756  255 255 255 255
-50.5473 13.6793 3.49768 -0.950253 0 -0.311479  255 255 255 255
-50.5395 12.7622 3.47414 -0.948722 0 -0.316113  255 255 255 255
-50.5232 11.8516 3.42592 -0.945505 0 -0.325607  255 255 255 255
-50.4857 10.9483 3.32101 -0.93814 0 -0.346257  255 255 255 255
-50.3933 10.1268 3.08845 -0.919949 0 -0.392037  255 255 255 255
-47.4074 64.5831 0.288421 -0.332157 0 -0.943224  255 255 255 255
-47.3331 63.6258 0.262929 -0.317548 0 -0.948242  255 255 255 255
-47.4461 62.6585 0.302228 -0.339776 0 -0.940506  255 255 255 255
-47.3208 61.7232 0.258824 -0.315124 0 -0.94905  255 255 255 255
-47.3629 60.8405 0.273014 -0.323415 0 -0.946257  255 255 255 255
-47.4984 59.8533 0.321469 -0.350083 0 -0.936719  255 255 255 255
-47.3861 58.8932 0.280991 -0.327974 0 -0.944687  255 255 255 255
-47.4775 57.9297 0.313707 -0.345967 0 -0.938247  255 255 255 255
-47.3393 57.0025 0.264988 -0.318755 0 -0.947837  255 255 255 255
-47.376 56.1261 0.277483 -0.325978 0 -0.945377  255 255 255 255
-47.5104 55.1468 0.325956 -0.352437 0 -0.935835  255 255 255 255
-47.4023 54.1929 0.286628 -0.331153 0 -0.943577  255 255 255 255
-47.5076 53.2362 0.324903 -0.351887 0 -0.936043  255 255 255 255
-47.3996 52.2957 0.285707 -0.330636 0 -0.943758  255 255 255 255
-47.5051 51.3435 0.323972 -0.351399 0 -0.936226  255 255 255 255
-47.3966 50.4048 0.284637 -0.330034 0 -0.943969  255 255 255 255
-47.4999 49.4544 0.322009 -0.350367 0 -0.936612  255 255 255 255
-47.3918 48.5239 0.282964 -0.32909 0 -0.944298  255 255 255 255
-47.5142 47.5907 0.327402 -0.353192 0 -0.935551  255 255 255 255
-47.5072 46.5745 0.324744 -0.351803 0 -0.936074  255 255 255 255
-47.3814 45.6427 0.279374 -0.327056 0 -0.945005  255 255 255 255
-47.4632 44.6825 0.308445 -0.343145 0 -0.939282  255 255 255 255
-47.3095 43.7568 0.255087 -0.3129 0 -0.949786  255 255 255 255
-47.316 42.887 0.257234 -0.31418 0 -0.949363  255 255 255 255
-47.3772 41.9743 0.277894 -0.326213 0 -0.945296  255 255 255 255
-47.5054 40.9589 0.324078 -0.351454 0 -0.936205  255 255 255 255
-47.3805 39.9828 0.279054 -0.326874 0 -0.945068  255 255 255 255
-47.4544 38.9951 0.305249 -0.341418 0 -0.939912  255 255 255 255
-47.2855 38.0534 0.247247 -0.308176 0 -0.951329  255 255 255 255
-47.2658 37.1684 0.240904 -0.304294 0 -0.952578  255 255 255 255
-47.2731 36.2529 0.243224 -0.305721 0 -0.952121  255 255 255 255
-47.2804 35.3177 0.245576 -0.307159 0 -0.951658  255 255 255 255
-47.2848 34.3752 0.246993 -0.308022 0 -0.951379  255 255 255 255
-47.2871 33.4309 0.247744 -0.308478 0 -0.951231  255 255 255 255
-47.2882 32.4864 0.248126 -0.308709 0 -0.951156  255 255 255 255
-47.2888 31.5423 0.248319 -0.308827 0 -0.951118  255 255 255 255
-47.2892 30.5986 0.248423 -0.30889 0 -0.951098  255 255 255 255
-47.2894 29.6556 0.248493 -0.308932 0 -0.951084  255 255 255 255
-47.2896 28.7133 0.248567 -0.308977 0 -0.95107  255 255 255 255
-47.29 27.772 0.248685 -0.309049 0 -0.951046  255 255 255 255
-47.2907 26.8321 0.248914 -0.309187 0 -0.951001  255 255 255 255
-47.2921 25.8939 0.24938 -0.309469 0 -0.950909  255 255 255 255
-47.295 24.9583 0.25034 -0.310049 0 -0.950721  255 255 255 255
-47.3011 24.0258 0.252324 -0.311244 0 -0.95033  255 255 255 255
-47.3136 23.0964 0.256436 -0.313705 0 -0.949521  255 255 255 255
-47.3394 22.1678 0.265018 -0.318773 0 -0.947831  255 255 255 255
-47.393 21.2267 0.283399 -0.329336 0 -0.944213  255 255 255 255
-47.5134 20.2028 0.327098 -0.353034 0 -0.935611  255 255 255 255
-47.3844 19.2279 0.280395 -0.327636 0 -0.944804  255 255 255 255
-47.4565 18.2435 0.30602 -0.341835 0 -0.93976  255 255 255 255
-47.2874 17.3062 0.247847 -0.308541 0 -0.951211  255 255 255 255
-47.2686 16.4275 0.24179 -0.30484 0 -0.952404  255 255 255 255
-47.2785 15.5214 0.24499 -0.306801 0 -0.951774  255 255 255 255
-47.292 14.5998 0.249337 -0.309443 0 -0.950918  255 255 255 255
-47.3092 13.676 0.254994 -0.312844 0 -0.949804  255 255 255 255
-47.3383 12.7557 0.264645 -0.318554 0 -0.947905  255 255 255 255
-47.3949 11.8386 0.284048 -0.329702 0 -0.944085  255 255 255 255
-47.5138 10.9209 0.327255 -0.353115 0 -0.93558  255 255 255 255
-47.7829 10.0647 0.437714 -0.406084 0 -0.913836  255 255 255 255
-50.5365 9.4246 3.46513 -0.948128 0 -0.317888  255 255 255 255
-47.388 9.17846 0.281638 -0.32834 0 -0.94456  255 255 255 255
-49.8652 9.16895 2.1434 -0.815986 0 -0.578072  255 255 255 255
-49.9178 65.9734 2.2191 -0.826342 0 -0.563168  255 255 255 255
-48.9304 9.6021 1.14306 -0.631977 0 -0.774987  255 255 255 255
-48.5848 66.1374 0.884843 -0.563936 0 -0.825818  255 255 255 255
-49.7654 65.1417 2.00731 -0.796331 0 -0.604861  255 255 255 255
-48.612 65.232 0.903523 -0.569284 0 -0.822141  255 255 255 255
-49.9031 63.8806 2.19761 -0.823442 0 -0.5674  255 255 255 255
-48.5109 63.8839 0.835324 -0.54939 0 -0.835566  255 255 255 255
-49.7686 63.1456 2.01154 -0.796964 0 -0.604027  255 255 255 255
-48.7234 63.1467 0.982917 -0.591217 0 -0.806512  255 255 255 255
-49.9312 61.8986 2.23889 -0.828984 0 -0.559273  255 255 255 255
-48.5249 61.899 0.844589 -0.552154 0 -0.833742  255 255 255 255
-49.8159 61.1169 2.07503 -0.806284 0 -0.591529  255 255 255 255
