ply
format ascii 1.0
comment VCGLIB generated
element vertex 929
property float x
property float y
property float z
property float nx
property float ny
property float nz
property uchar red
property uchar green
property uchar blue
property uchar alpha
element face 0
property list uchar int vertex_indices
end_header
-1.5376 16.1466 1.97124 0.61504 0 -0.788496  255 255 255 255
1.83248 14.0556 1.70059 -0.732993 0 -0.680236  255 255 255 255
1.69599 14.0572 -1.83674 -0.678396 0 0.734696  255 255 255 255
-1.83675 14.0572 -1.69598 0.734701 0 0.678391  255 255 255 255
-1.6956 14.0563 1.8371 0.678239 0 -0.734842  255 255 255 255
-1.80598 12.7246 1.72871 0.722392 0 -0.691484  255 255 255 255
-1.72867 12.7247 -1.80602 0.691469 0 0.722406  255 255 255 255
1.80602 12.7247 -1.72867 -0.722407 0 0.691468  255 255 255 255
1.72817 12.7245 1.8065 -0.691267 0 -0.722599  255 255 255 255
1.92949 15.6734 -1.58968 -0.771795 0 0.635871  255 255 255 255
-1.5899 15.6732 -1.9293 0.635962 0 0.771721  255 255 255 255
-1.92669 15.6666 1.59307 0.770677 0 -0.637226  255 255 255 255
2.08351 17.5725 1.38166 -0.833403 0 -0.552665  255 255 255 255
1.42591 17.4467 -2.05348 -0.570362 0 0.821393  255 255 255 255
-2.05364 17.4465 -1.42567 0.821458 0 0.570269  255 255 255 255
-1.41405 17.4156 2.06167 0.565619 0 -0.824667  255 255 255 255
-1.32595 12.6659 2.1194 0.530378 0 -0.847761  255 0 0 255
-2.11939 12.6659 -1.32597 0.847756 0 0.530386  255 255 255 255
1.32597 12.6659 -2.11939 -0.530386 0 0.847756  255 255 255 255
2.11923 12.6658 1.32622 -0.847693 0 -0.530486  255 255 255 255
1.17103 17.7133 2.20878 -0.468413 0 -0.88351  255 255 255 255
2.23757 17.5442 -1.11503 -0.895026 0 0.446013  255 255 255 255
-1.1174 17.5423 -2.23639 0.446958 0 0.894555  255 255 255 255
-2.23532 17.5386 1.11953 0.894127 0 -0.447814  255 255 255 255
2.19194 17.7862 1.20226 -0.876774 0 -0.480903  255 255 255 255
1.22588 17.7414 -2.17881 -0.490353 0 0.871524  255 255 255 255
-2.17888 17.7413 -1.22576 0.871552 0 0.490302  255 255 255 255
-1.20127 17.6925 2.19248 0.480507 0 -0.876991  255 255 255 255
-1.65127 12.377 1.87705 0.660508 0 -0.750819  255 255 255 255
-1.87703 12.3771 -1.65129 0.750813 0 0.660515  255 255 255 255
1.65129 12.3771 -1.87703 -0.660515 0 0.750813  255 255 255 255
1.87682 12.377 1.65153 -0.750729 0 -0.660611  255 255 255 255
1.6496 15.3396 1.87852 -0.659838 0 -0.751408  255 255 255 255
1.84309 15.3312 -1.68908 -0.737237 0 0.675634  255 255 255 255
-1.6892 15.3311 -1.84299 0.675681 0 0.737194  255 255 255 255
-1.84079 15.3257 1.69159 0.736316 0 -0.676638  255 255 255 255
1.38272 14.6234 2.08281 -0.553088 0 -0.833123  255 255 255 255
2.07756 14.6308 -1.39059 -0.831023 0 0.556238  255 255 255 255
-1.39062 14.6308 -2.07754 0.556247 0 0.831017  255 255 255 255
-2.0772 14.6298 1.39112 0.830882 0 -0.556448  255 255 255 255
-2.09842 13.788 1.35891 0.839369 0 -0.543563  255 255 255 255
-1.35878 13.7883 -2.0985 0.543513 0 0.839401  255 255 255 255
2.09851 13.7883 -1.35878 -0.839402 0 0.543511  255 255 255 255
1.35711 13.7875 2.09959 -0.542843 0 -0.839834  255 255 255 255
-1.86649 14.4706 1.66319 0.746597 0 -0.665277  255 255 255 255
-1.6625 14.4721 -1.86711 0.664999 0 0.746844  255 255 255 255
1.86714 14.4722 -1.66247 -0.746854 0 0.664988  255 255 255 255
1.6533 14.4676 1.87526 -0.661321 0 -0.750103  255 255 255 255
2.04015 14.7218 1.44491 -0.816061 0 -0.577965  255 255 255 255
1.4371 14.7208 -2.04566 -0.574841 0 0.818265  255 255 255 255
-2.04568 14.7208 -1.43707 0.818273 0 0.57483  255 255 255 255
-1.43615 14.7189 2.04633 0.574459 0 -0.818533  255 255 255 255
1.88208 15.3263 1.64553 -0.752831 0 -0.658214  255 255 255 255
1.62517 15.3155 -1.89969 -0.650067 0 0.759877  255 255 255 255
-1.89977 15.3154 -1.62507 0.75991 0 0.650029  255 255 255 255
-1.62228 15.3091 1.90216 0.648913 0 -0.760862  255 255 255 255
-0.498328 16.4904 2.44983 0.199331 0 -0.979932  255 255 255 255
0.492563 16.5141 2.451 -0.197025 0 -0.980398  255 255 255 255
2.14157 16.854 1.28983 -0.856629 0 -0.515933  255 255 255 255
1.25342 16.8536 -2.16309 -0.501367 0 0.865235  255 255 255 255
-2.16321 16.8534 -1.2532 0.865284 0 0.501282  255 255 255 255
-1.19774 16.8206 2.19441 0.479095 0 -0.877763  255 255 255 255
-0.706564 16.282 2.39808 0.282626 0 -0.95923  255 255 255 255
0.700313 16.3085 2.39991 -0.280125 0 -0.959963  255 255 255 255
-2.49028 16.314 0.220199 0.996113 0 -0.08808  255 255 255 255
-0.21984 16.3145 -2.49031 0.087936 0 0.996126  255 255 255 255
2.49084 16.3178 -0.213751 -0.996338 0 0.0855  255 255 255 255
0.920387 17.8925 2.32441 -0.368155 0 -0.929764  255 255 255 255
2.28007 17.9714 1.02532 -0.912029 0 -0.410126  255 255 255 255
1.03257 17.9479 -2.2768 -0.413027 0 0.910719  255 255 255 255
-2.27683 17.9478 -1.0325 0.910732 0 0.412999  255 255 255 255
-0.934238 17.8764 2.31888 0.373695 0 -0.927552  255 255 255 255
-0.955744 16.2598 2.3101 0.382298 0 -0.924039  255 0 0 255
0.942735 16.3025 2.31544 -0.377094 0 -0.926175  255 255 255 255
-2.06017 13.3989 1.41623 0.824067 0 -0.566492  255 255 255 255
-1.41615 13.399 -2.06023 0.566459 0 0.82409  255 255 255 255
2.06023 13.399 -1.41614 -0.824091 0 0.566458  255 255 255 255
1.41504 13.3986 2.06099 -0.566016 0 -0.824394  255 255 255 255
2.49991 18.0041 0.021034 -0.999965 0 -0.008414  255 255 255 255
0.016285 17.9973 -2.49995 -0.006514 0 0.999979  255 255 255 255
-2.49995 17.997 -0.01611 0.999979 0 0.006444  255 255 255 255
1.46873 16.6482 2.02307 -0.587493 0 -0.809229  255 255 255 255
2.42346 17.9925 0.613874 -0.969384 0 -0.245549  255 255 255 255
2.40929 17.8725 -0.667332 -0.963715 0 0.266933  255 255 255 255
0.611425 17.9753 -2.42408 -0.24457 0 0.969632  255 255 255 255
-0.670543 17.8696 -2.4084 0.268217 0 0.963358  255 255 255 255
-2.4241 17.9752 -0.61134 0.96964 0 0.244536  255 255 255 255
-2.40821 17.8685 0.671221 0.963283 0 -0.268488  255 255 255 255
0.588397 17.9483 2.42977 -0.235359 0 -0.971909  255 255 255 255
-0.594876 17.9387 2.42819 0.23795 0 -0.971277  255 255 255 255
-2.43045 16.4105 0.585583 0.97218 0 -0.234233  255 255 255 255
-2.43645 16.4715 -0.560102 0.97458 0 0.224041  255 255 255 255
-0.584773 16.4117 -2.43065 0.233909 0 0.972258  255 255 255 255
0.560267 16.4717 -2.43641 -0.224107 0 0.974565  255 255 255 255
2.43176 16.4146 -0.580125 -0.972704 0 0.23205  255 255 255 255
2.43097 16.4752 0.583439 -0.972387 0 -0.233376  255 255 255 255
-2.31622 16.3071 0.940819 0.926487 0 -0.376328  255 255 255 255
-2.31625 16.3391 -0.940748 0.926498 0 0.376299  255 255 255 255
-0.93962 16.309 -2.3167 0.375848 0 0.926681  255 255 255 255
0.940846 16.3392 -2.31621 -0.376338 0 0.926482  255 255 255 255
2.3175 16.3103 -0.937652 -0.927 0 0.375061  255 255 255 255
2.31041 16.3319 0.954994 -0.924163 0 -0.381997  255 255 255 255
-2.49706 16.3857 -0.121192 0.998824 0 0.048477  255 255 255 255
0.121461 16.3861 -2.49705 -0.048584 0 0.998819  255 255 255 255
2.49642 16.3911 0.13371 -0.998569 0 -0.053484  255 255 255 255
2.496 17.1641 0.141308 -0.998401 0 -0.056523  255 255 255 255
0.113854 17.1437 -2.49741 -0.045542 0 0.998962  255 255 255 255
-2.49743 17.1431 -0.1134 0.998971 0 0.04536  255 255 255 255
1.3512 17.4096 2.10339 -0.540479 0 -0.841357  255 255 255 255
2.12834 17.3302 -1.31156 -0.851334 0 0.524623  255 255 255 255
-1.31331 17.3288 -2.12725 0.525324 0 0.850902  255 255 255 255
-2.12511 17.3225 1.31678 0.850044 0 -0.526712  255 255 255 255
-1.86717 12.4016 1.66243 0.746867 0 -0.664973  255 255 255 255
-1.66242 12.4016 -1.86718 0.664966 0 0.746874  255 255 255 255
1.86718 12.4016 -1.66242 -0.746874 0 0.664966  255 255 255 255
1.66219 12.4015 1.86739 -0.664875 0 -0.746955  255 255 255 255
1.57326 17.5175 1.94289 -0.629306 0 -0.777158  255 255 255 255
1.97037 17.4722 -1.53871 -0.788149 0 0.615484  255 255 255 255
-1.53962 17.4715 -1.96967 0.615847 0 0.787866  255 255 255 255
-1.96635 17.463 1.54384 0.786542 0 -0.617537  255 255 255 255
1.92462 17.6929 1.59557 -0.769848 0 -0.638227  255 255 255 255
1.6387 17.5811 -1.88803 -0.655481 0 0.755212  255 255 255 255
-1.8883 17.5808 -1.63839 0.75532 0 0.655356  255 255 255 255
-1.63122 17.5638 1.8945 0.652489 0 -0.757798  255 255 255 255
1.76716 16.2707 1.76838 -0.706862 0 -0.707351  255 255 255 255
1.7761 16.231 -1.7594 -0.710439 0 0.703759  255 255 255 255
-1.75975 16.2307 -1.77575 0.703901 0 0.710298  255 255 255 255
-1.76909 16.2163 1.76645 0.707635 0 -0.706579  255 255 255 255
1.45837 15.7674 2.03056 -0.583348 0 -0.812222  255 255 255 255
-1.42116 13.7984 2.05677 0.568463 0 -0.822709  255 255 255 255
-2.05665 13.7988 -1.42133 0.82266 0 0.568534  255 255 255 255
1.42134 13.7988 -2.05665 -0.568536 0 0.822658  255 255 255 255
2.05523 13.7983 1.42339 -0.822091 0 -0.569357  255 255 255 255
-1.91247 13.7729 1.61011 0.764988 0 -0.644045  255 255 255 255
-1.60989 13.7734 -1.91265 0.643957 0 0.765062  255 255 255 255
1.91266 13.7734 -1.60989 -0.765064 0 0.643954  255 255 255 255
1.60705 13.7721 1.91504 -0.642819 0 -0.766018  255 255 255 255
1.99353 15.6792 1.50859 -0.797411 0 -0.603437  255 255 255 255
1.49454 15.6696 -2.00408 -0.597816 0 0.801633  255 255 255 255
-2.00417 15.6695 -1.49442 0.801669 0 0.597768  255 255 255 255
-1.48965 15.6588 2.00772 0.595862 0 -0.803087  255 255 255 255
1.60952 16.392 1.91296 -0.64381 0 -0.765185  255 255 255 255
1.96664 16.3189 -1.54347 -0.786658 0 0.61739  255 255 255 255
-1.54414 16.3183 -1.96612 0.617657 0 0.786448  255 255 255 255
-1.962 16.3084 1.54937 0.784801 0 -0.619748  255 255 255 255
1.6096 16.0933 1.9129 -0.64384 0 -0.76516  255 255 255 255
1.90256 15.9798 -1.62181 -0.761023 0 0.648725  255 255 255 255
-1.62217 15.9795 -1.90225 0.648869 0 0.7609  255 255 255 255
-1.89839 15.9703 1.62669 0.759356 0 -0.650676  255 255 255 255
-1.39237 12.3684 2.07637 0.556946 0 -0.830548  255 255 255 255
-2.07636 12.3685 -1.39238 0.830545 0 0.556952  255 255 255 255
1.39238 12.3685 -2.07636 -0.556952 0 0.830545  255 255 255 255
2.07624 12.3684 1.39256 -0.830496 0 -0.557024  255 255 255 255
1.71329 17.8326 1.82062 -0.685315 0 -0.728247  255 255 255 255
1.8198 17.805 -1.71416 -0.727918 0 0.685664  255 255 255 255
-1.71455 17.8046 -1.81943 0.685819 0 0.727772  255 255 255 255
-1.81632 17.797 1.71784 0.726527 0 -0.687138  255 255 255 255
-2.03337 12.244 1.45444 0.81335 0 -0.581775  255 255 255 255
-1.45443 12.244 -2.03338 0.581772 0 0.813352  255 255 255 255
2.03338 12.244 -1.45443 -0.813352 0 0.581772  255 255 255 255
1.45434 12.244 2.03345 -0.581734 0 -0.813379  255 255 255 255
1.22509 16.9636 2.17926 -0.490034 0 -0.871703  255 255 255 255
2.16361 16.9022 -1.25252 -0.865442 0 0.501009  255 255 255 255
-1.25459 16.9006 -2.16241 0.501836 0 0.864963  255 255 255 255
-2.16021 16.8941 1.25836 0.864085 0 -0.503346  255 255 255 255
1.88554 14.4775 1.64156 -0.754217 0 -0.656625  255 255 255 255
1.63322 14.4786 -1.89278 -0.653287 0 0.75711  255 255 255 255
-1.8928 14.4786 -1.63319 0.757119 0 0.653277  255 255 255 255
-1.63243 14.4769 1.89345 0.652973 0 -0.757381  255 255 255 255
1.75973 17.4007 1.77577 -0.703891 0 -0.710308  255 255 255 255
1.81241 17.3549 -1.72197 -0.724962 0 0.688789  255 255 255 255
-1.72254 17.3544 -1.81187 0.689016 0 0.724746  255 255 255 255
-1.80598 17.3408 1.7287 0.722394 0 -0.691482  255 255 255 255
2.15736 16.3914 1.26325 -0.862943 0 -0.505301  255 255 255 255
1.24838 16.4048 -2.166 -0.499353 0 0.866399  255 255 255 255
-2.16609 16.4047 -1.24822 0.866436 0 0.499288  255 255 255 255
-1.23073 16.3566 2.17608 0.492292 0 -0.87043  255 255 255 255
1.18593 16.4784 2.20081 -0.474372 0 -0.880325  255 255 255 255
-0.224518 16.3233 2.4899 0.089807 0 -0.995959  255 255 255 255
0.222661 16.3302 2.49007 -0.089064 0 -0.996026  255 255 255 255
1.45121 17.8367 2.03568 -0.580482 0 -0.814273  255 255 255 255
2.08802 17.7971 -1.37484 -0.835207 0 0.549936  255 255 255 255
-1.37583 17.7962 -2.08737 0.55033 0 0.834947  255 255 255 255
-2.08599 17.7923 1.37792 0.834394 0 -0.551168  255 255 255 255
2.06301 17.9198 1.41209 -0.825204 0 -0.564835  255 255 255 255
1.46953 17.8664 -2.02249 -0.587813 0 0.808997  255 255 255 255
-2.0226 17.8663 -1.46938 0.80904 0 0.587753  255 255 255 255
-1.46162 17.8484 2.02822 0.584648 0 -0.811287  255 255 255 255
1.87074 16.4451 1.65842 -0.748294 0 -0.663367  255 255 255 255
1.66458 16.447 -1.86526 -0.66583 0 0.746103  255 255 255 255
-1.86557 16.4467 -1.66422 0.746229 0 0.66569  255 255 255 255
-1.65378 16.4269 1.87484 0.66151 0 -0.749936  255 255 255 255
-1.28405 15.5999 2.14505 0.51362 0 -0.858018  255 0 0 255
2.14024 15.6074 1.29204 -0.856097 0 -0.516815  255 0 0 255
1.28644 15.6052 -2.14361 -0.514577 0 0.857444  255 0 0 255
-2.14364 15.6052 -1.2864 0.857455 0 0.514558  255 0 0 255
2.0742 15.9084 -1.39559 -0.829681 0 0.558237  255 255 255 255
-1.39599 15.9081 -2.07393 0.558397 0 0.829574  255 255 255 255
-2.07218 15.9033 1.3986 0.828872 0 -0.559439  255 255 255 255
2.02282 16.6813 -1.46909 -0.809126 0 0.587635  255 255 255 255
-1.4702 16.6804 -2.02201 0.58808 0 0.808803  255 255 255 255
-2.01811 16.6707 1.47555 0.807244 0 -0.590218  255 255 255 255
2.09851 15.9695 1.35877 -0.839405 0 -0.543506  255 255 255 255
1.35007 15.9695 -2.10412 -0.540028 0 0.841647  255 255 255 255
-2.10419 15.9694 -1.34996 0.841676 0 0.539982  255 255 255 255
-1.34301 15.9524 2.10863 0.537205 0 -0.843452  255 255 255 255
2.28153 17.8804 -1.02208 -0.912611 0 0.40883  255 255 255 255
-1.02382 17.8789 -2.28074 0.409529 0 0.912297  255 255 255 255
-2.28025 17.8771 1.02491 0.912102 0 -0.409964  255 255 255 255
0.999484 17.057 2.29151 -0.399794 0 -0.916605  255 255 255 255
-1.0171 16.9702 2.28375 0.40684 0 -0.913499  255 255 255 255
1.95564 15.0361 1.5574 -0.782255 0 -0.622958  255 255 255 255
1.54369 15.0322 -1.96648 -0.617475 0 0.786591  255 255 255 255
-1.96652 15.0321 -1.54363 0.786608 0 0.617452  255 255 255 255
-1.54186 15.0282 1.96791 0.616744 0 -0.787164  255 255 255 255
1.7697 17.0959 1.76583 -0.70788 0 -0.706333  255 255 255 255
-1.80117 17.0499 1.73372 0.720467 0 -0.693489  255 255 255 255
1.80889 17.066 -1.72566 -0.723556 0 0.690265  255 255 255 255
-1.72627 17.0654 -1.80832 0.690506 0 0.723326  255 255 255 255
-1.64007 14.1179 -1.88684 0.656029 0 0.754736  255 255 255 255
1.88685 14.1179 -1.64006 -0.754741 0 0.656023  255 255 255 255
-1.8865 14.117 1.64047 0.754599 0 -0.656187  255 255 255 255
1.63494 14.1155 1.89129 -0.653974 0 -0.756517  255 255 255 255
2.43141 16.7615 -0.581612 -0.972562 0 0.232645  255 255 255 255
-2.42934 16.7548 0.590178 0.971736 0 -0.236071  255 255 255 255
-0.588922 16.7567 -2.42964 0.235569 0 0.971858  255 255 255 255
-1.63276 17.8707 1.89317 0.653102 0 -0.75727  255 255 255 255
2.34636 17.1494 0.862884 -0.938546 0 -0.345154  255 255 255 255
-1.88932 17.8814 -1.63722 0.755727 0 0.654887  255 255 255 255
1.63743 17.8816 -1.88913 -0.654973 0 0.755653  255 255 255 255
-7.56105 17.0984 -0.239421 -0.877901 0 0.478842  255 255 255 255
-7.55867 17.2089 0.235016 -0.88265 0 -0.470032  255 255 255 255
-7.72427 17.208 -0.417098 -0.551468 0 0.834196  255 255 255 255
-8.05379 17.1336 -0.497099 0.107574 0 0.994197  255 255 255 255
-8.34842 17.1336 -0.358617 0.696832 0 0.717235  255 255 255 255
-8.45437 17.0504 0.20869 0.908732 0 -0.41738  255 255 255 255
-7.71924 17.08 0.41373 -0.561524 0 -0.827461  255 255 255 255
-7.50126 17.1732 -0.035511 -0.997475 0 0.071021  255 255 255 255
-8.4895 17.07 -0.101929 0.979 0 0.203859  255 255 255 255
-8.29269 17.1895 0.40538 0.585378 0 -0.81076  255 255 255 255
-8.20977 17.4167 0.453867 0.419544 0 -0.907735  255 255 255 255
-7.79857 16.8567 0.45763 -0.402862 0 -0.915261  255 255 255 255
-7.73858 17.7921 0.426217 -0.522834 0 -0.852435  255 255 255 255
-8.25736 17.7835 0.428679 0.51472 0 -0.857358  255 255 255 255
-8.26511 16.475 0.423932 0.530213 0 -0.847865  255 255 255 255
-7.74904 16.4919 0.432458 -0.501917 0 -0.864916  255 255 255 255
-7.83614 18.0586 0.472387 -0.327723 0 -0.944774  255 255 255 255
-8.16274 18.0564 0.472774 0.32548 0 -0.945549  255 255 255 255
-8.16489 16.2135 0.47203 0.329772 0 -0.94406  255 255 255 255
-7.83902 16.2177 0.473376 -0.321964 0 -0.946752  255 255 255 255
-7.58614 17.5512 0.280577 -0.827711 0 -0.561155  255 255 255 255
-7.50177 17.504 0.042083 -0.996452 0 -0.084167  255 255 255 255
-7.55133 17.3962 -0.220667 -0.897343 0 0.441334  255 255 255 255
-7.6778 17.569 -0.382341 -0.644407 0 0.764683  255 255 255 255
-7.91387 17.5311 -0.492525 -0.172269 0 0.98505  255 255 255 255
-8.24744 17.551 -0.434478 0.494888 0 0.868957  255 255 255 255
-8.46215 17.4161 -0.190839 0.924295 0 0.381678  255 255 255 255
-8.49965 17.5809 0.018628 0.999306 0 -0.037255  255 255 255 255
-8.42039 17.4579 0.270686 0.840783 0 -0.541372  255 255 255 255
-8.42205 16.7049 0.268091 0.844103 0 -0.536182  255 255 255 255
-8.49976 16.7295 0.015516 0.999518 0 -0.031033  255 255 255 255
-8.41526 16.7751 -0.278492 0.830523 0 0.556985  255 255 255 255
-8.0338 16.7676 -0.498856 0.067601 0 0.997712  255 255 255 255
-7.63502 16.8395 -0.341746 -0.729958 0 0.683492  255 255 255 255
-7.51303 16.8752 -0.113416 -0.973934 0 0.226833  255 255 255 255
-7.5035 16.7079 0.059029 -0.993007 0 -0.118057  255 255 255 255
-7.59297 16.8167 0.290394 -0.814054 0 -0.580789  255 255 255 255
-8.45707 17.8459 -0.202705 0.914135 0 0.40541  255 255 255 255
-8.24279 17.9568 -0.437098 0.485575 0 0.874195  255 255 255 255
-7.77863 17.8853 -0.448326 -0.442736 0 0.896652  255 255 255 255
-7.52994 17.8699 0.170432 -0.940113 0 -0.340864  255 0 0 255
-8.47138 16.3837 0.166745 0.942754 0 -0.333489  255 0 0 255
-7.53928 17.8246 -0.194254 -0.921446 0 0.388507  255 255 255 255
-8.46894 16.3929 -0.173469 0.937888 0 0.346938  255 255 255 255
-8.2175 16.469 -0.450216 0.434997 0 0.900432  255 255 255 255
-7.81697 16.4914 -0.465297 -0.366054 0 0.930594  255 255 255 255
-7.53094 16.4756 -0.173149 -0.938124 0 0.346298  255 255 255 255
-8.47228 17.8693 0.164181 0.944552 0 -0.328363  255 255 255 255
-7.53368 16.4154 0.180403 -0.932641 0 -0.360806  255 0 0 255
-8.03925 17.8396 -0.498457 0.078508 0 0.996913  255 255 255 255
-7.84255 16.888 -0.474564 -0.314892 0 0.949128  255 255 255 255
-8.2288 16.8558 -0.444578 0.457603 0 0.889157  255 255 255 255
-7.50858 16.9564 0.092214 -0.982846 0 -0.184428  255 255 255 255
-8.49804 17.315 0.04424 0.996078 0 -0.088481  255 255 255 255
-7.74559 17.3808 0.430436 -0.50882 0 -0.860873  255 255 255 255
-8.26342 16.8858 0.42498 0.526847 0 -0.84996  255 255 255 255
0.437174 17.1303 -8.24265 -0.874347 0 0.485301  255 255 255 255
0.444122 17.2178 -7.77031 -0.888244 0 -0.459372  255 255 255 255
0.286943 17.2436 -8.40947 -0.573886 0 0.818935  255 255 255 255
0.011202 17.1769 -8.49987 -0.022405 0 0.999749  255 255 255 255
-0.4357 17.2008 -7.75471 0.8714 0 -0.490574  255 255 255 255
-0.432546 17.1118 -8.25081 0.865091 0 0.501615  255 255 255 255
0.284457 17.0845 -7.5888 -0.568913 0 -0.822398  255 255 255 255
0.498177 17.1915 -8.04266 -0.996353 0 0.085322  255 255 255 255
-0.499983 17.14 -7.99593 0.999967 0 -0.008136  255 255 255 255
-0.257409 17.3576 -7.57135 0.514817 0 -0.8573  255 255 255 255
0.204947 16.8596 -7.54393 -0.409893 0 -0.912134  255 255 255 255
0.262105 17.7938 -7.57421 -0.52421 0 -0.851589  255 255 255 255
-0.267722 17.7899 -7.57771 0.535444 0 -0.844571  255 255 255 255
-0.283957 16.5047 -7.58846 0.567914 0 -0.823088  255 0 0 255
0.254844 16.4946 -7.56982 -0.509688 0 -0.86036  255 255 255 255
0.164052 18.059 -7.52768 -0.328105 0 -0.944641  255 255 255 255
-0.165615 18.058 -7.52822 0.331231 0 -0.94355  255 255 255 255
-0.1702 16.2209 -7.52986 0.3404 0 -0.940281  255 255 255 255
0.162048 16.2184 -7.52699 -0.324095 0 -0.946025  255 255 255 255
0.415221 17.5565 -7.72145 -0.830441 0 -0.557106  255 255 255 255
0.498419 17.514 -7.96026 -0.996837 0 -0.079473  255 255 255 255
0.449221 17.415 -8.21955 -0.898442 0 0.439092  255 255 255 255
0.326887 17.5808 -8.37834 -0.653775 0 0.756689  255 255 255 255
0.097961 17.5308 -8.49031 -0.195922 0 0.98062  255 255 255 255
-0.259883 17.4785 -8.42715 0.519766 0 0.854308  255 255 255 255
-0.498844 17.6171 -7.96601 0.997687 0 -0.067971  255 255 255 255
-0.480053 17.4292 -8.13982 0.960107 0 0.279634  255 255 255 255
-0.434207 17.54 -7.75208 0.868414 0 -0.49584  255 255 255 255
-0.469261 16.8203 -7.82739 0.938522 0 -0.345219  255 255 255 255
-0.496873 16.6478 -8.05584 0.993745 0 0.111671  255 255 255 255
-0.414933 16.7519 -8.27898 0.829866 0 0.557962  255 255 255 255
-0.004056 16.8602 -8.49998 0.008113 0 0.999967  255 255 255 255
0.360195 16.903 -8.34678 -0.72039 0 0.69357  255 255 255 255
0.482306 16.9023 -8.13184 -0.964612 0 0.263675  255 255 255 255
0.498738 16.7231 -7.96449 -0.997475 0 -0.071012  255 255 255 255
0.412913 16.8248 -7.71804 -0.825826 0 -0.563925  255 255 255 255
-0.462009 17.8428 -8.19117 0.924019 0 0.382347  255 255 255 255
-0.458359 16.3815 -8.19977 0.916719 0 0.399534  255 255 255 255
-0.247674 17.9379 -8.43435 0.495348 0 0.868695  255 255 255 255
0.224079 17.8851 -8.44698 -0.448158 0 0.893954  255 255 255 255
0.470316 17.8737 -7.83029 -0.940631 0 -0.339431  255 255 255 255
-0.482725 16.3924 -7.86971 0.96545 0 -0.260588  255 0 0 255
0.461128 17.8309 -8.19329 -0.922256 0 0.38658  255 0 0 255
-0.162022 16.4978 -8.47302 0.324044 0 0.946042  255 255 255 255
0.188194 16.6768 -8.46323 -0.376389 0 0.926462  255 255 255 255
0.445247 16.4952 -8.2275 -0.890495 0 0.454994  255 255 255 255
0.471952 16.4229 -7.83489 -0.943905 0 -0.330219  255 255 255 255
-0.472868 17.8895 -7.83753 0.945737 0 -0.324934  255 255 255 255
-0.040248 17.8212 -8.49838 0.080495 0 0.996755  255 255 255 255
-0.493221 17.3854 -7.91794 0.986441 0 -0.164114  255 255 255 255
0.177615 16.9721 -8.46739 -0.355229 0 0.934779  255 255 255 255
-0.231369 16.9795 -8.44325 0.462738 0 0.886495  255 255 255 255
0.493689 16.9719 -7.92081 -0.987379 0 -0.158378  255 255 255 255
-0.492473 16.8943 -8.08643 0.984945 0 0.172865  255 255 255 255
0.25638 17.3842 -7.57073 -0.51276 0 -0.858532  255 255 255 255
-0.269896 16.963 -7.5791 0.539791 0 -0.841799  255 255 255 255
0.189143 16.334 -8.46284 -0.378287 0 0.925688  255 255 255 255
-0.429009 16 -5.0877 0 -1 0  255 255 255 255
-2.65536 16 -6.95678 0 -1 0  255 255 255 255
2.56838 16 -6.94866 0 -1 0  255 255 255 255
1.5608 16 -5.37918 0 -1 0  255 255 255 255
-1.98454 16 -5.38373 0 -1 0  255 255 255 255
-4.08229 16 -7.36505 0 -1 0  255 255 255 255
4.09175 16 -7.36707 0 -1 0  255 255 255 255
0.673086 16 -4.0738 0 -1 0  255 255 255 255
-1.96176 16 -8.2991 0 -1 0  255 255 255 255
1.90915 16 -8.29449 0 -1 0  255 255 255 255
-0.840472 16 -6.36947 0 -1 0  255 255 255 255
0.424603 16 -6.25254 0 -1 0  255 255 255 255
-0.801565 16 -3.73016 0 -1 0  255 255 255 255
2.78189 16 -5.65275 0 -1 0  255 255 255 255
1.40047 16 -7.06049 0 -1 0  255 255 255 255
-3.10313 16 -5.86689 0 -1 0  255 255 255 255
-3.22015 16 -8.11441 0 -1 0  255 255 255 255
3.25398 16 -8.08088 0 -1 0  255 255 255 255
-1.41496 16 -7.31612 0 -1 0  255 255 255 255
3.67735 16 -6.3354 0 -1 0  255 255 255 255
-1.78826 16 -4.29504 0 -1 0  255 255 255 255
1.73151 16 -4.27813 0 -1 0  255 255 255 255
-1.14806 16 -8.91796 0 -1 0  255 255 255 255
1.1821 16 -8.92942 0 -1 0  255 255 255 255
0.624187 16 -4.96535 0 -1 0  255 255 255 255
1.93171 16 -6.20204 0 -1 0  255 255 255 255
-3.87488 16 -6.36212 0 -1 0  255 255 255 255
-1.8721 16 -6.3046 0 -1 0  255 255 255 255
-5.03255 16 -7.47746 0 -1 0  255 255 255 255
5.06064 16 -7.48206 0 -1 0  255 255 255 255
0.036102 16 -3.41691 0 -1 0  255 255 255 255
-1.11109 16 -5.47272 0 -1 0  255 255 255 255
2.48341 16 -4.81124 0 -1 0  255 255 255 255
-2.78081 16 -5.03816 0 -1 0  255 255 255 255
-0.186594 16 -6.71989 0 -1 0  255 255 255 255
-0.280156 16 -5.83898 0 -1 0  255 255 255 255
-0.029071 16 -4.22384 0 -1 0  255 255 255 255
1.31564 16 -7.82272 0 -1 0  255 255 255 255
-4.02265 16 -8.19447 0 -1 0  255 255 255 255
4.02265 16 -8.19447 0 -1 0  255 255 255 255
-0.454997 16 -9.1881 0 -1 0  255 255 255 255
0.419743 16 -9.22157 0 -1 0  255 255 255 255
0.966093 16 -3.16987 0 -1 0  255 255 255 255
-3.1997 16 -7.36378 0 -1 0  255 255 255 255
3.21146 16 -7.31251 0 -1 0  255 255 255 255
-2.61775 16 -8.8453 0 -1 0  255 255 255 255
2.6175 16 -8.84492 0 -1 0  255 255 255 255
2.04979 16 -7.47078 0 -1 0  255 255 255 255
-2.54662 16 -7.69358 0 -1 0  255 255 255 255
-0.998329 16 -4.45772 0 -1 0  255 255 255 255
4.43811 16 -6.61487 0 -1 0  255 255 255 255
0.61882 16 -6.93949 0 -1 0  255 255 255 255
-4.53573 16 -6.78417 0 -1 0  255 255 255 255
1.20046 16 -5.99809 0 -1 0  255 255 255 255
-1.24509 16 -7.97604 0 -1 0  255 255 255 255
-3.20898 16 -6.5886 0 -1 0  255 255 255 255
-1.89186 16 -8.99821 0 -1 0  255 255 255 255
1.8919 16 -8.99986 0 -1 0  255 255 255 255
-1.47421 16 -3.59395 0 -1 0  255 255 255 255
-0.711653 16 -7.04319 0 -1 0  255 255 255 255
3.5191 16 -5.60309 0 -1 0  255 255 255 255
-0.990692 16 -3.0544 0 -1 0  255 255 255 255
2.96837 16 -6.33942 0 -1 0  255 255 255 255
1.56102 16 -3.56423 0 -1 0  255 255 255 255
2.67242 16 -7.66712 0 -1 0  255 255 255 255
-2.55498 16 -6.30752 0 -1 0  255 255 255 255
0.32515 16 -5.51663 0 -1 0  255 255 255 255
-2.4119 16 -4.45428 0 -1 0  255 255 255 255
1.19099 16 -4.6646 0 -1 0  255 255 255 255
-1.5062 16 -4.91862 0 -1 0  255 255 255 255
2.177 16 -5.45966 0 -1 0  255 255 255 255
-4.69301 16 -8.05779 0 -1 0  255 255 255 255
4.72217 16 -8.05581 0 -1 0  255 255 255 255
-3.75416 16 -5.74296 0 -1 0  255 255 255 255
-1.93882 16 -6.95286 0 -1 0  255 255 255 255
3.0787 16 -5.04409 0 -1 0  255 255 255 255
1.9658 16 -6.82141 0 -1 0  255 255 255 255
1.05669 16 -8.34128 0 -1 0  255 255 255 255
-1.37995 16 -6.68603 0 -1 0  255 255 255 255
-1.91394 16 -7.67346 0 -1 0  255 255 255 255
-3.58426 16 -8.67288 0 -1 0  255 255 255 255
3.58426 16 -8.67288 0 -1 0  255 255 255 255
0.955864 16 -5.44404 0 -1 0  255 255 255 255
-3.34437 16 -5.28438 0 -1 0  255 255 255 255
-2.54155 16 -5.64655 0 -1 0  255 255 255 255
-1.39636 16 -5.98473 0 -1 0  255 255 255 255
3.68194 16 -6.92621 0 -1 0  255 255 255 255
1.02909 16 -6.54259 0 -1 0  255 255 255 255
0.894111 16 -7.44312 0 -1 0  255 255 255 255
1.87334 16 -4.86003 0 -1 0  255 255 255 255
5.03659 16 -6.88675 0 -1 0  255 255 255 255
2.32096 16 -4.21338 0 -1 0  255 255 255 255
-5.62471 16 -7.5054 0 -1 0  255 255 255 255
5.66541 16 -7.53422 0 -1 0  255 255 255 255
-3.68193 16 -6.94182 0 -1 0  255 255 255 255
-0.416065 16 -3.04247 0 -1 0  255 255 255 255
-0.895676 16 -7.59719 0 -1 0  255 255 255 255
4.16999 16 -6.05626 0 -1 0  255 255 255 255
-0.901594 16 -8.47967 0 -1 0  255 255 255 255
-3.63408 16 -7.88968 0 -1 0  255 255 255 255
3.64621 16 -7.87912 0 -1 0  255 255 255 255
0.40046 16 -2.99771 0 -1 0  255 255 255 255
0.108144 16 -4.74761 0 -1 0  255 255 255 255
2.51408 16 -8.2462 0 -1 0  255 255 255 255
2.50666 16 -6.1737 0 -1 0  255 255 255 255
-2.08674 16 -3.96054 0 -1 0  255 255 255 255
-2.02759 16 -4.87379 0 -1 0  255 255 255 255
-0.885556 16 -9.35216 0 -1 0  255 255 255 255
0.896453 16 -9.37759 0 -1 0  255 255 255 255
0.66041 16 -8.74574 0 -1 0  255 255 255 255
3.09766 16 -6.84306 0 -1 0  255 255 255 255
-2.4474 16 -8.23194 0 -1 0  255 255 255 255
1.27741 16 -4.21183 0 -1 0  255 255 255 255
-5.15102 16 -6.9371 0 -1 0  255 255 255 255
-0.846156 16 -5.05292 0 -1 0  255 255 255 255
-4.46253 16 -6.30748 0 -1 0  255 255 255 255
0.557308 16 -4.43689 0 -1 0  255 255 255 255
-1.54661 16 -8.49283 0 -1 0  255 255 255 255
1.43125 16 -8.55775 0 -1 0  255 255 255 255
-1.23996 16 -4.03587 0 -1 0  255 255 255 255
-0.747802 16 -5.80826 0 -1 0  255 255 255 255
1.51889 16 -6.50182 0 -1 0  255 255 255 255
-0.605919 16 -4.27726 0 -1 0  255 255 255 255
1.56754 16 -9.31393 0 -1 0  255 255 255 255
-1.56761 16 -9.31316 0 -1 0  255 255 255 255
0.049941 16 -9.61797 0 -1 0  255 255 255 255
-3.12739 16 -8.95057 0 -1 0  255 255 255 255
3.12739 16 -8.95057 0 -1 0  255 255 255 255
1.99038 16 -3.78352 0 -1 0  255 255 255 255
-0.395187 16 -6.30847 0 -1 0  255 255 255 255
4.51892 16 -7.25632 0 -1 0  255 255 255 255
-2.04602 16 -5.95007 0 -1 0  255 255 255 255
-0.248862 16 -3.70429 0 -1 0  255 255 255 255
0.141619 16 -7.03208 0 -1 0  255 255 255 255
1.64458 16 -5.83124 0 -1 0  255 255 255 255
0.410826 16 -3.53961 0 -1 0  255 255 255 255
-4.59292 16 -7.28371 0 -1 0  255 255 255 255
-2.24445 16 -7.32235 0 -1 0  255 255 255 255
-0.298888 16 -7.14733 0 -1 0  255 255 255 255
-3.48195 16 -6.1551 0 -1 0  255 255 255 255
-0.006584 16 -8.95457 0 -1 0  255 255 255 255
-0.070701 16 -5.40977 0 -1 0  255 255 255 255
-0.622715 16 -5.39552 0 -1 0  255 255 255 255
2.43082 16 -9.27311 0 -1 0  255 255 255 255
-2.43085 16 -9.27315 0 -1 0  255 255 255 255
-5.16928 16 -7.9499 0 -1 0  255 255 255 255
5.18296 16 -7.96541 0 -1 0  255 255 255 255
0.274609 16 -6.66148 0 -1 0  255 255 255 255
1.75556 16 -7.83814 0 -1 0  255 255 255 255
1.5195 16 -7.46901 0 -1 0  255 255 255 255
5.35218 16 -7.15646 0 -1 0  255 255 255 255
2.51817 16 -5.28844 0 -1 0  255 255 255 255
-4.1651 16 -6.82619 0 -1 0  255 255 255 255
-0.617907 16 -8.69325 0 -1 0  255 255 255 255
-2.82957 16 -7.32431 0 -1 0  255 255 255 255
2.1932 16 -7.9718 0 -1 0  255 255 255 255
-2.15204 16 -6.58161 0 -1 0  255 255 255 255
-1.54636 16 -5.56985 0 -1 0  255 255 255 255
0.121177 16 -3.84186 0 -1 0  255 255 255 255
0.028723 16 -6.14327 0 -1 0  255 255 255 255
-4.28268 16 -7.80792 0 -1 0  255 255 255 255
4.29455 16 -7.80389 0 -1 0  255 255 255 255
2.31292 16 -6.58215 0 -1 0  255 255 255 255
3.18809 16 -5.88562 0 -1 0  255 255 255 255
4.02828 16 -5.63709 0 -1 0  255 255 255 255
1.05967 16 -3.58202 0 -1 0  255 255 255 255
-2.81211 16 -4.62388 0 -1 0  255 255 255 255
0.764828 16 -5.92685 0 -1 0  255 255 255 255
-1.42448 16 -3.16384 0 -1 0  255 255 255 255
1.43314 16 -3.15044 0 -1 0  255 255 255 255
2.85285 16 -4.3994 0 -1 0  255 255 255 255
-0.597241 16 -6.67799 0 -1 0  255 255 255 255
-2.99101 16 -7.70762 0 -1 0  255 255 255 255
-4.43436 16 -8.45474 0 -1 0  255 255 255 255
4.43545 16 -8.45467 0 -1 0  255 255 255 255
-4.27844 16 -5.90363 0 -1 0  255 255 255 255
1.06939 16 -2.63946 0 -1 0  255 255 255 255
-0.291227 16 -4.56778 0 -1 0  255 255 255 255
2.81576 16 -7.31769 0 -1 0  255 255 255 255
0.047474 16 -2.9613 0 -1 0  255 255 255 255
-3.00721 16 -6.97368 0 -1 0  255 255 255 255
-2.21089 16 -8.6546 0 -1 0  255 255 255 255
2.18748 16 -8.66915 0 -1 0  255 255 255 255
-2.35361 16 -5.14397 0 -1 0  255 255 255 255
-4.06366 16 -8.68694 0 -1 0  255 255 255 255
4.06379 16 -8.68693 0 -1 0  255 255 255 255
-3.18889 16 -4.87221 0 -1 0  255 255 255 255
2.42985 16 -7.33337 0 -1 0  255 255 255 255
0.884057 16 -7.85077 0 -1 0  255 255 255 255
-2.9286 16 -5.46564 0 -1 0  255 255 255 255
0.280042 16 -5.09661 0 -1 0  255 255 255 255
3.0255 16 -7.67876 0 -1 0  255 255 255 255
-1.08106 16 -3.4411 0 -1 0  255 255 255 255
3.99009 16 -6.63281 0 -1 0  255 255 255 255
4.6089 16 -6.22408 0 -1 0  255 255 255 255
-2.81766 16 -6.60631 0 -1 0  255 255 255 255
3.46036 16 -5.2072 0 -1 0  255 255 255 255
-1.58948 16 -7.69936 0 -1 0  255 255 255 255
-1.97184 16 -3.56839 0 -1 0  255 255 255 255
-3.60049 16 -8.24603 0 -1 0  255 255 255 255
3.60049 16 -8.24603 0 -1 0  255 255 255 255
-1.43616 16 -4.56398 0 -1 0  255 255 255 255
-2.96307 16 -8.51258 0 -1 0  255 255 255 255
2.96801 16 -8.50507 0 -1 0  255 255 255 255
0.410416 16 -9.62233 0 -1 0  255 255 255 255
-0.352224 16 -9.61639 0 -1 0  255 255 255 255
1.00904 16 -5.04899 0 -1 0  255 255 255 255
-0.69731 16 -3.3406 0 -1 0  255 255 255 255
-5.53464 16 -7.04741 0 -1 0  255 255 255 255
0.933331 16 -4.37925 0 -1 0  255 255 255 255
-0.697067 16 -2.76779 0 -1 0  255 255 255 255
1.00116 16 -7.06822 0 -1 0  255 255 255 255
-3.65867 16 -7.38912 0 -1 0  255 255 255 255
3.65674 16 -7.37318 0 -1 0  255 255 255 255
-0.988488 16 -6.7054 0 -1 0  255 255 255 255
-2.18896 16 -7.94857 0 -1 0  255 255 255 255
-4.92383 16 -6.52902 0 -1 0  255 255 255 255
-2.82217 16 -9.23267 0 -1 0  255 255 255 255
2.82211 16 -9.23258 0 -1 0  255 255 255 255
0.425678 16 -7.31442 0 -1 0  255 255 255 255
4.26762 16 -6.97989 0 -1 0  255 255 255 255
0.290289 16 -8.74797 0 -1 0  255 255 255 255
-3.7206 16 -5.32946 0 -1 0  255 255 255 255
4.69062 16 -7.59783 0 -1 0  255 255 255 255
3.32807 16 -6.52077 0 -1 0  255 255 255 255
0.676197 16 -6.56989 0 -1 0  255 255 255 255
-2.98474 16 -6.24448 0 -1 0  255 255 255 255
-0.88098 16 -8.10101 0 -1 0  255 255 255 255
3.14562 16 -5.45487 0 -1 0  255 255 255 255
1.89122 16 -5.22379 0 -1 0  255 255 255 255
-1.07269 16 -2.62675 0 -1 0  255 255 255 255
1.29248 16 -5.62106 0 -1 0  255 255 255 255
2.0064 16 -9.3872 0 -1 0  255 255 255 255
-2.00641 16 -9.38686 0 -1 0  255 255 255 255
-1.59044 16 -8.11922 0 -1 0  255 255 255 255
4.9095 16 -6.54818 0 -1 0  255 255 255 255
-1.78925 16 -7.31841 0 -1 0  255 255 255 255
-0.814377 16 -9.04384 0 -1 0  255 255 255 255
2.09083 16 -4.5519 0 -1 0  255 255 255 255
1.42984 16 -8.15224 0 -1 0  255 255 255 255
-1.22494 16 -6.33763 0 -1 0  255 255 255 255
3.14323 16 -4.66631 0 -1 0  255 255 255 255
-2.48503 16 -4.04667 0 -1 0  255 255 255 255
-1.66663 16 -3.94985 0 -1 0  255 255 255 255
-4.69921 16 -7.67167 0 -1 0  255 255 255 255
1.80283 16 -7.12383 0 -1 0  255 255 255 255
3.70726 16 -6.00158 0 -1 0  255 255 255 255
-1.5088 16 -8.89095 0 -1 0  255 255 255 255
0.649757 16 -2.80468 0 -1 0  255 255 255 255
0.89294 16 -6.2678 0 -1 0  255 255 255 255
1.51629 16 -8.94964 0 -1 0  255 255 255 255
1.55502 16 -6.18879 0 -1 0  255 255 255 255
0.08746 16 -5.7552 0 -1 0  255 255 255 255
-0.69533 16 -4.70901 0 -1 0  255 255 255 255
-3.58413 16 -6.61367 0 -1 0  255 255 255 255
-0.334052 16 -3.39435 0 -1 0  255 255 255 255
1.47362 16 -5.008 0 -1 0  255 255 255 255
1.9119 16 -3.43024 0 -1 0  255 255 255 255
-0.636585 16 -7.41583 0 -1 0  255 255 255 255
-1.15949 16 -7.09662 0 -1 0  255 255 255 255
-2.80764 16 -8.12717 0 -1 0  255 255 255 255
2.80201 16 -8.09037 0 -1 0  255 255 255 255
0.613828 16 -5.29934 0 -1 0  255 255 255 255
1.59256 16 -3.96692 0 -1 0  255 255 255 255
2.71856 16 -6.64915 0 -1 0  255 255 255 255
-1.73891 16 -5.97998 0 -1 0  255 255 255 255
-2.74176 16 -5.94245 0 -1 0  255 255 255 255
-1.74846 16 -6.6264 0 -1 0  255 255 255 255
-1.58165 16 -7.00142 0 -1 0  255 255 255 255
-2.47721 16 -4.82682 0 -1 0  255 255 255 255
1.20743 16 -7.33562 0 -1 0  255 255 255 255
-1.82398 16 -8.66714 0 -1 0  255 255 255 255
-3.39501 16 -5.64319 0 -1 0  255 255 255 255
2.18536 16 -5.03503 0 -1 0  255 255 255 255
2.80875 16 -5.99676 0 -1 0  255 255 255 255
-2.03811 16 -4.49614 0 -1 0  255 255 255 255
1.80709 16 -8.67111 0 -1 0  255 255 255 255
2.13404 16 -5.90812 0 -1 0  255 255 255 255
1.23358 16 -9.60982 0 -1 0  255 255 255 255
-1.2327 16 -9.58585 0 -1 0  255 255 255 255
-5.55388 16 -7.89412 0 -1 0  255 255 255 255
5.55864 16 -7.89771 0 -1 0  255 255 255 255
-1.21196 16 -5.13768 0 -1 0  255 255 255 255
0.891368 16 -9.03219 0 -1 0  255 255 255 255
-2.19693 16 -6.21454 0 -1 0  255 255 255 255
1.59119 16 -4.59271 0 -1 0  255 255 255 255
-1.75926 16 -4.62952 0 -1 0  255 255 255 255
-4.80168 16 -8.41008 0 -1 0  255 255 255 255
4.80168 16 -8.41008 0 -1 0  255 255 255 255
-4.06484 16 -5.53367 0 -1 0  255 255 255 255
0.31835 16 -4.14528 0 -1 0  255 255 255 255
-1.6707 16 -5.23615 0 -1 0  255 255 255 255
0.760509 16 -8.28616 0 -1 0  255 255 255 255
3.80699 16 -5.33593 0 -1 0  255 255 255 255
-1.13661 16 -4.80293 0 -1 0  255 255 255 255
2.22987 16 -7.02809 0 -1 0  255 255 255 255
2.44319 16 -5.728 0 -1 0  255 255 255 255
-0.89176 16 -4.09495 0 -1 0  255 255 255 255
-3.94852 16 -7.69088 0 -1 0  255 255 255 255
3.94852 16 -7.69088 0 -1 0  255 255 255 255
-1.01319 16 -6.06501 0 -1 0  255 255 255 255
0.419818 16 -5.86682 0 -1 0  255 255 255 255
-3.35044 16 -7.03228 0 -1 0  255 255 255 255
2.74344 16 -5.03495 0 -1 0  255 255 255 255
-0.268871 16 -8.73747 0 -1 0  255 255 255 255
-3.46831 16 -9.02113 0 -1 0  255 255 255 255
3.46831 16 -9.02113 0 -1 0  255 255 255 255
2.34899 16 -3.8773 0 -1 0  255 255 255 255
5.27683 16 -6.73091 0 -1 0  255 255 255 255
3.37328 16 -6.2079 0 -1 0  255 255 255 255
-6.01919 16 -7.55666 0 -1 0  255 255 255 255
6.01103 16 -7.5576 0 -1 0  255 255 255 255
-3.50947 16 -4.98669 0 -1 0  255 255 255 255
1.25498 16 -6.34246 0 -1 0  255 255 255 255
4.68102 16 -6.91377 0 -1 0  255 255 255 255
1.63954 16 -6.78794 0 -1 0  255 255 255 255
-1.21686 16 -8.33394 0 -1 0  255 255 255 255
-3.90663 16 -6.0646 0 -1 0  255 255 255 255
-1.3388 16 -2.8345 0 -1 0  255 255 255 255
-0.08055 16 -4.98189 0 -1 0  255 255 255 255
-2.39311 16 -5.94484 0 -1 0  255 255 255 255
1.86381 16 -6.5068 0 -1 0  255 255 255 255
3.39583 16 -7.00859 0 -1 0  255 255 255 255
-1.22088 16 -7.57 0 -1 0  255 255 255 255
0.99474 16 -8.65867 0 -1 0  255 255 255 255
-4.30653 16 -7.11015 0 -1 0  255 255 255 255
-0.263935 16 -2.77518 0 -1 0  255 255 255 255
-3.30016 16 -8.49412 0 -1 0  255 255 255 255
3.30016 16 -8.49412 0 -1 0  255 255 255 255
-2.34149 16 -6.94673 0 -1 0  255 255 255 255
-4.82635 16 -7.04429 0 -1 0  255 255 255 255
-1.75624 16 -3.26451 0 -1 0  255 255 255 255
-2.57938 16 -5.36464 0 -1 0  255 255 255 255
1.25836 16 -5.30025 0 -1 0  255 255 255 255
-4.19559 16 -6.52154 0 -1 0  255 255 255 255
0.299314 16 -2.74633 0 -1 0  255 255 255 255
0.64706 16 -7.6229 0 -1 0  255 255 255 255
1.10519 16 -8.06727 0 -1 0  255 255 255 255
1.33496 16 -2.85745 0 -1 0  255 255 255 255
-4.35535 16 -8.12966 0 -1 0  255 255 255 255
4.34829 16 -8.13198 0 -1 0  255 255 255 255
-2.752 16 -4.26913 0 -1 0  255 255 255 255
2.84767 16 -5.32567 0 -1 0  255 255 255 255
2.61443 16 -4.07692 0 -1 0  255 255 255 255
-2.22521 16 -7.63761 0 -1 0  255 255 255 255
4.39896 16 -7.50628 0 -1 0  255 255 255 255
-1.19717 16 -9.24982 0 -1 0  255 255 255 255
1.19717 16 -9.24982 0 -1 0  255 255 255 255
-0.650807 16 -8.3255 0 -1 0  255 255 255 255
1.24556 16 -6.72815 0 -1 0  255 255 255 255
2.02228 16 -4.12164 0 -1 0  255 255 255 255
4.40902 16 -5.8187 0 -1 0  255 255 255 255
-2.25048 16 -5.5856 0 -1 0  255 255 255 255
-3.33591 16 -7.68689 0 -1 0  255 255 255 255
0.813202 16 -4.71982 0 -1 0  255 255 255 255
3.37318 16 -4.87652 0 -1 0  255 255 255 255
-5.332 16 -7.61638 0 -1 0  255 255 255 255
5.33805 16 -7.62867 0 -1 0  255 255 255 255
-1.91326 16 -5.69384 0 -1 0  255 255 255 255
-0.694018 16 -7.76074 0 -1 0  255 255 255 255
0.171136 16 -4.45305 0 -1 0  255 255 255 255
-1.56012 16 -6.31989 0 -1 0  255 255 255 255
0.586127 16 -3.24409 0 -1 0  255 255 255 255
-0.352845 16 -5.52955 0 -1 0  255 255 255 255
0.727648 16 -9.66923 0 -1 0  255 255 255 255
-0.727648 16 -9.66923 0 -1 0  255 255 255 255
-0.682666 16 -6.12953 0 -1 0  255 255 255 255
4.91538 16 -7.19665 0 -1 0  255 255 255 255
3.96634 16 -6.27911 0 -1 0  255 255 255 255
-3.96763 16 -7.07659 0 -1 0  255 255 255 255
0.42141 16 -4.72924 0 -1 0  255 255 255 255
1.85363 16 -5.54981 0 -1 0  255 255 255 255
0.00349 16 -6.46808 0 -1 0  255 255 255 255
-3.79009 16 -8.89555 0 -1 0  255 255 255 255
3.7901 16 -8.89555 0 -1 0  255 255 255 255
5.70764 16 -7.2185 0 -1 0  255 255 255 255
-0.928964 16 -8.76399 0 -1 0  255 255 255 255
1.74195 16 -3.20214 0 -1 0  255 255 255 255
0.902904 16 -6.77649 0 -1 0  255 255 255 255
0.673517 16 -5.62455 0 -1 0  255 255 255 255
1.01585 16 -3.94468 0 -1 0  255 255 255 255
-4.35855 16 -7.50227 0 -1 0  255 255 255 255
-1.15872 16 -5.75492 0 -1 0  255 255 255 255
-0.430221 16 -6.88773 0 -1 0  255 255 255 255
-1.09807 16 -3.76365 0 -1 0  255 255 255 255
-5.05587 16 -8.27253 0 -1 0  255 255 255 255
5.06444 16 -8.27523 0 -1 0  255 255 255 255
-1.67326 16 -9.62066 0 -1 0  255 255 255 255
1.67326 16 -9.62066 0 -1 0  255 255 255 255
-3.06067 16 -5.1651 0 -1 0  255 255 255 255
2.53191 16 -4.4665 0 -1 0  255 255 255 255
3.61595 16 -6.65573 0 -1 0  255 255 255 255
-0.924746 16 -7.33143 0 -1 0  255 255 255 255
-2.16201 16 -4.25054 0 -1 0  255 255 255 255
0.301606 16 -3.249 0 -1 0  255 255 255 255
1.22242 16 -3.37975 0 -1 0  255 255 255 255
3.93523 16 -7.07052 0 -1 0  255 255 255 255
-0.294056 16 -4.06426 0 -1 0  255 255 255 255
-0.093939 16 -9.28372 0 -1 0  255 255 255 255
2.20323 16 -6.26896 0 -1 0  255 255 255 255
-1.42587 16 -4.26049 0 -1 0  255 255 255 255
2.37224 16 -7.6515 0 -1 0  255 255 255 255
-5.86521 16 -7.27566 0 -1 0  255 255 255 255
-4.71317 16 -6.10717 0 -1 0  255 255 255 255
0.467188 16 -3.83819 0 -1 0  255 255 255 255
-4.15949 16 -6.20064 0 -1 0  255 255 255 255
-1.87511 16 -7.95768 0 -1 0  255 255 255 255
2.27056 16 -8.3554 0 -1 0  255 255 255 255
3.36983 16 -7.65075 0 -1 0  255 255 255 255
0.739834 16 -3.62747 0 -1 0  255 255 255 255
-5.32162 16 -6.69437 0 -1 0  255 255 255 255
0.72088 16 -7.22158 0 -1 0  255 255 255 255
-5.23805 16 -7.23386 0 -1 0  255 255 255 255
-3.88349 16 -6.71269 0 -1 0  255 255 255 255
-0.563324 16 -3.91293 0 -1 0  255 255 255 255
-2.31802 16 -3.73049 0 -1 0  255 255 255 255
-2.50764 16 -6.67048 0 -1 0  255 255 255 255
1.01627 16 -5.74574 0 -1 0  255 255 255 255
-3.82523 16 -8.47049 0 -1 0  255 255 255 255
3.82524 16 -8.47049 0 -1 0  255 255 255 255
2.21878 16 -9.00256 0 -1 0  255 255 255 255
-2.22119 16 -9.00092 0 -1 0  255 255 255 255
2.64509 16 -8.48684 0 -1 0  255 255 255 255
1.14788 16 -7.58873 0 -1 0  255 255 255 255
-0.529023 16 -3.61647 0 -1 0  255 255 255 255
-0.916111 16 -5.31672 0 -1 0  255 255 255 255
2.82895 16 -4.74617 0 -1 0  255 255 255 255
-0.151055 16 -3.1777 0 -1 0  255 255 255 255
2.85734 16 -7.00794 0 -1 0  255 255 255 255
-1.00204 16 -7.81815 0 -1 0  255 255 255 255
4.95735 16 -7.76535 0 -1 0  255 255 255 255
4.26031 16 -6.36539 0 -1 0  255 255 255 255
-5.84336 16 -7.801 0 -1 0  255 255 255 255
5.85366 16 -7.79176 0 -1 0  255 255 255 255
-2.53738 16 -7.22716 0 -1 0  255 255 255 255
-2.65271 16 -8.49247 0 -1 0  255 255 255 255
2.50795 16 -7.94008 0 -1 0  255 255 255 255
-0.702614 16 -3.05387 0 -1 0  255 255 255 255
-0.891667 16 -5.55576 0 -1 0  255 255 255 255
-1.23959 16 -8.64926 0 -1 0  255 255 255 255
1.28816 16 -3.77491 0 -1 0  255 255 255 255
-5.0877 16 0.429009 0 -1 0  255 255 255 255
-6.95678 16 2.65536 0 -1 0  255 255 255 255
-6.94866 16 -2.56838 0 -1 0  255 255 255 255
-5.37918 16 -1.5608 0 -1 0  255 255 255 255
-5.38373 16 1.98454 0 -1 0  255 255 255 255
-7.36505 16 4.08229 0 -1 0  255 255 255 255
-7.36707 16 -4.09175 0 -1 0  255 255 255 255
-4.0738 16 -0.673086 0 -1 0  255 255 255 255
-8.2991 16 1.96176 0 -1 0  255 255 255 255
-8.29449 16 -1.90915 0 -1 0  255 255 255 255
-6.36947 16 0.840472 0 -1 0  255 255 255 255
-6.25254 16 -0.424603 0 -1 0  255 255 255 255
-3.73016 16 0.801565 0 -1 0  255 255 255 255
-5.65275 16 -2.78189 0 -1 0  255 255 255 255
-7.06049 16 -1.40047 0 -1 0  255 255 255 255
-5.86689 16 3.10313 0 -1 0  255 255 255 255
-8.11441 16 3.22015 0 -1 0  255 255 255 255
-8.08088 16 -3.25398 0 -1 0  255 255 255 255
-7.31612 16 1.41496 0 -1 0  255 255 255 255
-6.3354 16 -3.67735 0 -1 0  255 255 255 255
-4.29504 16 1.78826 0 -1 0  255 255 255 255
-4.27813 16 -1.73151 0 -1 0  255 255 255 255
-8.91796 16 1.14806 0 -1 0  255 255 255 255
-8.92942 16 -1.1821 0 -1 0  255 255 255 255
-4.96535 16 -0.624187 0 -1 0  255 255 255 255
-6.20204 16 -1.93171 0 -1 0  255 255 255 255
-6.36212 16 3.87488 0 -1 0  255 255 255 255
-6.3046 16 1.8721 0 -1 0  255 255 255 255
-7.47746 16 5.03255 0 -1 0  255 255 255 255
-7.48206 16 -5.06064 0 -1 0  255 255 255 255
-3.41691 16 -0.036102 0 -1 0  255 255 255 255
-5.47272 16 1.11109 0 -1 0  255 255 255 255
-4.81124 16 -2.48341 0 -1 0  255 255 255 255
-5.03816 16 2.78081 0 -1 0  255 255 255 255
-6.71989 16 0.186594 0 -1 0  255 255 255 255
-5.83898 16 0.280156 0 -1 0  255 255 255 255
-4.22384 16 0.029071 0 -1 0  255 255 255 255
-7.82272 16 -1.31564 0 -1 0  255 255 255 255
-8.19447 16 4.02265 0 -1 0  255 255 255 255
-8.19447 16 -4.02265 0 -1 0  255 255 255 255
-9.1881 16 0.454997 0 -1 0  255 255 255 255
-9.22157 16 -0.419743 0 -1 0  255 255 255 255
-3.16987 16 -0.966093 0 -1 0  255 255 255 255
-7.36378 16 3.1997 0 -1 0  255 255 255 255
-7.31251 16 -3.21146 0 -1 0  255 255 255 255
-8.8453 16 2.61775 0 -1 0  255 255 255 255
-8.84492 16 -2.6175 0 -1 0  255 255 255 255
-7.47078 16 -2.04979 0 -1 0  255 255 255 255
-7.69358 16 2.54662 0 -1 0  255 255 255 255
-4.45772 16 0.998329 0 -1 0  255 255 255 255
-6.61487 16 -4.43811 0 -1 0  255 255 255 255
-6.93949 16 -0.61882 0 -1 0  255 255 255 255
-6.78417 16 4.53573 0 -1 0  255 255 255 255
-5.99809 16 -1.20046 0 -1 0  255 255 255 255
-7.97604 16 1.24509 0 -1 0  255 255 255 255
-6.5886 16 3.20898 0 -1 0  255 255 255 255
-8.99821 16 1.89186 0 -1 0  255 255 255 255
-8.99986 16 -1.8919 0 -1 0  255 255 255 255
-3.59395 16 1.47421 0 -1 0  255 255 255 255
-7.04319 16 0.711653 0 -1 0  255 255 255 255
-5.60309 16 -3.5191 0 -1 0  255 255 255 255
-3.0544 16 0.990692 0 -1 0  255 255 255 255
-6.33942 16 -2.96837 0 -1 0  255 255 255 255
-3.56423 16 -1.56102 0 -1 0  255 255 255 255
-7.66712 16 -2.67242 0 -1 0  255 255 255 255
-6.30752 16 2.55498 0 -1 0  255 255 255 255
-5.51663 16 -0.32515 0 -1 0  255 255 255 255
-4.45428 16 2.4119 0 -1 0  255 255 255 255
-4.6646 16 -1.19099 0 -1 0  255 255 255 255
-4.91862 16 1.5062 0 -1 0  255 255 255 255
-5.45966 16 -2.177 0 -1 0  255 255 255 255
-8.05779 16 4.69301 0 -1 0  255 255 255 255
-8.05581 16 -4.72217 0 -1 0  255 255 255 255
-5.74296 16 3.75416 0 -1 0  255 255 255 255
-6.95286 16 1.93882 0 -1 0  255 255 255 255
-5.04409 16 -3.0787 0 -1 0  255 255 255 255
-6.82141 16 -1.9658 0 -1 0  255 255 255 255
-8.34128 16 -1.05669 0 -1 0  255 255 255 255
-6.68603 16 1.37995 0 -1 0  255 255 255 255
-7.67346 16 1.91394 0 -1 0  255 255 255 255
-8.67288 16 3.58426 0 -1 0  255 255 255 255
-8.67288 16 -3.58426 0 -1 0  255 255 255 255
-5.44404 16 -0.955864 0 -1 0  255 255 255 255
-5.28438 16 3.34437 0 -1 0  255 255 255 255
-5.64655 16 2.54155 0 -1 0  255 255 255 255
-5.98473 16 1.39636 0 -1 0  255 255 255 255
-6.92621 16 -3.68194 0 -1 0  255 255 255 255
-6.54259 16 -1.02909 0 -1 0  255 255 255 255
-7.44312 16 -0.894111 0 -1 0  255 255 255 255
-4.86003 16 -1.87334 0 -1 0  255 255 255 255
-6.88675 16 -5.03659 0 -1 0  255 255 255 255
-4.21338 16 -2.32096 0 -1 0  255 255 255 255
-7.5054 16 5.62471 0 -1 0  255 255 255 255
-7.53422 16 -5.66541 0 -1 0  255 255 255 255
-6.94182 16 3.68193 0 -1 0  255 255 255 255
-3.04247 16 0.416065 0 -1 0  255 255 255 255
-7.59719 16 0.895676 0 -1 0  255 255 255 255
-6.05626 16 -4.16999 0 -1 0  255 255 255 255
-8.47967 16 0.901594 0 -1 0  255 255 255 255
-7.88968 16 3.63408 0 -1 0  255 255 255 255
-7.87912 16 -3.64621 0 -1 0  255 255 255 255
-2.99771 16 -0.40046 0 -1 0  255 255 255 255
-4.74761 16 -0.108144 0 -1 0  255 255 255 255
-8.2462 16 -2.51408 0 -1 0  255 255 255 255
-6.1737 16 -2.50666 0 -1 0  255 255 255 255
-3.96054 16 2.08674 0 -1 0  255 255 255 255
-4.87379 16 2.02759 0 -1 0  255 255 255 255
-9.35216 16 0.885556 0 -1 0  255 255 255 255
-9.37759 16 -0.896453 0 -1 0  255 255 255 255
-8.74574 16 -0.66041 0 -1 0  255 255 255 255
-6.84306 16 -3.09766 0 -1 0  255 255 255 255
-8.23194 16 2.4474 0 -1 0  255 255 255 255
-4.21183 16 -1.27741 0 -1 0  255 255 255 255
-6.9371 16 5.15102 0 -1 0  255 255 255 255
-5.05292 16 0.846156 0 -1 0  255 255 255 255
-6.30748 16 4.46253 0 -1 0  255 255 255 255
-4.43689 16 -0.557308 0 -1 0  255 255 255 255
-8.49283 16 1.54661 0 -1 0  255 255 255 255
-8.55775 16 -1.43125 0 -1 0  255 255 255 255
-4.03587 16 1.23996 0 -1 0  255 255 255 255
-5.80826 16 0.747802 0 -1 0  255 255 255 255
-6.50182 16 -1.51889 0 -1 0  255 255 255 255
-4.27726 16 0.605919 0 -1 0  255 255 255 255
-9.31316 16 1.56761 0 -1 0  255 255 255 255
-9.31393 16 -1.56754 0 -1 0  255 255 255 255
-9.61797 16 -0.049941 0 -1 0  255 255 255 255
-8.95057 16 3.12739 0 -1 0  255 255 255 255
-8.95057 16 -3.12739 0 -1 0  255 255 255 255
-3.78352 16 -1.99038 0 -1 0  255 255 255 255
-6.30847 16 0.395187 0 -1 0  255 255 255 255
-7.25632 16 -4.51892 0 -1 0  255 255 255 255
-5.95007 16 2.04602 0 -1 0  255 255 255 255
-3.70429 16 0.248862 0 -1 0  255 255 255 255
-7.03208 16 -0.141619 0 -1 0  255 255 255 255
-5.83124 16 -1.64458 0 -1 0  255 255 255 255
-3.53961 16 -0.410826 0 -1 0  255 255 255 255
-7.28371 16 4.59292 0 -1 0  255 255 255 255
-7.32235 16 2.24445 0 -1 0  255 255 255 255
-7.14733 16 0.298888 0 -1 0  255 255 255 255
-6.1551 16 3.48195 0 -1 0  255 255 255 255
-8.95457 16 0.006584 0 -1 0  255 255 255 255
-5.40977 16 0.070701 0 -1 0  255 255 255 255
-5.39552 16 0.622715 0 -1 0  255 255 255 255
-9.27315 16 2.43085 0 -1 0  255 255 255 255
-9.27311 16 -2.43082 0 -1 0  255 255 255 255
